0.6453201770782471 0.9976314306259155 0.8494071364402771 0.4470588266849518 0.4588235318660736 0.4313725531101227
0.620197057723999 0.8733617663383484 0.007905138656497002 0.33725491166114807 0.34117648005485535 0.2862745225429535
0.5665024518966675 0.9955787062644958 0.02806324139237404 0.20000000298023224 0.16470588743686676 0.13725490868091583
0.5630542039871216 0.9960524439811707 0.7407114505767822 0.6000000238418579 0.6196078658103943 0.6313725709915161
0.5507389307022095 0.9074687957763672 0.9889327883720398 0.3921568691730499 0.3960784375667572 0.37254902720451355
0.5428571701049805 0.9905258417129517 0.9881423115730286 0.3137255012989044 0.29019609093666077 0.23529411852359772
0.7169950604438782 0.9968419671058655 0.6810276508331299 0.7490196228027344 0.7686274647712708 0.7803921699523926
0.6066502332687378 0.8724143505096436 0.16007904708385468 0.16078431904315948 0.16078431904315948 0.15294118225574493
0.5443349480628967 0.9704721570014954 0.9881423115730286 0.4156862795352936 0.40784314274787903 0.35686275362968445
0.5024630427360535 0.9960524439811707 0.7225296497344971 0.5921568870544434 0.615686297416687 0.6078431606292725
0.6758620738983154 0.91915363073349 0.007509881630539894 0.3333333432674408 0.32156863808631897 0.24705882370471954
0.6857143044471741 0.8792041540145874 0.18379446864128113 0.27450981736183167 0.2823529541492462 0.27843138575553894
0.5620689392089844 0.9174166917800903 0.9889327883720398 0.3764705955982208 0.3803921639919281 0.35686275362968445
0.5073891878128052 0.9682614803314209 0.9885375499725342 0.3960784375667572 0.3803921639919281 0.33725491166114807
0.7167487740516663 0.9962103366851807 0.9280632138252258 0.4117647111415863 0.3921568691730499 0.30588236451148987
0.7229064106941223 0.941102147102356 0.00909090880304575 0.3960784375667572 0.3960784375667572 0.3019607961177826
0.5394088625907898 0.8708353042602539 0.9893280863761902 0.3607843220233917 0.35686275362968445 0.33725491166114807
0.692364513874054 0.9360492825508118 0.9881423115730286 0.47058823704719543 0.47058823704719543 0.43921568989753723
0.5753694772720337 0.9985788464546204 0.8758893013000488 0.5098039507865906 0.4901960790157318 0.4156862795352936
0.5497536659240723 0.9960524439811707 0.7051383256912231 0.5686274766921997 0.6000000238418579 0.6117647290229797
0.5997536778450012 0.9974735379219055 0.26363635063171387 0.7254902124404907 0.7215686440467834 0.6509804129600525
0.5310344696044922 0.9960524439811707 0.6308300495147705 0.7843137383460999 0.8196078538894653 0.8156862854957581
0.6576354503631592 0.9090478420257568 0.007905138656497002 0.27843138575553894 0.27450981736183167 0.19607843458652496
0.5982758402824402 0.9958944916725159 0.6031620502471924 0.6784313917160034 0.6980392336845398 0.7137255072593689
0.706403911113739 0.9962103366851807 0.6415019631385803 0.6666666865348816 0.686274528503418 0.6980392336845398
0.6285714507102966 0.9774198532104492 0.9877470135688782 0.3764705955982208 0.3686274588108063 0.3176470696926117
0.5251231789588928 0.9958944916725159 0.6300395131111145 0.7882353067398071 0.8196078538894653 0.8274509906768799
0.5443349480628967 0.9973156452178955 0.2699604630470276 0.7176470756530762 0.729411780834198 0.6549019813537598
0.5137931108474731 0.924838125705719 0.9889327883720398 0.38823530077934265 0.3843137323856354 0.364705890417099
0.5364531874656677 0.9955787062644958 0.5011857748031616 0.6823529601097107 0.7137255072593689 0.7254902124404907
0.5588669776916504 0.8705195188522339 0.008695651777088642 0.4588235318660736 0.46666666865348816 0.3803921639919281
0.6502463221549988 0.9973156452178955 0.8193675875663757 0.5647059082984924 0.5803921818733215 0.5764706134796143
0.5002462863922119 0.9954208135604858 0.5545454621315002 0.6549019813537598 0.6823529601097107 0.7137255072593689
0.6504926085472107 0.9422074556350708 0.00830039568245411 0.3176470696926117 0.3137255012989044 0.23137255012989044
0.6002463102340698 0.9966840147972107 0.7743083238601685 0.6000000238418579 0.615686297416687 0.6196078658103943
0.573645293712616 0.8990999460220337 0.008695651777088642 0.38823530077934265 0.3921568691730499 0.32156863808631897
0.5135468244552612 0.9955787062644958 0.5667984485626221 0.6509804129600525 0.6784313917160034 0.7019608020782471
0.7330049276351929 0.9182062149047852 0.9885375499725342 0.364705890417099 0.3529411852359772 0.29411765933036804
0.6864532232284546 0.8801515698432922 0.25691699981689453 0.12941177189350128 0.12941177189350128 0.12156862765550613
0.5145320296287537 0.9747354984283447 0.904347836971283 0.3607843220233917 0.3607843220233917 0.3294117748737335
0.6536945700645447 0.9974735379219055 0.2596837878227234 0.7490196228027344 0.7450980544090271 0.6745098233222961
0.6578817963600159 0.9208905696868896 0.9885375499725342 0.42352941632270813 0.42352941632270813 0.3843137323856354
0.7098522186279297 0.9976314306259155 0.2335968315601349 0.7215686440467834 0.7176470756530762 0.6352941393852234
0.4931034445762634 0.9939996600151062 0.3648221492767334 0.49803921580314636 0.4627451002597809 0.4274509847164154
0.5876847505569458 0.9974735379219055 0.3498023748397827 0.6352941393852234 0.6313725709915161 0.5529412031173706
0.7211822867393494 0.9976314306259155 0.24822133779525757 0.6980392336845398 0.7058823704719543 0.6196078658103943
0.5598522424697876 0.9973156452178955 0.1620553433895111 0.7098039388656616 0.7254902124404907 0.658823549747467
0.6908866763114929 0.913627028465271 0.007509881630539894 0.3843137323856354 0.35686275362968445 0.2862745225429535
0.6421182155609131 0.9704721570014954 0.9079051613807678 0.5176470875740051 0.529411792755127 0.4941176474094391
0.5854679942131042 0.9333649277687073 0.9885375499725342 0.40784314274787903 0.40392157435417175 0.3843137323856354
0.6785714030265808 0.994947075843811 0.42332014441490173 0.7411764860153198 0.7764706015586853 0.772549033164978
0.7056650519371033 0.8834675550460815 0.0071146246045827866 0.22745098173618317 0.21568627655506134 0.19607843458652496
0.7019704580307007 0.9062055945396423 0.18102766573429108 0.14509804546833038 0.14901961386203766 0.12941177189350128
0.7083743810653687 0.972682774066925 0.9090909361839294 0.4274509847164154 0.4274509847164154 0.3803921639919281
0.5832512378692627 0.9971577525138855 0.8454545736312866 0.5215686559677124 0.5411764979362488 0.5254902243614197
0.5312808156013489 0.9736301898956299 0.9039525985717773 0.37254902720451355 0.3607843220233917 0.3333333432674408
0.7290640473365784 0.9977893829345703 0.3071146309375763 0.7019608020782471 0.7058823704719543 0.6352941393852234
0.7128078937530518 0.9960524439811707 0.5620553493499756 0.6784313917160034 0.6980392336845398 0.7215686440467834
0.640640377998352 0.9736301898956299 0.9877470135688782 0.4117647111415863 0.3803921639919281 0.33725491166114807
0.6133005023002625 0.9957365989685059 0.5122529864311218 0.7058823704719543 0.7411764860153198 0.7686274647712708
0.5135468244552612 0.9955787062644958 0.4059288501739502 0.729411780834198 0.7607843279838562 0.772549033164978
0.6541872024536133 0.9856308102607727 0.9877470135688782 0.37254902720451355 0.3686274588108063 0.2980392277240753
0.517241358757019 0.9172587990760803 0.9889327883720398 0.3960784375667572 0.4000000059604645 0.3764705955982208
0.5295566320419312 0.9958944916725159 0.5960474014282227 0.6470588445663452 0.6745098233222961 0.6980392336845398
0.5551724433898926 0.9976314306259155 0.8608695864677429 0.5607843399047852 0.5372549295425415 0.4745098054409027
0.4992610812187195 0.8938891291618347 0.9893280863761902 0.3921568691730499 0.3960784375667572 0.364705890417099
0.7024630308151245 0.9973156452178955 0.7691699862480164 0.6196078658103943 0.6431372761726379 0.6431372761726379
0.5549260973930359 0.9988946914672852 0.8833991885185242 0.49803921580314636 0.48627451062202454 0.4274509847164154
0.7371920943260193 0.9431549310684204 0.29367589950561523 0.239215686917305 0.26274511218070984 0.2549019753932953
0.6194581389427185 0.9958944916725159 0.6794466376304626 0.6549019813537598 0.6745098233222961 0.6901960968971252
0.557635486125946 0.9955787062644958 0.417391300201416 0.7137255072593689 0.7411764860153198 0.7647058963775635
0.7209359407424927 0.9955787062644958 0.42924901843070984 0.6000000238418579 0.615686297416687 0.5607843399047852
0.5472906231880188 0.9963682293891907 0.0573122538626194 0.6627451181411743 0.6666666865348816 0.5960784554481506
0.7246305346488953 0.9974735379219055 0.8798419237136841 0.5176470875740051 0.4941176474094391 0.40784314274787903
0.5475369691848755 0.9960524439811707 0.6320158243179321 0.772549033164978 0.7960784435272217 0.7803921699523926
0.7125615477561951 0.8690983653068542 0.23122529685497284 0.05098039284348488 0.05098039284348488 0.05098039284348488
0.5987684726715088 0.9840517640113831 0.9877470135688782 0.364705890417099 0.3490196168422699 0.3019607961177826
0.6541872024536133 0.8956260681152344 0.9889327883720398 0.4117647111415863 0.4156862795352936 0.3843137323856354
0.512561559677124 0.9971577525138855 0.22213438153266907 0.7372549176216125 0.7450980544090271 0.6941176652908325
0.7376847267150879 0.9977893829345703 0.16996046900749207 0.6470588445663452 0.6549019813537598 0.572549045085907
0.6246305704116821 0.9958944916725159 0.6588932871818542 0.6627451181411743 0.6823529601097107 0.6980392336845398
0.5812807679176331 0.9591031074523926 0.9881423115730286 0.3843137323856354 0.3764705955982208 0.32549020648002625
0.5246305465698242 0.9973156452178955 0.30988141894340515 0.729411780834198 0.7372549176216125 0.686274528503418
0.5780788064002991 0.9275224804878235 0.00830039568245411 0.6039215922355652 0.6039215922355652 0.5568627715110779
0.7034482955932617 0.9714195728302002 0.009881422854959965 0.37254902720451355 0.3803921639919281 0.3294117748737335
0.5320196747779846 0.9976314306259155 0.8628458380699158 0.5176470875740051 0.501960813999176 0.45490196347236633
0.6578817963600159 0.994947075843811 0.3806324005126953 0.7450980544090271 0.7568627595901489 0.7764706015586853
0.7108374238014221 0.8776251673698425 0.0071146246045827866 0.18039216101169586 0.16862745583057404 0.13333334028720856
0.5926108360290527 0.9968419671058655 0.9442687630653381 0.47058823704719543 0.46666666865348816 0.4588235318660736
0.6862068772315979 0.9621032476425171 0.009486165829002857 0.48235294222831726 0.4627451002597809 0.3764705955982208
0.5623152852058411 0.9973156452178955 0.32964426279067993 0.7176470756530762 0.7215686440467834 0.6666666865348816
0.5024630427360535 0.9973156452178955 0.343082994222641 0.6823529601097107 0.686274528503418 0.6313725709915161
0.5339901447296143 0.972366988658905 0.9055336117744446 0.45490196347236633 0.4431372582912445 0.42352941632270813
0.6618226766586304 0.8839412331581116 0.17826086282730103 0.34117648005485535 0.3686274588108063 0.3921568691730499
0.633004903793335 0.8815727233886719 0.007905138656497002 0.3803921639919281 0.3607843220233917 0.2862745225429535
0.5002462863922119 0.9431549310684204 0.008695651777088642 0.48627451062202454 0.4901960790157318 0.4274509847164154
0.7322660088539124 0.8878888487815857 0.18142291903495789 0.27843138575553894 0.29411765933036804 0.29019609093666077
0.6428571343421936 0.9744197130203247 0.009486165829002857 0.40392157435417175 0.3960784375667572 0.33725491166114807
0.6879310607910156 0.9954208135604858 0.5347825884819031 0.7098039388656616 0.7411764860153198 0.7490196228027344
0.5364531874656677 0.9166271686553955 0.9889327883720398 0.4000000059604645 0.40392157435417175 0.3803921639919281
0.6475369334220886 0.8882046341896057 0.007905138656497002 0.3176470696926117 0.30588236451148987 0.24705882370471954
0.6736453175544739 0.8765197992324829 0.007509881630539894 0.2823529541492462 0.27450981736183167 0.22745098173618317
0.5591133236885071 0.9958944916725159 0.5573122501373291 0.6666666865348816 0.686274528503418 0.7098039388656616
0.576600968837738 0.9974735379219055 0.1616600751876831 0.7137255072593689 0.7098039388656616 0.6392157077789307
0.6615763306617737 0.9962103366851807 0.6849802136421204 0.658823549747467 0.6705882549285889 0.6901960968971252
0.6802955865859985 0.9966840147972107 0.939130425453186 0.4470588266849518 0.43921568989753723 0.3803921639919281
0.5541871786117554 0.9962103366851807 0.7577075362205505 0.5843137502670288 0.615686297416687 0.6235294342041016
0.6778324842453003 0.9954208135604858 0.9861660003662109 0.3960784375667572 0.3921568691730499 0.32156863808631897
0.6002463102340698 0.9955787062644958 0.4217391312122345 0.7176470756530762 0.7450980544090271 0.7764706015586853
0.5768473148345947 0.9960524439811707 0.6612648367881775 0.6235294342041016 0.6352941393852234 0.6627451181411743
0.6059113144874573 0.9881572723388672 0.009486165829002857 0.45098039507865906 0.42352941632270813 0.3607843220233917
0.6431034207344055 0.9314700961112976 0.9885375499725342 0.4470588266849518 0.4470588266849518 0.40784314274787903
0.6899014711380005 0.8893099427223206 0.9893280863761902 0.4470588266849518 0.4431372582912445 0.4274509847164154
0.63768470287323 0.9638401865959167 0.008695651777088642 0.46666666865348816 0.4588235318660736 0.3686274588108063
0.6012315154075623 0.9202589392662048 0.9885375499725342 0.364705890417099 0.3686274588108063 0.33725491166114807
0.6657635569572449 0.9952629208564758 0.4418972432613373 0.7215686440467834 0.7607843279838562 0.7647058963775635
0.6642857193946838 0.9954208135604858 0.4845849871635437 0.7098039388656616 0.7490196228027344 0.7529411911964417
0.6849753856658936 0.8747828602790833 0.21027667820453644 0.0784313753247261 0.08627451211214066 0.08235294371843338
0.5738916397094727 0.9014685153961182 0.00909090880304575 0.38823530077934265 0.3921568691730499 0.3294117748737335
0.6990147829055786 0.9489973187446594 0.9881423115730286 0.45098039507865906 0.4431372582912445 0.3843137323856354
0.6105911135673523 0.9977893829345703 0.19130434095859528 0.7372549176216125 0.7254902124404907 0.6509804129600525
0.6721674799919128 0.9264171719551086 0.007905138656497002 0.35686275362968445 0.3529411852359772 0.2823529541492462
0.7201970219612122 0.9527869820594788 0.9881423115730286 0.43921568989753723 0.4470588266849518 0.364705890417099
0.49458128213882446 0.9737880825996399 0.007905138656497002 0.4627451002597809 0.4627451002597809 0.42352941632270813
0.5201970338821411 0.9202589392662048 0.00909090880304575 0.4313725531101227 0.4627451002597809 0.3803921639919281
0.6448276042938232 0.9974735379219055 0.8438735008239746 0.5254902243614197 0.5490196347236633 0.5333333611488342
0.5509852170944214 0.9958944916725159 0.5893280506134033 0.6431372761726379 0.6705882549285889 0.7019608020782471
0.6300492882728577 0.972682774066925 0.9296442866325378 0.48235294222831726 0.4901960790157318 0.4470588266849518
0.7076354622840881 0.994789183139801 0.4324110746383667 0.7215686440467834 0.7529411911964417 0.7647058963775635
0.6064039468765259 0.9981051683425903 0.9094861745834351 0.3960784375667572 0.3686274588108063 0.30588236451148987
0.5418719053268433 0.9698405265808105 0.9098814129829407 0.38823530077934265 0.3921568691730499 0.37254902720451355
0.5913792848587036 0.9985788464546204 0.8758893013000488 0.5098039507865906 0.4901960790157318 0.4156862795352936
0.5903940796852112 0.9321016669273376 0.00830039568245411 0.45098039507865906 0.4588235318660736 0.3764705955982208
0.6903941035270691 0.994631290435791 0.3691699504852295 0.46666666865348816 0.4588235318660736 0.3686274588108063
0.6857143044471741 0.9963682293891907 0.6853755116462708 0.658823549747467 0.6941176652908325 0.6823529601097107
0.7059113383293152 0.8987841606140137 0.0071146246045827866 0.18431372940540314 0.16862745583057404 0.12156862765550613
0.6583743691444397 0.8845728635787964 0.25335967540740967 0.21176470816135406 0.22745098173618317 0.2235294133424759
0.7201970219612122 0.9493131041526794 0.9881423115730286 0.4470588266849518 0.43921568989753723 0.3803921639919281
0.5758620500564575 0.9477341175079346 0.00830039568245411 0.5215686559677124 0.5333333611488342 0.46666666865348816
0.5411329865455627 0.9960524439811707 0.7015810012817383 0.5647059082984924 0.5960784554481506 0.6039215922355652
0.7366995215415955 0.9385756850242615 0.18972331285476685 0.25882354378700256 0.2862745225429535 0.25882354378700256
0.5697044134140015 0.9958944916725159 0.5652173757553101 0.6705882549285889 0.6901960968971252 0.7137255072593689
0.6064039468765259 0.9840517640113831 0.00909090880304575 0.40392157435417175 0.3921568691730499 0.35686275362968445
0.6768472790718079 0.9979472756385803 0.10632411390542984 0.729411780834198 0.7450980544090271 0.6470588445663452
0.5253694653511047 0.924838125705719 0.9889327883720398 0.40784314274787903 0.4117647111415863 0.38823530077934265
0.6886699795722961 0.9973156452178955 0.7861660122871399 0.6078431606292725 0.6274510025978088 0.6117647290229797
0.7044335007667542 0.8897836804389954 0.0071146246045827866 0.18431372940540314 0.1725490242242813 0.15294118225574493
0.7330049276351929 0.8948365449905396 0.0071146246045827866 0.2823529541492462 0.2666666805744171 0.21960784494876862
0.6694581508636475 0.897520899772644 0.3110671937465668 0.22745098173618317 0.250980406999588 0.24313725531101227
0.5253694653511047 0.9898942112922668 0.9881423115730286 0.2980392277240753 0.2862745225429535 0.22745098173618317
0.5931034684181213 0.9373124837875366 0.00830039568245411 0.43921568989753723 0.4431372582912445 0.38823530077934265
0.6029556393623352 0.9976314306259155 0.13162055611610413 0.7098039388656616 0.7137255072593689 0.6509804129600525
0.5692118406295776 0.9966840147972107 0.06284584850072861 0.6627451181411743 0.6745098233222961 0.6000000238418579
0.628078818321228 0.9900521039962769 0.9877470135688782 0.3294117748737335 0.29411765933036804 0.22745098173618317
0.6788177490234375 0.9955787062644958 0.5343873500823975 0.7098039388656616 0.7411764860153198 0.7529411911964417
0.7194581031799316 0.8845728635787964 0.18418972194194794 0.24313725531101227 0.2666666805744171 0.2666666805744171
0.6426108479499817 0.9878414869308472 0.9877470135688782 0.29411765933036804 0.2823529541492462 0.21568627655506134
0.6231527328491211 0.9971577525138855 0.8260869383811951 0.5764706134796143 0.5843137502670288 0.572549045085907
0.6300492882728577 0.9965261220932007 0.03952569141983986 0.27450981736183167 0.250980406999588 0.20392157137393951
0.7219212055206299 0.9657350182533264 0.9877470135688782 0.40784314274787903 0.3960784375667572 0.33725491166114807
0.6125615835189819 0.988788902759552 0.009486165829002857 0.3803921639919281 0.3686274588108063 0.29411765933036804
0.5315271019935608 0.9477341175079346 0.00830039568245411 0.4000000059604645 0.4117647111415863 0.3450980484485626
0.5487684607505798 0.9688931107521057 0.9881423115730286 0.3803921639919281 0.3803921639919281 0.3333333432674408
0.6495074033737183 0.8908889889717102 0.25810277462005615 0.21568627655506134 0.239215686917305 0.23137255012989044
0.5182266235351562 0.9681035876274109 0.00830039568245411 0.5764706134796143 0.5490196347236633 0.5098039507865906
0.515763521194458 0.9969998598098755 0.15019762516021729 0.7019608020782471 0.7098039388656616 0.658823549747467
0.6012315154075623 0.9974735379219055 0.24664030969142914 0.7215686440467834 0.7176470756530762 0.6470588445663452
0.6600984930992126 0.9954208135604858 0.9822134375572205 0.45490196347236633 0.45490196347236633 0.40784314274787903
0.6364532113075256 0.9979472756385803 0.11936759203672409 0.7137255072593689 0.7176470756530762 0.6549019813537598
0.6492610573768616 0.8839412331581116 0.17826086282730103 0.3490196168422699 0.3803921639919281 0.3921568691730499
0.6337438225746155 0.9960524439811707 0.6857707500457764 0.658823549747467 0.6784313917160034 0.7019608020782471
0.631280779838562 0.9955787062644958 0.5027667880058289 0.7176470756530762 0.7450980544090271 0.7686274647712708
0.5246305465698242 0.9461550712585449 0.9885375499725342 0.3921568691730499 0.3960784375667572 0.37254902720451355
0.49753695726394653 0.9496289491653442 0.9885375499725342 0.4156862795352936 0.40392157435417175 0.3843137323856354
0.6305418610572815 0.9733144044876099 0.00909090880304575 0.3607843220233917 0.364705890417099 0.30980393290519714
0.5694581270217896 0.891994297504425 0.008695651777088642 0.4588235318660736 0.45490196347236633 0.3764705955982208
0.5504925847053528 0.9960524439811707 0.6699604988098145 0.5647059082984924 0.6039215922355652 0.6078431606292725
0.6948275566101074 0.9966840147972107 0.03478260710835457 0.2862745225429535 0.2549019753932953 0.21176470816135406
0.7027093768119812 0.9976314306259155 0.20158103108406067 0.7098039388656616 0.7176470756530762 0.6313725709915161
0.5566502213478088 0.8902573585510254 0.9889327883720398 0.364705890417099 0.37254902720451355 0.3294117748737335
0.554679811000824 0.9974735379219055 0.2664031684398651 0.7098039388656616 0.7215686440467834 0.6470588445663452
0.6216748952865601 0.9044686555862427 0.00830039568245411 0.2980392277240753 0.3019607961177826 0.23137255012989044
0.6948275566101074 0.9000473618507385 0.18418972194194794 0.12156862765550613 0.12156862765550613 0.11372549086809158
0.7214285731315613 0.885836124420166 0.18379446864128113 0.250980406999588 0.27450981736183167 0.27450981736183167
0.556157648563385 0.9720511436462402 0.9355731010437012 0.37254902720451355 0.37254902720451355 0.34117648005485535
0.5862069129943848 0.9706300497055054 0.9079051613807678 0.38823530077934265 0.3843137323856354 0.3764705955982208
0.6793103218078613 0.9951050281524658 0.45533597469329834 0.7215686440467834 0.7529411911964417 0.7607843279838562
0.7258620858192444 0.9422074556350708 0.18972331285476685 0.26274511218070984 0.2980392277240753 0.27843138575553894
0.6697044372558594 0.9965261220932007 0.7209486365318298 0.6509804129600525 0.6705882549285889 0.6823529601097107
0.6660098433494568 0.983735978603363 0.009486165829002857 0.42352941632270813 0.4156862795352936 0.3333333432674408
0.7019704580307007 0.9171009063720703 0.007905138656497002 0.32156863808631897 0.3019607961177826 0.22745098173618317
0.5571428537368774 0.9955787062644958 0.40948617458343506 0.7215686440467834 0.7490196228027344 0.7803921699523926
0.5761083960533142 0.9957365989685059 0.47075098752975464 0.6901960968971252 0.7176470756530762 0.7411764860153198
0.5603448152542114 0.9958944916725159 0.6126482486724854 0.6549019813537598 0.6705882549285889 0.7058823704719543
0.5241379141807556 0.9963682293891907 0.8075098991394043 0.5333333611488342 0.5411764979362488 0.5215686559677124
0.7133004665374756 0.9951050281524658 0.42490118741989136 0.7176470756530762 0.7568627595901489 0.7647058963775635
0.6160098314285278 0.9074687957763672 0.00830039568245411 0.3529411852359772 0.3607843220233917 0.27450981736183167
0.676600992679596 0.8788883686065674 0.007509881630539894 0.16470588743686676 0.1568627506494522 0.10980392247438431
0.7022167444229126 0.9973156452178955 0.051778655499219894 0.27450981736183167 0.25882354378700256 0.21176470816135406
0.5167487859725952 0.9969998598098755 0.9201580882072449 0.4901960790157318 0.49803921580314636 0.47843137383461
0.7300492525100708 0.9971577525138855 0.5814229249954224 0.6823529601097107 0.6823529601097107 0.6509804129600525
0.7110837697982788 0.9976314306259155 0.22727273404598236 0.7098039388656616 0.7176470756530762 0.6352941393852234
0.5859605669975281 0.994473397731781 0.36640316247940063 0.4941176474094391 0.48235294222831726 0.4156862795352936
0.6524630784988403 0.9957365989685059 0.6106719374656677 0.6980392336845398 0.7176470756530762 0.7333333492279053
0.7219212055206299 0.9954208135604858 0.9604743123054504 0.3294117748737335 0.3137255012989044 0.2705882489681244
0.6738916039466858 0.9955787062644958 0.5399209260940552 0.7058823704719543 0.7450980544090271 0.7490196228027344
0.6285714507102966 0.8923101425170898 0.1715414971113205 0.13725490868091583 0.1411764770746231 0.12156862765550613
0.674876868724823 0.8795199990272522 0.007509881630539894 0.20000000298023224 0.1882352977991104 0.15294118225574493
0.5820196866989136 0.9957365989685059 0.9735177755355835 0.3490196168422699 0.3490196168422699 0.30980393290519714
0.5588669776916504 0.9142586588859558 0.00909090880304575 0.47058823704719543 0.4627451002597809 0.4156862795352936
0.5697044134140015 0.9873677492141724 0.9881423115730286 0.34117648005485535 0.3333333432674408 0.27450981736183167
0.5187191963195801 0.9962103366851807 0.7711462378501892 0.5843137502670288 0.6196078658103943 0.6078431606292725
0.7214285731315613 0.924680233001709 0.18142291903495789 0.23137255012989044 0.250980406999588 0.22745098173618317
0.6825123429298401 0.9444181323051453 0.9881423115730286 0.3607843220233917 0.37254902720451355 0.30588236451148987
0.6091132760047913 0.9957365989685059 0.5264822244644165 0.6980392336845398 0.7333333492279053 0.7607843279838562
0.7248768210411072 0.9387336373329163 0.2450592815876007 0.18039216101169586 0.20392157137393951 0.1882352977991104
0.7253694534301758 0.9960524439811707 0.4217391312122345 0.6823529601097107 0.7058823704719543 0.6509804129600525
0.573399007320404 0.9958944916725159 0.6256917119026184 0.6313725709915161 0.6509804129600525 0.6666666865348816
0.5051724314689636 0.9429969787597656 0.9889327883720398 0.3960784375667572 0.3921568691730499 0.37254902720451355
0.6963053941726685 0.9452076554298401 0.9881423115730286 0.43529412150382996 0.4274509847164154 0.3764705955982208
0.49482759833335876 0.897047221660614 0.9893280863761902 0.3921568691730499 0.3960784375667572 0.364705890417099
0.5534482598304749 0.9963682293891907 0.05415019765496254 0.6666666865348816 0.6705882549285889 0.6000000238418579
0.6253694295883179 0.8976788520812988 0.00830039568245411 0.125490203499794 0.11764705926179886 0.07058823853731155
0.5972906351089478 0.994947075843811 0.3794466257095337 0.658823549747467 0.6627451181411743 0.6313725709915161
0.6825123429298401 0.9046265482902527 0.007509881630539894 0.2235294133424759 0.20000000298023224 0.15294118225574493
0.5985221862792969 0.9976314306259155 0.11541502177715302 0.7098039388656616 0.7137255072593689 0.6509804129600525
0.6687192320823669 0.8848886489868164 0.2818181812763214 0.2549019753932953 0.27450981736183167 0.2862745225429535
0.5241379141807556 0.8994157314300537 0.9893280863761902 0.3843137323856354 0.38823530077934265 0.364705890417099
0.692364513874054 0.902258038520813 0.007509881630539894 0.3333333432674408 0.34117648005485535 0.25882354378700256
0.5945813059806824 0.9957365989685059 0.5106719136238098 0.686274528503418 0.729411780834198 0.7450980544090271
0.6652709245681763 0.9955787062644958 0.5687747001647949 0.6980392336845398 0.729411780834198 0.7411764860153198
0.6997537016868591 0.9976314306259155 0.8106719255447388 0.5764706134796143 0.5960784554481506 0.572549045085907
0.4992610812187195 0.9201010465621948 0.009486165829002857 0.4588235318660736 0.4627451002597809 0.4000000059604645
0.5495073795318604 0.9974735379219055 0.28814229369163513 0.7215686440467834 0.7372549176216125 0.6705882549285889
0.6726601123809814 0.8927838206291199 0.9893280863761902 0.4470588266849518 0.4431372582912445 0.4274509847164154
0.5253694653511047 0.9969998598098755 0.08774703741073608 0.6745098233222961 0.6823529601097107 0.6274510025978088
0.6911330223083496 0.9976314306259155 0.25375494360923767 0.729411780834198 0.7411764860153198 0.658823549747467
0.6214285492897034 0.9592610001564026 0.00830039568245411 0.35686275362968445 0.3490196168422699 0.29019609093666077
0.5842364430427551 0.8927838206291199 0.008695651777088642 0.34117648005485535 0.3529411852359772 0.27843138575553894
0.6032019853591919 0.9728406667709351 0.9324110746383667 0.4274509847164154 0.4274509847164154 0.3960784375667572
0.6620689630508423 0.8848886489868164 0.2347826063632965 0.18039216101169586 0.18431372940540314 0.15294118225574493
0.6640394330024719 0.9954208135604858 0.49841898679733276 0.7137255072593689 0.7450980544090271 0.7529411911964417
0.6591132879257202 0.91915363073349 0.007905138656497002 0.3137255012989044 0.30588236451148987 0.24705882370471954
0.6098521947860718 0.9766303300857544 0.9098814129829407 0.4313725531101227 0.4431372582912445 0.4000000059604645
0.6160098314285278 0.978367269039154 0.00909090880304575 0.3803921639919281 0.3803921639919281 0.3333333432674408
0.6009852290153503 0.9958944916725159 0.5881422758102417 0.6745098233222961 0.7058823704719543 0.7137255072593689
0.673399031162262 0.994947075843811 0.39920949935913086 0.7333333492279053 0.7647058963775635 0.772549033164978
0.5216748714447021 0.9971577525138855 0.20632411539554596 0.7254902124404907 0.7411764860153198 0.686274528503418
0.6652709245681763 0.9976314306259155 0.3395256996154785 0.7058823704719543 0.7098039388656616 0.6392157077789307
0.7261083722114563 0.9974735379219055 0.7031620740890503 0.6431372761726379 0.6235294342041016 0.5372549295425415
0.6310344934463501 0.9957365989685059 0.6150197386741638 0.6823529601097107 0.7176470756530762 0.7137255072593689
0.5408867001533508 0.994947075843811 0.009486165829002857 0.33725491166114807 0.30980393290519714 0.24705882370471954
0.6581280827522278 0.9960524439811707 0.665217399597168 0.6627451181411743 0.6823529601097107 0.6980392336845398
0.6083743572235107 0.9958944916725159 0.612252950668335 0.6745098233222961 0.7019608020782471 0.7254902124404907
0.5955665111541748 0.983262300491333 0.9881423115730286 0.3764705955982208 0.3607843220233917 0.3137255012989044
0.6165024638175964 0.9058898091316223 0.9889327883720398 0.364705890417099 0.3686274588108063 0.33725491166114807
0.5610837340354919 0.9974735379219055 0.19683794677257538 0.7137255072593689 0.7215686440467834 0.6666666865348816
0.5182266235351562 0.9971577525138855 0.20197628438472748 0.7215686440467834 0.7372549176216125 0.6823529601097107
0.5884236693382263 0.9960524439811707 0.7296442985534668 0.6117647290229797 0.6313725709915161 0.6431372761726379
0.7012315392494202 0.994789183139801 0.4110671877861023 0.7254902124404907 0.7568627595901489 0.7647058963775635
0.6113300323486328 0.9974735379219055 0.2960474193096161 0.7333333492279053 0.7372549176216125 0.6745098233222961
0.6226601004600525 0.9957365989685059 0.5802371501922607 0.6901960968971252 0.729411780834198 0.7372549176216125
0.6160098314285278 0.9974735379219055 0.30000001192092896 0.7372549176216125 0.7411764860153198 0.6784313917160034
0.575123131275177 0.9957365989685059 0.5075098872184753 0.686274528503418 0.7176470756530762 0.729411780834198
0.7386699318885803 0.9632086157798767 0.009881422854959965 0.10196078568696976 0.10196078568696976 0.07058823853731155
0.5889162421226501 0.9963682293891907 0.7498023509979248 0.6078431606292725 0.6235294342041016 0.6352941393852234
0.6564039587974548 0.9002052545547485 0.007905138656497002 0.38823530077934265 0.3803921639919281 0.3294117748737335
0.50935959815979 0.9971577525138855 0.23122529685497284 0.7372549176216125 0.7450980544090271 0.6941176652908325
0.5290640592575073 0.9955787062644958 0.5205533504486084 0.6784313917160034 0.6980392336845398 0.7215686440467834
0.6396551728248596 0.9976314306259155 0.1928853690624237 0.729411780834198 0.7333333492279053 0.6627451181411743
0.6440886855125427 0.9688931107521057 0.9881423115730286 0.40784314274787903 0.3843137323856354 0.33725491166114807
0.5278325080871582 0.9971577525138855 0.21225295960903168 0.729411780834198 0.7372549176216125 0.686274528503418
0.7381773591041565 0.9016264081001282 0.17509882152080536 0.21176470816135406 0.21960784494876862 0.20000000298023224
0.5938423871994019 0.9955787062644958 0.977470338344574 0.3529411852359772 0.34117648005485535 0.30588236451148987
0.6847290396690369 0.8870993256568909 0.007509881630539894 0.20392157137393951 0.19607843458652496 0.14901961386203766
0.5566502213478088 0.8976788520812988 0.00909090880304575 0.41960784792900085 0.4313725531101227 0.364705890417099
0.6504926085472107 0.9935259819030762 0.9877470135688782 0.34117648005485535 0.3294117748737335 0.2549019753932953
0.5938423871994019 0.9262592792510986 0.9885375499725342 0.42352941632270813 0.4274509847164154 0.40392157435417175
0.6179803013801575 0.9954208135604858 0.4102766811847687 0.7176470756530762 0.7490196228027344 0.7607843279838562
0.5756157636642456 0.9963682293891907 0.7679842114448547 0.5921568870544434 0.615686297416687 0.615686297416687
0.5357142686843872 0.8771514296531677 0.00909090880304575 0.4431372582912445 0.45098039507865906 0.364705890417099
0.6283251047134399 0.9969998598098755 0.8019762635231018 0.6000000238418579 0.6039215922355652 0.6117647290229797
0.5955665111541748 0.8708353042602539 0.9901185631752014 0.3529411852359772 0.3490196168422699 0.3333333432674408
0.5224137902259827 0.9965261220932007 0.8252964615821838 0.545098066329956 0.545098066329956 0.545098066329956
0.6977832317352295 0.9065213799476624 0.1822134405374527 0.1411764770746231 0.13725490868091583 0.12156862765550613
0.6738916039466858 0.9954208135604858 0.49762845039367676 0.7058823704719543 0.7529411911964417 0.7529411911964417
0.6137930750846863 0.9328911900520325 0.00830039568245411 0.3764705955982208 0.3686274588108063 0.27843138575553894
0.5438423752784729 0.9957365989685059 0.037154149264097214 0.2078431397676468 0.18039216101169586 0.1568627506494522
0.6293103694915771 0.9491552114486694 0.9881423115730286 0.43921568989753723 0.4274509847164154 0.3921568691730499
0.7224137783050537 0.9957365989685059 0.40395256876945496 0.5490196347236633 0.5529412031173706 0.5607843399047852
0.7014778256416321 0.9966840147972107 0.7039525508880615 0.6549019813537598 0.6705882549285889 0.6823529601097107
0.6731526851654053 0.9952629208564758 0.47193676233291626 0.7176470756530762 0.7568627595901489 0.7607843279838562
0.584482729434967 0.9982630610466003 0.9075098633766174 0.3764705955982208 0.364705890417099 0.30588236451148987
0.732758641242981 0.9982630610466003 0.8114624619483948 0.5882353186607361 0.5686274766921997 0.48235294222831726
0.5413793325424194 0.9865782260894775 0.008695651777088642 0.3137255012989044 0.30588236451148987 0.25882354378700256
0.7145320177078247 0.9968419671058655 0.9106719493865967 0.42352941632270813 0.3843137323856354 0.2862745225429535
0.7221674919128418 0.9963682293891907 0.5256916880607605 0.38823530077934265 0.40784314274787903 0.3843137323856354
0.621921181678772 0.9731564521789551 0.9067193865776062 0.4627451002597809 0.46666666865348816 0.4431372582912445
0.6682265996932983 0.9968419671058655 0.9316205382347107 0.45098039507865906 0.43529412150382996 0.3921568691730499
0.5147783160209656 0.9971577525138855 0.24822133779525757 0.729411780834198 0.7372549176216125 0.686274528503418
0.6724137663841248 0.9962103366851807 0.6715415120124817 0.658823549747467 0.6901960968971252 0.6980392336845398
0.6078817844390869 0.8822043538093567 0.00830039568245411 0.23529411852359772 0.23529411852359772 0.1882352977991104
0.5857142806053162 0.9717353582382202 0.9063240885734558 0.47058823704719543 0.46666666865348816 0.4470588266849518
0.6908866763114929 0.8711510896682739 0.18853755295276642 0.250980406999588 0.2862745225429535 0.30588236451148987
0.7041872143745422 0.9969998598098755 0.7395256757736206 0.6313725709915161 0.6509804129600525 0.6352941393852234
0.496798038482666 0.9954208135604858 0.43952569365501404 0.7058823704719543 0.7333333492279053 0.7647058963775635
0.6677339673042297 0.8732038736343384 0.9897233247756958 0.41960784792900085 0.42352941632270813 0.3921568691730499
0.5896551609039307 0.8697299957275391 0.9901185631752014 0.3607843220233917 0.35686275362968445 0.3490196168422699
0.5453202128410339 0.913469135761261 0.00909090880304575 0.4627451002597809 0.4745098054409027 0.4000000059604645
0.6270936131477356 0.9976314306259155 0.22094862163066864 0.7450980544090271 0.7333333492279053 0.658823549747467
0.5652709603309631 0.9957365989685059 0.9707509875297546 0.3490196168422699 0.33725491166114807 0.30980393290519714
0.6224138140678406 0.977735698223114 0.9877470135688782 0.3764705955982208 0.3803921639919281 0.32549020648002625
0.7352216839790344 0.9295752644538879 0.17905138432979584 0.25882354378700256 0.2862745225429535 0.25882354378700256
0.5330049395561218 0.9033633470535278 0.9889327883720398 0.3921568691730499 0.3960784375667572 0.3764705955982208
0.6413792967796326 0.8882046341896057 0.007905138656497002 0.27450981736183167 0.25882354378700256 0.21176470816135406
0.6440886855125427 0.9976314306259155 0.3490118682384491 0.6431372761726379 0.658823549747467 0.5686274766921997
0.6034482717514038 0.8837833404541016 0.9897233247756958 0.38823530077934265 0.3843137323856354 0.3686274588108063
0.5928571224212646 0.9002052545547485 0.008695651777088642 0.30588236451148987 0.2980392277240753 0.239215686917305
0.6216748952865601 0.9957365989685059 0.5660079121589661 0.7058823704719543 0.7372549176216125 0.7450980544090271
0.5770936012268066 0.9974735379219055 0.2600790560245514 0.7098039388656616 0.7215686440467834 0.6470588445663452
0.7231526970863342 0.9971577525138855 0.8865612745285034 0.5058823823928833 0.49803921580314636 0.4156862795352936
0.606157660484314 0.9199431538581848 0.00830039568245411 0.3921568691730499 0.4117647111415863 0.3333333432674408
0.5995073914527893 0.9957365989685059 0.5367588996887207 0.686274528503418 0.7176470756530762 0.729411780834198
0.635960578918457 0.9597347378730774 0.9881423115730286 0.35686275362968445 0.34117648005485535 0.29411765933036804
0.5532019734382629 0.9224696159362793 0.008695651777088642 0.5607843399047852 0.5607843399047852 0.5215686559677124
0.5839901566505432 0.9755250215530396 0.947826087474823 0.3529411852359772 0.34117648005485535 0.32156863808631897
0.6753694415092468 0.9962103366851807 0.9592885375022888 0.45098039507865906 0.42352941632270813 0.3843137323856354
0.5283251404762268 0.9958944916725159 0.6063241362571716 0.6470588445663452 0.6745098233222961 0.6980392336845398
0.5354679822921753 0.9971577525138855 0.13162055611610413 0.7019608020782471 0.7058823704719543 0.6431372761726379
0.5630542039871216 0.9955787062644958 0.4375494122505188 0.7058823704719543 0.7372549176216125 0.7490196228027344
0.4997536838054657 0.9958944916725159 0.6849802136421204 0.5764706134796143 0.6117647290229797 0.6078431606292725
0.681034505367279 0.994947075843811 0.40830039978027344 0.7215686440467834 0.7529411911964417 0.7607843279838562
0.5768473148345947 0.9957365989685059 0.48735177516937256 0.686274528503418 0.7215686440467834 0.7411764860153198
0.633004903793335 0.9857887029647827 0.9877470135688782 0.34117648005485535 0.3333333432674408 0.27450981736183167
0.6731526851654053 0.8823622465133667 0.28458496928215027 0.26274511218070984 0.2823529541492462 0.29411765933036804
0.5756157636642456 0.9235749244689941 0.9885375499725342 0.4117647111415863 0.4156862795352936 0.3921568691730499
0.5610837340354919 0.9118900895118713 0.00909090880304575 0.4274509847164154 0.41960784792900085 0.33725491166114807
0.5972906351089478 0.9968419671058655 0.7948616743087769 0.5843137502670288 0.6078431606292725 0.6078431606292725
0.6472906470298767 0.9974735379219055 0.30000001192092896 0.7333333492279053 0.7372549176216125 0.6745098233222961
0.7061576247215271 0.9977893829345703 0.8229249119758606 0.5607843399047852 0.5686274766921997 0.5568627715110779
0.6182265877723694 0.9909995198249817 0.00909090880304575 0.4470588266849518 0.42352941632270813 0.3764705955982208
0.5825123190879822 0.9957365989685059 0.5450592637062073 0.6784313917160034 0.7098039388656616 0.7215686440467834
0.5554187297821045 0.9709458351135254 0.9079051613807678 0.4000000059604645 0.41960784792900085 0.40392157435417175
0.6633005142211914 0.9966840147972107 0.7395256757736206 0.6352941393852234 0.658823549747467 0.658823549747467
0.7268472909927368 0.9965261220932007 0.926877498626709 0.4117647111415863 0.38823530077934265 0.34117648005485535
0.6869457960128784 0.8822043538093567 0.28893280029296875 0.14509804546833038 0.14901961386203766 0.12941177189350128
0.6056650280952454 0.9709458351135254 0.9213438630104065 0.4470588266849518 0.45490196347236633 0.43529412150382996
0.5805418491363525 0.9581556916236877 0.9881423115730286 0.4000000059604645 0.3921568691730499 0.34117648005485535
0.7073891758918762 0.8867835402488708 0.9893280863761902 0.45098039507865906 0.43529412150382996 0.42352941632270813
0.6238916516304016 0.9921048283576965 0.00909090880304575 0.4000000059604645 0.3843137323856354 0.33725491166114807
0.5330049395561218 0.9939996600151062 0.373517781496048 0.4941176474094391 0.5098039507865906 0.45490196347236633
0.5411329865455627 0.9958944916725159 0.5628458261489868 0.6509804129600525 0.6784313917160034 0.7098039388656616
0.6059113144874573 0.9958944916725159 0.6735177636146545 0.6470588445663452 0.658823549747467 0.6941176652908325
0.6613300442695618 0.9390494227409363 0.9881423115730286 0.4470588266849518 0.45490196347236633 0.4117647111415863
0.6834975481033325 0.9976314306259155 0.25177866220474243 0.7372549176216125 0.7450980544090271 0.6901960968971252
0.670197069644928 0.9126796126365662 0.007509881630539894 0.2823529541492462 0.2705882489681244 0.20392157137393951
0.5992611050605774 0.9913153052330017 0.00909090880304575 0.3921568691730499 0.3764705955982208 0.34117648005485535
0.6401478052139282 0.9477341175079346 0.9881423115730286 0.43921568989753723 0.4313725531101227 0.3843137323856354
0.7204433679580688 0.9976314306259155 0.2189723253250122 0.7058823704719543 0.7058823704719543 0.6039215922355652
0.5317733883857727 0.9159955978393555 0.9889327883720398 0.3960784375667572 0.40392157435417175 0.3843137323856354
0.6802955865859985 0.9958944916725159 0.6387351751327515 0.7411764860153198 0.7764706015586853 0.772549033164978
0.685960590839386 0.9728406667709351 0.9090909361839294 0.4274509847164154 0.4274509847164154 0.3803921639919281
0.6078817844390869 0.9976314306259155 0.2335968315601349 0.7176470756530762 0.7254902124404907 0.6431372761726379
0.573645293712616 0.9974735379219055 0.19011858105659485 0.7019608020782471 0.7137255072593689 0.6392157077789307
0.6839901208877563 0.9681035876274109 0.009486165829002857 0.4156862795352936 0.4117647111415863 0.34117648005485535
0.7290640473365784 0.8776251673698425 0.9893280863761902 0.4313725531101227 0.43529412150382996 0.4117647111415863
0.6736453175544739 0.8934154510498047 0.30948618054389954 0.250980406999588 0.2705882489681244 0.2823529541492462
0.511083722114563 0.9737880825996399 0.00830039568245411 0.4117647111415863 0.41960784792900085 0.3764705955982208
0.7051724195480347 0.9793146848678589 0.009881422854959965 0.48235294222831726 0.4745098054409027 0.3764705955982208
0.5788177251815796 0.8981525301933289 0.008695651777088642 0.41960784792900085 0.4274509847164154 0.3450980484485626
0.606157660484314 0.9957365989685059 0.499604731798172 0.7019608020782471 0.729411780834198 0.7529411911964417
0.5376847386360168 0.908416211605072 0.9889327883720398 0.38823530077934265 0.3921568691730499 0.3686274588108063
0.5041871666908264 0.9952629208564758 0.018972331658005714 0.21960784494876862 0.18431372940540314 0.16470588743686676
0.7236453294754028 0.9976314306259155 0.18853755295276642 0.6941176652908325 0.6901960968971252 0.6078431606292725
0.7009851932525635 0.9971577525138855 0.7596837878227234 0.6274510025978088 0.6313725709915161 0.6392157077789307
0.6381773352622986 0.9679456949234009 0.00909090880304575 0.48235294222831726 0.4588235318660736 0.40392157435417175
0.681280791759491 0.9658929705619812 0.9877470135688782 0.3686274588108063 0.35686275362968445 0.2980392277240753
0.5825123190879822 0.9475761651992798 0.00830039568245411 0.4156862795352936 0.40392157435417175 0.33725491166114807
0.7209359407424927 0.9722090363502502 0.9877470135688782 0.3921568691730499 0.3803921639919281 0.30588236451148987
0.6903941035270691 0.91946941614151 0.007905138656497002 0.23137255012989044 0.2235294133424759 0.1764705926179886
0.7384236454963684 0.9480499029159546 0.009486165829002857 0.4470588266849518 0.4431372582912445 0.364705890417099
0.6640394330024719 0.972682774066925 0.9272727370262146 0.5215686559677124 0.5333333611488342 0.46666666865348816
0.5145320296287537 0.9632086157798767 0.9885375499725342 0.3764705955982208 0.364705890417099 0.3294117748737335
0.5135468244552612 0.9971577525138855 0.2541502118110657 0.7333333492279053 0.7411764860153198 0.6901960968971252
0.5830049514770508 0.869572103023529 0.00830039568245411 0.35686275362968445 0.3607843220233917 0.2980392277240753
0.5165024399757385 0.9196273684501648 0.009486165829002857 0.6274510025978088 0.6352941393852234 0.5490196347236633
0.6573891639709473 0.9977893829345703 0.8976284861564636 0.48627451062202454 0.46666666865348816 0.3921568691730499
0.5421182513237 0.9962103366851807 0.7588932514190674 0.5843137502670288 0.615686297416687 0.6235294342041016
0.6000000238418579 0.9958944916725159 0.625296413898468 0.6666666865348816 0.6784313917160034 0.7137255072593689
0.7238916158676147 0.9842097163200378 0.9873517751693726 0.33725491166114807 0.32549020648002625 0.2666666805744171
0.6729063987731934 0.9976314306259155 0.29920947551727295 0.7372549176216125 0.7490196228027344 0.6666666865348816
0.606157660484314 0.9976314306259155 0.9256917238235474 0.3450980484485626 0.3294117748737335 0.2823529541492462
0.7369458079338074 0.9925785660743713 0.009486165829002857 0.3607843220233917 0.32549020648002625 0.2666666805744171
0.5108374357223511 0.9510500431060791 0.9885375499725342 0.34117648005485535 0.3450980484485626 0.32156863808631897
0.5652709603309631 0.8792041540145874 0.9893280863761902 0.3686274588108063 0.364705890417099 0.35686275362968445
0.6044334769248962 0.891994297504425 0.9893280863761902 0.3960784375667572 0.4000000059604645 0.3686274588108063
0.5635467767715454 0.9627348780632019 0.9881423115730286 0.3764705955982208 0.3686274588108063 0.3176470696926117
0.5399014949798584 0.9512079358100891 0.00830039568245411 0.3921568691730499 0.4000000059604645 0.3490196168422699
0.5076354742050171 0.9591031074523926 0.00830039568245411 0.5411764979362488 0.5411764979362488 0.4941176474094391
0.5977832674980164 0.9965261220932007 0.7723320126533508 0.5960784554481506 0.6117647290229797 0.615686297416687
0.5827586054801941 0.9969998598098755 0.8237153887748718 0.5647059082984924 0.5803921818733215 0.5843137502670288
0.5933497548103333 0.9126796126365662 0.9889327883720398 0.3764705955982208 0.37254902720451355 0.3529411852359772
0.6628078818321228 0.8872572183609009 0.2762845754623413 0.250980406999588 0.2549019753932953 0.27450981736183167
0.6834975481033325 0.9351018667221069 0.9881423115730286 0.4627451002597809 0.4627451002597809 0.42352941632270813
0.7366995215415955 0.9981051683425903 0.7011857628822327 0.6509804129600525 0.6274510025978088 0.4941176474094391
0.5940886735916138 0.9153639674186707 0.9889327883720398 0.42352941632270813 0.4274509847164154 0.40784314274787903
0.6236453056335449 0.9977893829345703 0.08063241094350815 0.7176470756530762 0.7215686440467834 0.6666666865348816
0.7123152613639832 0.8823622465133667 0.18498024344444275 0.239215686917305 0.26274511218070984 0.26274511218070984
0.5179802775382996 0.9709458351135254 0.9201580882072449 0.4627451002597809 0.46666666865348816 0.4470588266849518
0.6894088387489319 0.9150481820106506 0.007509881630539894 0.3490196168422699 0.32156863808631897 0.250980406999588
0.5088669657707214 0.9196273684501648 0.009486165829002857 0.5176470875740051 0.49803921580314636 0.42352941632270813
0.7118226885795593 0.9902099967002869 0.9873517751693726 0.4627451002597809 0.4470588266849518 0.4000000059604645
0.5379310250282288 0.8763619065284729 0.00909090880304575 0.4000000059604645 0.40784314274787903 0.32156863808631897
0.5758620500564575 0.9958944916725159 0.037154149264097214 0.19607843458652496 0.16470588743686676 0.15294118225574493
