0.2140394151210785 0.3500710427761078 0.9893280863761902 0.4000000059604645 0.3843137323856354 0.3803921639919281
0.34334975481033325 0.36649298667907715 0.9881423115730286 0.37254902720451355 0.364705890417099 0.3137255012989044
0.29975369572639465 0.38702037930488586 0.0071146246045827866 0.6705882549285889 0.6823529601097107 0.6078431606292725
0.22733990848064423 0.4288646876811981 0.0071146246045827866 0.5411764979362488 0.545098066329956 0.4901960790157318
0.2972906529903412 0.4546028673648834 0.9901185631752014 0.3960784375667572 0.3803921639919281 0.3686274588108063
0.36625614762306213 0.3500710427761078 0.0063241105526685715 0.3490196168422699 0.364705890417099 0.2980392277240753
0.34433498978614807 0.44670772552490234 0.2861660122871399 0.10980392247438431 0.10980392247438431 0.10980392247438431
0.34261083602905273 0.3612821698188782 0.9881423115730286 0.3843137323856354 0.3764705955982208 0.32549020648002625
0.21748767793178558 0.32022738456726074 0.0071146246045827866 0.6078431606292725 0.6000000238418579 0.5098039507865906
0.289901465177536 0.3652297556400299 0.9885375499725342 0.3607843220233917 0.3686274588108063 0.3137255012989044
0.3206896483898163 0.38433602452278137 0.0071146246045827866 0.658823549747467 0.6549019813537598 0.5764706134796143
0.29532018303871155 0.3991788923740387 0.9893280863761902 0.38823530077934265 0.3921568691730499 0.32156863808631897
0.22807881236076355 0.3991788923740387 0.006719367578625679 0.6274510025978088 0.6313725709915161 0.5607843399047852
0.36403942108154297 0.3737565279006958 0.22292490303516388 0.14901961386203766 0.15294118225574493 0.13333334028720856
0.3408867120742798 0.3827569782733917 0.9885375499725342 0.3686274588108063 0.3764705955982208 0.3333333432674408
0.2847290635108948 0.46928784251213074 0.007905138656497002 0.5686274766921997 0.5803921818733215 0.5058823823928833
0.1423645317554474 0.4631296396255493 0.007509881630539894 0.5882353186607361 0.5921568870544434 0.529411792755127
0.20098522305488586 0.4317069351673126 0.0071146246045827866 0.5843137502670288 0.5921568870544434 0.5411764979362488
0.1231527104973793 0.3705984652042389 0.007509881630539894 0.686274528503418 0.7019608020782471 0.6117647290229797
0.12857143580913544 0.3996526002883911 0.9897233247756958 0.3764705955982208 0.364705890417099 0.3294117748737335
0.25172412395477295 0.3585978150367737 0.006719367578625679 0.5058823823928833 0.5176470875740051 0.40392157435417175
0.22487685084342957 0.4162324368953705 0.9897233247756958 0.40392157435417175 0.40392157435417175 0.37254902720451355
0.3246305286884308 0.36033475399017334 0.9881423115730286 0.3607843220233917 0.3450980484485626 0.3019607961177826
0.18891625106334686 0.39459970593452454 0.9897233247756958 0.3803921639919281 0.3686274588108063 0.34117648005485535
0.17167487740516663 0.36365070939064026 0.0071146246045827866 0.7372549176216125 0.7176470756530762 0.7019608020782471
0.3689655065536499 0.34359702467918396 0.15494070947170258 0.21568627655506134 0.2078431397676468 0.21176470816135406
0.2261083722114563 0.47007736563682556 0.0071146246045827866 0.4941176474094391 0.48627451062202454 0.43529412150382996
0.3529556691646576 0.42696982622146606 0.9893280863761902 0.3176470696926117 0.30588236451148987 0.2705882489681244
0.2933497428894043 0.36949312686920166 0.9885375499725342 0.364705890417099 0.364705890417099 0.3176470696926117
0.3406403958797455 0.45507657527923584 0.2920948565006256 0.09803921729326248 0.09803921729326248 0.09803921729326248
0.3169950842857361 0.42633822560310364 0.007509881630539894 0.6784313917160034 0.6745098233222961 0.6039215922355652
0.285221666097641 0.34659719467163086 0.9885375499725342 0.3176470696926117 0.3176470696926117 0.27843138575553894
0.27906402945518494 0.3387020230293274 0.006719367578625679 0.6941176652908325 0.6784313917160034 0.5803921818733215
0.230049267411232 0.42412757873535156 0.0071146246045827866 0.5372549295425415 0.5411764979362488 0.47843137383461
0.1982758641242981 0.41512709856033325 0.9897233247756958 0.3843137323856354 0.37254902720451355 0.3529411852359772
0.15591132640838623 0.3393336534500122 0.007509881630539894 0.5254902243614197 0.5098039507865906 0.4745098054409027
0.2219211757183075 0.34549185633659363 0.9893280863761902 0.3450980484485626 0.3294117748737335 0.32549020648002625
0.3406403958797455 0.43533870577812195 0.30988141894340515 0.09803921729326248 0.09803921729326248 0.09019608050584793
0.34359607100486755 0.4359703063964844 0.3027667999267578 0.10196078568696976 0.10196078568696976 0.10196078568696976
0.2778325080871582 0.37217748165130615 0.006719367578625679 0.7333333492279053 0.7254902124404907 0.6431372761726379
0.3290640413761139 0.3589136302471161 0.006719367578625679 0.6196078658103943 0.6117647290229797 0.5215686559677124
0.30418717861175537 0.4168640375137329 0.9893280863761902 0.364705890417099 0.35686275362968445 0.30980393290519714
0.3605911433696747 0.4343912899494171 0.15335968136787415 0.05882352963089943 0.05098039284348488 0.054901961237192154
0.28423646092414856 0.43849676847457886 0.9897233247756958 0.40784314274787903 0.4000000059604645 0.3490196168422699
0.18940886855125427 0.4366019368171692 0.0071146246045827866 0.5529412031173706 0.5607843399047852 0.5058823823928833
0.3564039468765259 0.4538133442401886 0.008695651777088642 0.5333333611488342 0.5254902243614197 0.46666666865348816
0.21699507534503937 0.4402337074279785 0.0071146246045827866 0.5882353186607361 0.5803921818733215 0.5333333611488342
0.36305418610572815 0.4508132040500641 0.13952569663524628 0.29019609093666077 0.29019609093666077 0.25882354378700256
0.170689657330513 0.4372335374355316 0.9901185631752014 0.3921568691730499 0.3803921639919281 0.3529411852359772
0.3098522126674652 0.34864991903305054 0.0063241105526685715 0.5882353186607361 0.5960784554481506 0.5411764979362488
0.31995072960853577 0.443075954914093 0.007905138656497002 0.6509804129600525 0.6470588445663452 0.5647059082984924
0.13399015367031097 0.4051792323589325 0.9901185631752014 0.3764705955982208 0.364705890417099 0.3294117748737335
0.2216748744249344 0.3649139404296875 0.9897233247756958 0.4000000059604645 0.3960784375667572 0.3764705955982208
0.3576354682445526 0.464866578578949 0.15217390656471252 0.2862745225429535 0.2862745225429535 0.2549019753932953
0.20443350076675415 0.35796621441841125 0.9897233247756958 0.3960784375667572 0.3803921639919281 0.3686274588108063
0.17339901626110077 0.4045476019382477 0.9897233247756958 0.3843137323856354 0.3843137323856354 0.3529411852359772
0.2605911195278168 0.3789673149585724 0.006719367578625679 0.6235294342041016 0.6313725709915161 0.5490196347236633
0.18399015069007874 0.3878098726272583 0.9897233247756958 0.4117647111415863 0.4000000059604645 0.3803921639919281
0.33965516090393066 0.4547607898712158 0.9901185631752014 0.42352941632270813 0.4117647111415863 0.3764705955982208
0.12463054060935974 0.45586609840393066 0.9901185631752014 0.4000000059604645 0.3921568691730499 0.3450980484485626
0.22290641069412231 0.31754302978515625 0.9889327883720398 0.9372549057006836 0.9411764740943909 0.95686274766922
0.13399015367031097 0.43281224370002747 0.9901185631752014 0.3607843220233917 0.3529411852359772 0.30588236451148987
0.15689654648303986 0.3423337936401367 0.9897233247756958 0.4117647111415863 0.40392157435417175 0.40784314274787903
0.14088669419288635 0.4662877023220062 0.007509881630539894 0.658823549747467 0.6745098233222961 0.5686274766921997
0.368719220161438 0.4285488724708557 0.11620553582906723 0.11372549086809158 0.09803921729326248 0.10196078568696976
0.27684730291366577 0.33791252970695496 0.006719367578625679 0.6705882549285889 0.6549019813537598 0.5568627715110779
0.25541871786117554 0.41796937584877014 0.006719367578625679 0.5764706134796143 0.5803921818733215 0.5098039507865906
0.3337438404560089 0.37801989912986755 0.9885375499725342 0.364705890417099 0.35686275362968445 0.30588236451148987
0.18842364847660065 0.4257066249847412 0.0071146246045827866 0.6784313917160034 0.686274528503418 0.6313725709915161
0.3600985109806061 0.42712774872779846 0.2656126618385315 0.23137255012989044 0.21960784494876862 0.18431372940540314
0.36280786991119385 0.31991156935691833 0.29446640610694885 0.250980406999588 0.2823529541492462 0.29019609093666077
0.19334974884986877 0.3765987753868103 0.9897233247756958 0.4156862795352936 0.40392157435417175 0.3843137323856354
0.278817743062973 0.4252329170703888 0.9897233247756958 0.4000000059604645 0.38823530077934265 0.3529411852359772
0.1231527104973793 0.3915995657444 0.007509881630539894 0.6627451181411743 0.6666666865348816 0.6117647290229797
0.12512315809726715 0.44070741534233093 0.007509881630539894 0.4901960790157318 0.501960813999176 0.41960784792900085
0.24753694236278534 0.41796937584877014 0.9897233247756958 0.38823530077934265 0.3764705955982208 0.3490196168422699
0.33916255831718445 0.39475762844085693 0.9889327883720398 0.40392157435417175 0.38823530077934265 0.3450980484485626
0.3211822807788849 0.4163903295993805 0.9893280863761902 0.4117647111415863 0.40392157435417175 0.3529411852359772
0.2376847267150879 0.3876519799232483 0.9897233247756958 0.3960784375667572 0.3960784375667572 0.364705890417099
0.23694580793380737 0.3276488184928894 0.9889327883720398 1.0 1.0 1.0
0.2812807857990265 0.4174956679344177 0.0071146246045827866 0.6039215922355652 0.5960784554481506 0.545098066329956
0.1270935982465744 0.4105479121208191 0.007509881630539894 0.6980392336845398 0.7019608020782471 0.6392157077789307
0.32709360122680664 0.37217748165130615 0.9885375499725342 0.37254902720451355 0.364705890417099 0.3137255012989044
0.2647783160209656 0.3417021930217743 0.9885375499725342 0.3490196168422699 0.33725491166114807 0.3176470696926117
0.15024630725383759 0.4569714069366455 0.007509881630539894 0.5215686559677124 0.5254902243614197 0.45490196347236633
0.338177353143692 0.3915995657444 0.007509881630539894 0.3137255012989044 0.32156863808631897 0.27843138575553894
0.16847290098667145 0.41544291377067566 0.0071146246045827866 0.6235294342041016 0.6235294342041016 0.5843137502670288
0.23596058785915375 0.3829149007797241 0.9897233247756958 0.4156862795352936 0.4000000059604645 0.35686275362968445
0.1780788153409958 0.4623401165008545 0.9901185631752014 0.35686275362968445 0.3450980484485626 0.30980393290519714
0.21206896007061005 0.38007262349128723 0.006719367578625679 0.5843137502670288 0.5764706134796143 0.5176470875740051
0.2972906529903412 0.43470707535743713 0.007509881630539894 0.46666666865348816 0.47843137383461 0.40392157435417175
0.18940886855125427 0.44939208030700684 0.9901185631752014 0.3843137323856354 0.37254902720451355 0.33725491166114807
0.16182266175746918 0.3197536766529083 0.007509881630539894 0.5882353186607361 0.5921568870544434 0.5607843399047852
0.1783251166343689 0.44970786571502686 0.9901185631752014 0.40392157435417175 0.3921568691730499 0.364705890417099
0.17561575770378113 0.45507657527923584 0.9901185631752014 0.40784314274787903 0.3960784375667572 0.3607843220233917
0.230049267411232 0.32922786474227905 0.9889327883720398 0.8941176533699036 0.8980392217636108 0.9137254953384399
0.3337438404560089 0.37533554434776306 0.0071146246045827866 0.6274510025978088 0.6705882549285889 0.545098066329956
0.2418719232082367 0.4343912899494171 0.0071146246045827866 0.48235294222831726 0.4941176474094391 0.4274509847164154
0.1830049306154251 0.4511290192604065 0.9901185631752014 0.40784314274787903 0.3960784375667572 0.3686274588108063
0.35394087433815 0.43233853578567505 0.00830039568245411 0.46666666865348816 0.4588235318660736 0.40784314274787903
0.17955665290355682 0.3702826499938965 0.0071146246045827866 0.6078431606292725 0.6117647290229797 0.5882353186607361
0.32438424229621887 0.3192799687385559 0.0071146246045827866 0.5137255191802979 0.5098039507865906 0.4000000059604645
0.18916256725788116 0.42112743854522705 0.0071146246045827866 0.501960813999176 0.4901960790157318 0.4627451002597809
0.1633004993200302 0.46707722544670105 0.9901185631752014 0.4156862795352936 0.40392157435417175 0.3686274588108063
0.23620688915252686 0.3710721731185913 0.9897233247756958 0.40784314274787903 0.3960784375667572 0.3607843220233917
0.2455665022134781 0.34912362694740295 0.9889327883720398 0.3686274588108063 0.35686275362968445 0.33725491166114807
0.3091132938861847 0.3996526002883911 0.9889327883720398 0.41960784792900085 0.4117647111415863 0.3607843220233917
0.13768473267555237 0.4691299498081207 0.9901185631752014 0.38823530077934265 0.3803921639919281 0.3333333432674408
0.3694581389427185 0.4077056646347046 0.9889327883720398 0.4000000059604645 0.3921568691730499 0.3450980484485626
0.3536945879459381 0.46376124024391174 0.9901185631752014 0.3843137323856354 0.37254902720451355 0.33725491166114807
0.3022167384624481 0.37138795852661133 0.006719367578625679 0.6745098233222961 0.6823529601097107 0.6000000238418579
0.22536945343017578 0.4547607898712158 0.0071146246045827866 0.49803921580314636 0.49803921580314636 0.45098039507865906
0.2544334828853607 0.3734407126903534 0.9893280863761902 0.3921568691730499 0.3803921639919281 0.3450980484485626
0.1231527104973793 0.3164377212524414 0.007509881630539894 0.7647058963775635 0.7411764860153198 0.686274528503418
0.2103448212146759 0.38702037930488586 0.9897233247756958 0.40784314274787903 0.3960784375667572 0.3764705955982208
0.20517241954803467 0.3994947075843811 0.9897233247756958 0.3960784375667572 0.3843137323856354 0.364705890417099
0.3024630546569824 0.36033475399017334 0.0063241105526685715 0.6549019813537598 0.6745098233222961 0.5843137502670288
0.36206895112991333 0.47228801250457764 0.30909091234207153 0.1921568661928177 0.2078431397676468 0.21960784494876862
0.3532019555568695 0.4514448046684265 0.9897233247756958 0.41960784792900085 0.40784314274787903 0.37254902720451355
0.3022167384624481 0.4448128938674927 0.007509881630539894 0.529411792755127 0.529411792755127 0.48235294222831726
0.2381773442029953 0.39507341384887695 0.006719367578625679 0.5137255191802979 0.5058823823928833 0.42352941632270813
0.13694581389427185 0.38875728845596313 0.0071146246045827866 0.7215686440467834 0.7254902124404907 0.6705882549285889
0.3206896483898163 0.4170219600200653 0.9893280863761902 0.3529411852359772 0.3450980484485626 0.29411765933036804
0.13571429252624512 0.44102320075035095 0.9901185631752014 0.3960784375667572 0.38823530077934265 0.34117648005485535
0.23719212412834167 0.3597031533718109 0.006719367578625679 0.6196078658103943 0.6392157077789307 0.5529412031173706
0.16502462327480316 0.35559767484664917 0.9897233247756958 0.45098039507865906 0.43529412150382996 0.42352941632270813
0.35862070322036743 0.43565452098846436 0.1877470314502716 0.13333334028720856 0.1411764770746231 0.13725490868091583
0.185960590839386 0.3813358545303345 0.0071146246045827866 0.6117647290229797 0.6117647290229797 0.572549045085907
0.3332512378692627 0.3219643235206604 0.9877470135688782 0.32156863808631897 0.30980393290519714 0.27450981736183167
0.36305418610572815 0.3194378614425659 0.0063241105526685715 0.3294117748737335 0.3176470696926117 0.24313725531101227
0.230049267411232 0.465024471282959 0.9897233247756958 0.40784314274787903 0.3960784375667572 0.3686274588108063
0.25172412395477295 0.4340754747390747 0.9897233247756958 0.3764705955982208 0.3607843220233917 0.32549020648002625
0.36403942108154297 0.4277593493461609 0.08498023450374603 0.1411764770746231 0.13725490868091583 0.12156862765550613
0.12389162927865982 0.3822832703590393 0.007509881630539894 0.5882353186607361 0.6000000238418579 0.5333333611488342
0.16009852290153503 0.39191535115242004 0.9901185631752014 0.41960784792900085 0.40784314274787903 0.38823530077934265
0.237931028008461 0.32322752475738525 0.0071146246045827866 0.7098039388656616 0.7058823704719543 0.6235294342041016
0.253201961517334 0.4563398063182831 0.9897233247756958 0.40392157435417175 0.3960784375667572 0.3490196168422699
0.3330049216747284 0.3597031533718109 0.9881423115730286 0.38823530077934265 0.38823530077934265 0.34117648005485535
0.19581280648708344 0.33475446701049805 0.0071146246045827866 0.6823529601097107 0.686274528503418 0.6235294342041016
0.16502462327480316 0.3248065710067749 0.007509881630539894 0.5882353186607361 0.5764706134796143 0.5490196347236633
0.341379314661026 0.37565135955810547 0.0071146246045827866 0.5333333611488342 0.5686274766921997 0.4627451002597809
0.1862068921327591 0.4114953279495239 0.0071146246045827866 0.5843137502670288 0.5843137502670288 0.5529412031173706
0.31625616550445557 0.33996525406837463 0.9881423115730286 0.3450980484485626 0.3333333432674408 0.30588236451148987
0.2549261152744293 0.46976158022880554 0.9901185631752014 0.42352941632270813 0.4117647111415863 0.3764705955982208
0.2628078758716583 0.4138638973236084 0.006719367578625679 0.501960813999176 0.5058823823928833 0.4431372582912445
0.2901477813720703 0.37549343705177307 0.9889327883720398 0.3686274588108063 0.3686274588108063 0.32156863808631897
0.2219211757183075 0.38054633140563965 0.9897233247756958 0.3960784375667572 0.3843137323856354 0.35686275362968445
0.3009852170944214 0.3159639835357666 0.9885375499725342 0.3764705955982208 0.3960784375667572 0.40784314274787903
0.3618226647377014 0.3500710427761078 0.9877470135688782 0.32156863808631897 0.3294117748737335 0.27843138575553894
0.34778323769569397 0.34391283988952637 0.0063241105526685715 0.6274510025978088 0.6431372761726379 0.5058823823928833
0.19334974884986877 0.3797568380832672 0.9897233247756958 0.4117647111415863 0.4000000059604645 0.3803921639919281
0.2694581151008606 0.3825990855693817 0.9893280863761902 0.3960784375667572 0.3843137323856354 0.3490196168422699
0.3610837459564209 0.3671245872974396 0.18379446864128113 0.12156862765550613 0.125490203499794 0.13333334028720856
0.1748768538236618 0.40328437089920044 0.9897233247756958 0.38823530077934265 0.38823530077934265 0.35686275362968445
0.17955665290355682 0.38402020931243896 0.0071146246045827866 0.6039215922355652 0.6000000238418579 0.5843137502670288
0.17192117869853973 0.3244907557964325 0.007509881630539894 0.6274510025978088 0.6117647290229797 0.5686274766921997
0.3564039468765259 0.36601927876472473 0.3083004057407379 0.2078431397676468 0.22745098173618317 0.24313725531101227
0.15000000596046448 0.35212379693984985 0.007509881630539894 0.5568627715110779 0.5568627715110779 0.5490196347236633
0.20788177847862244 0.42049580812454224 0.0071146246045827866 0.6039215922355652 0.6039215922355652 0.5647059082984924
0.34729063510894775 0.3535449206829071 0.27865612506866455 0.09803921729326248 0.09803921729326248 0.09019608050584793
0.17118225991725922 0.33191221952438354 0.9897233247756958 0.8313725590705872 0.8352941274642944 0.8509804010391235
0.36231526732444763 0.4279172718524933 0.06916996091604233 0.1411764770746231 0.12941177189350128 0.10980392247438431
0.33891624212265015 0.4392862915992737 0.9897233247756958 0.4274509847164154 0.4156862795352936 0.3803921639919281
0.14088669419288635 0.42144322395324707 0.0071146246045827866 0.615686297416687 0.6078431606292725 0.5490196347236633
0.35591134428977966 0.33507025241851807 0.005928853526711464 0.4274509847164154 0.4000000059604645 0.2980392277240753
0.2943349778652191 0.44970786571502686 0.007509881630539894 0.6039215922355652 0.5921568870544434 0.5176470875740051
0.24113300442695618 0.44607609510421753 0.0071146246045827866 0.5254902243614197 0.529411792755127 0.4745098054409027
0.36256158351898193 0.4108637273311615 0.007905138656497002 0.5411764979362488 0.5411764979362488 0.43921568989753723
0.3608374297618866 0.4602873921394348 0.31343874335289 0.19607843458652496 0.21568627655506134 0.22745098173618317
0.36354678869247437 0.4689720571041107 0.00909090880304575 0.5647059082984924 0.5529412031173706 0.48627451062202454
0.1312807947397232 0.36049264669418335 0.007509881630539894 0.5215686559677124 0.5058823823928833 0.4588235318660736
0.21108373999595642 0.4454444944858551 0.0071146246045827866 0.6627451181411743 0.6666666865348816 0.6117647290229797
0.19679802656173706 0.44149690866470337 0.9897233247756958 0.4117647111415863 0.4000000059604645 0.37254902720451355
0.3371921181678772 0.41291648149490356 0.007509881630539894 0.5607843399047852 0.5568627715110779 0.47843137383461
0.3647783398628235 0.3480183184146881 0.0063241105526685715 0.48627451062202454 0.5098039507865906 0.40784314274787903
0.2780788242816925 0.4252329170703888 0.9897233247756958 0.40392157435417175 0.3843137323856354 0.3607843220233917
0.18349753320217133 0.45933997631073 0.007509881630539894 0.6039215922355652 0.6117647290229797 0.529411792755127
0.24926108121871948 0.42949628829956055 0.9897233247756958 0.3960784375667572 0.3843137323856354 0.364705890417099
0.2421182245016098 0.38970473408699036 0.006719367578625679 0.529411792755127 0.5333333611488342 0.47058823704719543
0.3216748833656311 0.4421285390853882 0.9897233247756958 0.3843137323856354 0.3764705955982208 0.32549020648002625
0.3165024518966675 0.3164377212524414 0.0071146246045827866 0.6745098233222961 0.6745098233222961 0.5647059082984924
0.18128079175949097 0.47228801250457764 0.9901185631752014 0.4313725531101227 0.4156862795352936 0.3803921639919281
0.35862070322036743 0.35480815172195435 0.22094862163066864 0.13333334028720856 0.13725490868091583 0.11764705926179886
0.1423645317554474 0.4225485622882843 0.0071146246045827866 0.5882353186607361 0.5843137502670288 0.5137255191802979
0.16995073854923248 0.4452866017818451 0.9901185631752014 0.38823530077934265 0.3764705955982208 0.34117648005485535
0.34384235739707947 0.3361755907535553 0.9877470135688782 0.29019609093666077 0.29019609093666077 0.250980406999588
0.16108374297618866 0.4677088260650635 0.007509881630539894 0.48235294222831726 0.4941176474094391 0.4117647111415863
0.2630541920661926 0.38307279348373413 0.9893280863761902 0.3960784375667572 0.3803921639919281 0.3450980484485626
0.1987684667110443 0.4631296396255493 0.007509881630539894 0.529411792755127 0.5411764979362488 0.4745098054409027
0.24507388472557068 0.4708668887615204 0.0071146246045827866 0.5372549295425415 0.529411792755127 0.47843137383461
0.32315272092819214 0.4217590391635895 0.9893280863761902 0.40784314274787903 0.3960784375667572 0.3607843220233917
0.29876846075057983 0.3330175280570984 0.006719367578625679 0.7058823704719543 0.7176470756530762 0.6039215922355652
0.2743842303752899 0.41244277358055115 0.0071146246045827866 0.5686274766921997 0.5568627715110779 0.4901960790157318
0.2184729129076004 0.3742302358150482 0.9897233247756958 0.3960784375667572 0.3843137323856354 0.3490196168422699
0.35098522901535034 0.4677088260650635 0.32490119338035583 0.5490196347236633 0.5803921818733215 0.5882353186607361
0.35837438702583313 0.4364440143108368 0.20553359389305115 0.1411764770746231 0.14901961386203766 0.14509804546833038
0.23078817129135132 0.3855992555618286 0.9897233247756958 0.40784314274787903 0.3960784375667572 0.3607843220233917
0.17906403541564941 0.40044212341308594 0.0071146246045827866 0.6431372761726379 0.6470588445663452 0.6274510025978088
0.2495073825120926 0.3503868579864502 0.9889327883720398 0.364705890417099 0.3529411852359772 0.3333333432674408
0.1748768538236618 0.39728406071662903 0.9897233247756958 0.3960784375667572 0.3843137323856354 0.35686275362968445
0.33596059679985046 0.3728090822696686 0.9885375499725342 0.3607843220233917 0.3529411852359772 0.3019607961177826
0.1391625553369522 0.3882835805416107 0.9897233247756958 0.4117647111415863 0.4000000059604645 0.3803921639919281
0.3453201949596405 0.34343913197517395 0.9877470135688782 0.3490196168422699 0.3490196168422699 0.30980393290519714
0.3130541741847992 0.4339175820350647 0.007509881630539894 0.6470588445663452 0.6352941393852234 0.5607843399047852
0.2770935893058777 0.4563398063182831 0.9897233247756958 0.40784314274787903 0.3921568691730499 0.3450980484485626
0.14950738847255707 0.356860876083374 0.9897233247756958 0.4431372582912445 0.4313725531101227 0.4117647111415863
0.35467979311943054 0.453971266746521 0.21225295960903168 0.12941177189350128 0.13725490868091583 0.13333334028720856
0.3216748833656311 0.4163903295993805 0.9893280863761902 0.4156862795352936 0.40784314274787903 0.35686275362968445
0.3618226647377014 0.3699668347835541 0.24347825348377228 0.12941177189350128 0.125490203499794 0.11764705926179886
0.32758620381355286 0.38070425391197205 0.9885375499725342 0.37254902720451355 0.364705890417099 0.3137255012989044
0.33990147709846497 0.3848097324371338 0.0071146246045827866 0.5058823823928833 0.48235294222831726 0.4274509847164154
0.25221675634384155 0.3758092522621155 0.9893280863761902 0.3921568691730499 0.3921568691730499 0.3450980484485626
0.3362068831920624 0.3447023630142212 0.0063241105526685715 0.5686274766921997 0.545098066329956 0.45098039507865906
0.27118226885795593 0.36680877208709717 0.0063241105526685715 0.686274528503418 0.6941176652908325 0.6117647290229797
0.35147783160209656 0.4359703063964844 0.3241106867790222 0.21960784494876862 0.27450981736183167 0.27450981736183167
0.19581280648708344 0.4576030373573303 0.9901185631752014 0.4156862795352936 0.40392157435417175 0.3686274588108063
0.3566502332687378 0.3562292754650116 0.2707509994506836 0.09803921729326248 0.09803921729326248 0.09019608050584793
0.158620685338974 0.3334912359714508 0.007509881630539894 0.6666666865348816 0.6549019813537598 0.6196078658103943
0.21995073556900024 0.37138795852661133 0.006719367578625679 0.6196078658103943 0.6235294342041016 0.5686274766921997
0.33866995573043823 0.4544449746608734 0.312648206949234 0.09019608050584793 0.09019608050584793 0.08235294371843338
0.21206896007061005 0.4230222702026367 0.9897233247756958 0.3921568691730499 0.3803921639919281 0.3607843220233917
0.33965516090393066 0.43486499786376953 0.9897233247756958 0.3803921639919281 0.3803921639919281 0.3333333432674408
0.32389163970947266 0.4342333674430847 0.007905138656497002 0.658823549747467 0.6549019813537598 0.5843137502670288
0.20443350076675415 0.4400757849216461 0.0071146246045827866 0.5607843399047852 0.5529412031173706 0.501960813999176
0.35566502809524536 0.43186482787132263 0.00830039568245411 0.47058823704719543 0.4745098054409027 0.4117647111415863
0.3135468065738678 0.4678667187690735 0.00830039568245411 0.5921568870544434 0.5882353186607361 0.5176470875740051
0.3610837459564209 0.3390178382396698 0.2976284623146057 0.20392157137393951 0.2235294133424759 0.24705882370471954
0.3615763485431671 0.4103900194168091 0.007905138656497002 0.5764706134796143 0.5764706134796143 0.48235294222831726
0.3322660028934479 0.42128533124923706 0.9893280863761902 0.41960784792900085 0.40392157435417175 0.3607843220233917
0.3421182334423065 0.4566556215286255 0.27747035026550293 0.09803921729326248 0.09803921729326248 0.09803921729326248
0.13990147411823273 0.38591504096984863 0.0071146246045827866 0.6549019813537598 0.6392157077789307 0.5921568870544434
0.3576354682445526 0.43518081307411194 0.2339920997619629 0.14509804546833038 0.15294118225574493 0.14901961386203766
0.12857143580913544 0.402652770280838 0.9897233247756958 0.3607843220233917 0.3490196168422699 0.3137255012989044
0.35886698961257935 0.43281224370002747 0.20118577778339386 0.14509804546833038 0.15294118225574493 0.14901961386203766
0.2694581151008606 0.4547607898712158 0.9897233247756958 0.4117647111415863 0.40392157435417175 0.35686275362968445
0.1862068921327591 0.3642823398113251 0.0071146246045827866 0.5882353186607361 0.5882353186607361 0.5490196347236633
0.15812808275222778 0.3420180082321167 0.9897233247756958 0.45490196347236633 0.4470588266849518 0.45098039507865906
0.33596059679985046 0.3879677951335907 0.9885375499725342 0.3764705955982208 0.3686274588108063 0.32156863808631897
0.20172414183616638 0.35828202962875366 0.0071146246045827866 0.6470588445663452 0.6392157077789307 0.5882353186607361
0.17660097777843475 0.34107059240341187 0.9897233247756958 0.5098039507865906 0.47058823704719543 0.501960813999176
0.12339901179075241 0.36886152625083923 0.007509881630539894 0.5686274766921997 0.5529412031173706 0.5176470875740051
0.1472906470298767 0.36965101957321167 0.9897233247756958 0.4313725531101227 0.41960784792900085 0.4000000059604645
0.3330049216747284 0.45523449778556824 0.9901185631752014 0.40784314274787903 0.3960784375667572 0.3607843220233917
0.15640394389629364 0.3197536766529083 0.007509881630539894 0.6549019813537598 0.6549019813537598 0.6078431606292725
0.31847289204597473 0.4629717469215393 0.9901185631752014 0.4117647111415863 0.40392157435417175 0.35686275362968445
0.3684729039669037 0.47039318084716797 0.29802370071411133 0.16470588743686676 0.18431372940540314 0.19607843458652496
0.18325123190879822 0.40691614151000977 0.9897233247756958 0.3960784375667572 0.3843137323856354 0.35686275362968445
0.1665024608373642 0.41860097646713257 0.0071146246045827866 0.5215686559677124 0.5254902243614197 0.47058823704719543
0.17709359526634216 0.33412283658981323 0.0071146246045827866 0.6549019813537598 0.6431372761726379 0.6078431606292725
0.1748768538236618 0.4478130340576172 0.007509881630539894 0.5568627715110779 0.5568627715110779 0.5176470875740051
0.36724138259887695 0.402494877576828 0.9889327883720398 0.3843137323856354 0.37254902720451355 0.33725491166114807
0.3495073914527893 0.36317700147628784 0.16996046900749207 0.125490203499794 0.1411764770746231 0.14509804546833038
0.1669950783252716 0.4247592091560364 0.0071146246045827866 0.6392157077789307 0.6470588445663452 0.5647059082984924
0.3066502511501312 0.3590715229511261 0.0063241105526685715 0.5568627715110779 0.5921568870544434 0.5098039507865906
0.36699506640434265 0.4280751645565033 0.21620553731918335 0.16078431904315948 0.16862745583057404 0.1568627506494522
0.25295567512512207 0.41796937584877014 0.9897233247756958 0.38823530077934265 0.3764705955982208 0.3490196168422699
0.3450738787651062 0.43518081307411194 0.30039525032043457 0.10196078568696976 0.10196078568696976 0.10196078568696976
0.30738916993141174 0.356860876083374 0.9881423115730286 0.35686275362968445 0.35686275362968445 0.3176470696926117
0.19655172526836395 0.32938575744628906 0.9893280863761902 0.8745098114013672 0.8901960849761963 0.8941176533699036
0.20320196449756622 0.42318016290664673 0.9897233247756958 0.4117647111415863 0.4000000059604645 0.3803921639919281
0.36330050230026245 0.3309647738933563 0.005928853526711464 0.4470588266849518 0.47058823704719543 0.42352941632270813
0.2263546735048294 0.33712300658226013 0.0071146246045827866 0.4941176474094391 0.49803921580314636 0.4274509847164154
0.1990147829055786 0.3958629369735718 0.006719367578625679 0.6666666865348816 0.6549019813537598 0.6274510025978088
0.29605910181999207 0.3472287952899933 0.9881423115730286 0.33725491166114807 0.33725491166114807 0.2980392277240753
0.2977832555770874 0.35228168964385986 0.0063241105526685715 0.6078431606292725 0.6274510025978088 0.5411764979362488
0.30812808871269226 0.3931785821914673 0.0071146246045827866 0.6392157077789307 0.6431372761726379 0.572549045085907
0.12635467946529388 0.33207011222839355 0.007509881630539894 0.5921568870544434 0.545098066329956 0.4901960790157318
0.15147782862186432 0.4433917701244354 0.9901185631752014 0.37254902720451355 0.364705890417099 0.3176470696926117
0.14137931168079376 0.4102321267127991 0.9901185631752014 0.3803921639919281 0.3686274588108063 0.3333333432674408
0.24334976077079773 0.46060317754745483 0.0071146246045827866 0.5960784554481506 0.6078431606292725 0.5411764979362488
0.22093595564365387 0.4691299498081207 0.9901185631752014 0.4156862795352936 0.3960784375667572 0.37254902720451355
0.3576354682445526 0.46407705545425415 0.15177865326404572 0.27843138575553894 0.27843138575553894 0.24705882370471954
0.3408867120742798 0.43818095326423645 0.00830039568245411 0.6352941393852234 0.6313725709915161 0.5529412031173706
0.2145320177078247 0.4456023871898651 0.9897233247756958 0.4274509847164154 0.4156862795352936 0.3960784375667572
0.25123152136802673 0.413390189409256 0.9897233247756958 0.40392157435417175 0.3921568691730499 0.364705890417099
0.35443350672721863 0.4029685854911804 0.9889327883720398 0.3607843220233917 0.3529411852359772 0.30588236451148987
0.22783251106739044 0.36586135625839233 0.006719367578625679 0.6901960968971252 0.686274528503418 0.6039215922355652
0.2657635509967804 0.4572872221469879 0.9897233247756958 0.40392157435417175 0.3960784375667572 0.3490196168422699
0.2667487561702728 0.4086530804634094 0.006719367578625679 0.49803921580314636 0.501960813999176 0.4313725531101227
0.35862070322036743 0.3336491286754608 0.9877470135688782 0.3176470696926117 0.3176470696926117 0.27843138575553894
0.34334975481033325 0.362229585647583 0.9881423115730286 0.40392157435417175 0.3960784375667572 0.3450980484485626
0.35812807083129883 0.3644402325153351 0.2719367444515228 0.10588235408067703 0.10588235408067703 0.09803921729326248
0.1667487621307373 0.4457603096961975 0.9901185631752014 0.40392157435417175 0.3921568691730499 0.35686275362968445
0.29137930274009705 0.3274909257888794 0.006719367578625679 0.5411764979362488 0.5215686559677124 0.43529412150382996
0.3379310369491577 0.35480815172195435 0.0063241105526685715 0.5882353186607361 0.5960784554481506 0.501960813999176
0.3541871905326843 0.32875415682792664 0.27944663166999817 0.07058823853731155 0.07058823853731155 0.07058823853731155
0.17118225991725922 0.4021790623664856 0.9897233247756958 0.4000000059604645 0.38823530077934265 0.3607843220233917
0.18546797335147858 0.38907310366630554 0.9897233247756958 0.40392157435417175 0.3921568691730499 0.37254902720451355
0.19261083006858826 0.37754619121551514 0.9897233247756958 0.40392157435417175 0.3921568691730499 0.37254902720451355
0.3613300621509552 0.46755093336105347 0.3110671937465668 0.19607843458652496 0.21568627655506134 0.22745098173618317
0.1662561595439911 0.3447023630142212 0.0071146246045827866 0.7058823704719543 0.6901960968971252 0.6470588445663452
0.12561576068401337 0.408021479845047 0.007509881630539894 0.5176470875740051 0.5215686559677124 0.45098039507865906
0.277339905500412 0.3255960941314697 0.006719367578625679 0.6274510025978088 0.6352941393852234 0.5529412031173706
0.1312807947397232 0.4105479121208191 0.0071146246045827866 0.6196078658103943 0.6117647290229797 0.5529412031173706
0.22709359228610992 0.3505447506904602 0.9893280863761902 0.3607843220233917 0.3450980484485626 0.3333333432674408
0.3566502332687378 0.45965576171875 0.17272727191448212 0.14901961386203766 0.15294118225574493 0.16078431904315948
0.3482758700847626 0.4659718871116638 0.2296442687511444 0.11764705926179886 0.11764705926179886 0.11764705926179886
0.12339901179075241 0.34880784153938293 0.9897233247756958 0.4588235318660736 0.4431372582912445 0.40784314274787903
0.3568965494632721 0.43202275037765503 0.9897233247756958 0.43921568989753723 0.4274509847164154 0.3921568691730499
0.17216749489307404 0.4073898494243622 0.9901185631752014 0.3960784375667572 0.3843137323856354 0.35686275362968445
0.2812807857990265 0.3844939172267914 0.9893280863761902 0.3803921639919281 0.37254902720451355 0.32549020648002625
0.21896551549434662 0.42065373063087463 0.9897233247756958 0.4000000059604645 0.38823530077934265 0.3607843220233917
0.3532019555568695 0.4454444944858551 0.32450592517852783 0.23137255012989044 0.250980406999588 0.26274511218070984
0.3660098612308502 0.4452866017818451 0.13241106271743774 0.24705882370471954 0.24313725531101227 0.2235294133424759
0.25517240166664124 0.40060004591941833 0.006719367578625679 0.5882353186607361 0.6039215922355652 0.5372549295425415
0.3578817844390869 0.4448128938674927 0.9897233247756958 0.42352941632270813 0.4156862795352936 0.3686274588108063
0.3615763485431671 0.42996999621391296 0.16956521570682526 0.11372549086809158 0.11372549086809158 0.12156862765550613
0.27906402945518494 0.3797568380832672 0.006719367578625679 0.6627451181411743 0.6470588445663452 0.5490196347236633
0.3605911433696747 0.34659719467163086 0.9877470135688782 0.3490196168422699 0.34117648005485535 0.29411765933036804
0.3613300621509552 0.3311226963996887 0.2964426875114441 0.239215686917305 0.2549019753932953 0.25882354378700256
0.3647783398628235 0.31722721457481384 0.0063241105526685715 0.27843138575553894 0.2823529541492462 0.21176470816135406
0.3564039468765259 0.4621822237968445 0.1664031594991684 0.16470588743686676 0.1725490242242813 0.16862745583057404
0.23472906649112701 0.36965101957321167 0.9897233247756958 0.40392157435417175 0.3921568691730499 0.35686275362968445
0.34458127617836 0.3627032935619354 0.31936758756637573 0.2823529541492462 0.2980392277240753 0.29411765933036804
0.13965517282485962 0.35717669129371643 0.9897233247756958 0.4588235318660736 0.4470588266849518 0.41960784792900085
0.1741379350423813 0.3393336534500122 0.0071146246045827866 0.5647059082984924 0.572549045085907 0.529411792755127
0.12586206197738647 0.32291173934936523 0.9897233247756958 0.47058823704719543 0.45490196347236633 0.41960784792900085
0.20517241954803467 0.44702354073524475 0.0071146246045827866 0.5607843399047852 0.5647059082984924 0.5098039507865906
0.3497537076473236 0.47039318084716797 0.21660079061985016 0.11764705926179886 0.11764705926179886 0.11764705926179886
0.22709359228610992 0.42081162333488464 0.9897233247756958 0.4156862795352936 0.40392157435417175 0.3686274588108063
0.2302955687046051 0.39175745844841003 0.006719367578625679 0.545098066329956 0.5529412031173706 0.501960813999176
0.3298029601573944 0.4287067651748657 0.9897233247756958 0.4274509847164154 0.4117647111415863 0.3764705955982208
0.23078817129135132 0.3649139404296875 0.9893280863761902 0.3176470696926117 0.3137255012989044 0.29411765933036804
0.2298029512166977 0.3308068811893463 0.9889327883720398 0.8784313797950745 0.8823529481887817 0.9019607901573181
0.2938423752784729 0.43565452098846436 0.007509881630539894 0.545098066329956 0.5529412031173706 0.47058823704719543
0.2539408802986145 0.3885993957519531 0.006719367578625679 0.7098039388656616 0.7058823704719543 0.6274510025978088
0.34458127617836 0.40644243359565735 0.9889327883720398 0.40392157435417175 0.3960784375667572 0.3490196168422699
0.24507388472557068 0.338228315114975 0.006719367578625679 0.5764706134796143 0.5921568870544434 0.4941176474094391
0.3490147888660431 0.4310753345489502 0.9897233247756958 0.41960784792900085 0.3921568691730499 0.3529411852359772
0.36379310488700867 0.42949628829956055 0.15296442806720734 0.21960784494876862 0.2078431397676468 0.1882352977991104
0.2458128035068512 0.4419706165790558 0.0071146246045827866 0.5607843399047852 0.5686274766921997 0.5137255191802979
0.31600984930992126 0.4629717469215393 0.9901185631752014 0.42352941632270813 0.4156862795352936 0.3686274588108063
0.18891625106334686 0.4654981791973114 0.007509881630539894 0.6352941393852234 0.6313725709915161 0.5529412031173706
0.24532020092010498 0.40044212341308594 0.006719367578625679 0.5333333611488342 0.5254902243614197 0.46666666865348816
0.2901477813720703 0.3470709025859833 0.006719367578625679 0.615686297416687 0.6274510025978088 0.5607843399047852
0.17118225991725922 0.4138638973236084 0.0071146246045827866 0.48235294222831726 0.4901960790157318 0.43921568989753723
0.14507389068603516 0.3944418132305145 0.9901185631752014 0.40784314274787903 0.3960784375667572 0.3686274588108063
0.22093595564365387 0.37565135955810547 0.006719367578625679 0.6392157077789307 0.6431372761726379 0.5803921818733215
0.31453201174736023 0.44054949283599854 0.9897233247756958 0.43921568989753723 0.4274509847164154 0.3921568691730499
0.35467979311943054 0.45886626839637756 0.9901185631752014 0.4156862795352936 0.40392157435417175 0.3686274588108063
0.3645320236682892 0.44654983282089233 0.008695651777088642 0.6000000238418579 0.5882353186607361 0.529411792755127
0.3406403958797455 0.4547607898712158 0.29169961810112 0.09803921729326248 0.09803921729326248 0.09803921729326248
0.29137930274009705 0.39507341384887695 0.9893280863761902 0.38823530077934265 0.3803921639919281 0.3294117748737335
0.3295566439628601 0.38970473408699036 0.9889327883720398 0.3686274588108063 0.3607843220233917 0.3137255012989044
0.24532020092010498 0.3944418132305145 0.006719367578625679 0.5686274766921997 0.5647059082984924 0.48627451062202454
0.2586206793785095 0.32843834161758423 0.9885375499725342 1.0 1.0 1.0
0.31133005023002625 0.4511290192604065 0.007905138656497002 0.6352941393852234 0.6392157077789307 0.5764706134796143
0.25665023922920227 0.42428550124168396 0.006719367578625679 0.6000000238418579 0.5960784554481506 0.5254902243614197
0.230049267411232 0.35449233651161194 0.9893280863761902 0.35686275362968445 0.3450980484485626 0.32549020648002625
0.13251231610774994 0.3876519799232483 0.9897233247756958 0.41960784792900085 0.40784314274787903 0.3803921639919281
0.13669951260089874 0.3709142506122589 0.9897233247756958 0.4117647111415863 0.4000000059604645 0.3803921639919281
0.1504926085472107 0.4514448046684265 0.007509881630539894 0.5686274766921997 0.5803921818733215 0.5058823823928833
0.2628078758716583 0.40107375383377075 0.9897233247756958 0.40392157435417175 0.3960784375667572 0.3490196168422699
0.36798030138015747 0.42965418100357056 0.9893280863761902 0.41960784792900085 0.40784314274787903 0.37254902720451355
0.3571428656578064 0.43502289056777954 0.9897233247756958 0.4000000059604645 0.3921568691730499 0.3450980484485626
0.36798030138015747 0.33238592743873596 0.005928853526711464 0.4000000059604645 0.38823530077934265 0.32156863808631897
0.35886698961257935 0.36017686128616333 0.186956524848938 0.0941176488995552 0.10196078568696976 0.09803921729326248
0.1788177341222763 0.46091899275779724 0.007509881630539894 0.6470588445663452 0.658823549747467 0.5843137502670288
0.3689655065536499 0.3701247572898865 0.18972331285476685 0.0941176488995552 0.09803921729326248 0.11372549086809158
0.20098522305488586 0.465182363986969 0.007509881630539894 0.5764706134796143 0.5803921818733215 0.5254902243614197
0.3463054299354553 0.470551073551178 0.3241106867790222 0.32156863808631897 0.3607843220233917 0.364705890417099
0.3694581389427185 0.3612821698188782 0.006719367578625679 0.5215686559677124 0.5098039507865906 0.3490196168422699
0.314039409160614 0.4421285390853882 0.007905138656497002 0.5921568870544434 0.5960784554481506 0.5333333611488342
0.2381773442029953 0.39823147654533386 0.9897233247756958 0.4000000059604645 0.4000000059604645 0.3686274588108063
0.1423645317554474 0.40596872568130493 0.9901185631752014 0.3764705955982208 0.364705890417099 0.3294117748737335
0.19507388770580292 0.4075477719306946 0.0071146246045827866 0.6745098233222961 0.6627451181411743 0.6352941393852234
0.23103448748588562 0.42381179332733154 0.0071146246045827866 0.5607843399047852 0.5647059082984924 0.501960813999176
0.237931028008461 0.46107688546180725 0.9897233247756958 0.40784314274787903 0.4000000059604645 0.3529411852359772
0.317241370677948 0.3615979850292206 0.006719367578625679 0.6352941393852234 0.6470588445663452 0.5333333611488342
0.18472906947135925 0.37470394372940063 0.9897233247756958 0.4274509847164154 0.40784314274787903 0.3921568691730499
0.3689655065536499 0.42633822560310364 0.09565217047929764 0.10980392247438431 0.10980392247438431 0.07058823853731155
0.3421182334423065 0.35559767484664917 0.3075098693370819 0.27450981736183167 0.29411765933036804 0.30588236451148987
0.1985221654176712 0.3328596353530884 0.9893280863761902 0.8627451062202454 0.8627451062202454 0.8705882430076599
0.15270936489105225 0.32354333996772766 0.9897233247756958 0.45098039507865906 0.45490196347236633 0.47058823704719543
0.19113300740718842 0.34691300988197327 0.9897233247756958 0.43529412150382996 0.4313725531101227 0.4156862795352936
0.20812807977199554 0.41244277358055115 0.9897233247756958 0.3529411852359772 0.34117648005485535 0.3137255012989044
0.36379310488700867 0.39807358384132385 0.007509881630539894 0.501960813999176 0.49803921580314636 0.4156862795352936
0.35985222458839417 0.3645981252193451 0.21067193150520325 0.2549019753932953 0.2705882489681244 0.2666666805744171
0.3179802894592285 0.3587557375431061 0.0063241105526685715 0.6196078658103943 0.5960784554481506 0.4627451002597809
0.35467979311943054 0.36917731165885925 0.17312252521514893 0.19607843458652496 0.21960784494876862 0.21960784494876862
0.2931034564971924 0.32385915517807007 0.9881423115730286 0.686274528503418 0.7215686440467834 0.7411764860153198
0.3660098612308502 0.31801673769950867 0.29446640610694885 0.3764705955982208 0.3960784375667572 0.4117647111415863
0.21477831900119781 0.3650718331336975 0.006719367578625679 0.7411764860153198 0.7450980544090271 0.6823529601097107
0.34359607100486755 0.3627032935619354 0.006719367578625679 0.7372549176216125 0.7254902124404907 0.6666666865348816
0.20812807977199554 0.4653402864933014 0.007509881630539894 0.5568627715110779 0.5647059082984924 0.5137255191802979
0.3221674859523773 0.44449707865715027 0.9897233247756958 0.40784314274787903 0.3960784375667572 0.3607843220233917
0.1551724076271057 0.3358597755432129 0.9897233247756958 0.5568627715110779 0.5686274766921997 0.5960784554481506
0.1465517282485962 0.42949628829956055 0.9901185631752014 0.3490196168422699 0.3490196168422699 0.30980393290519714
0.36305418610572815 0.47039318084716797 0.3079051375389099 0.18431372940540314 0.20392157137393951 0.21568627655506134
0.13374383747577667 0.3450181484222412 0.9897233247756958 0.4627451002597809 0.45098039507865906 0.4313725531101227
0.3455665111541748 0.4708668887615204 0.2818181812763214 0.08235294371843338 0.08235294371843338 0.07450980693101883
0.3051724135875702 0.3743881285190582 0.006719367578625679 0.545098066329956 0.5921568870544434 0.5137255191802979
0.3608374297618866 0.3560713827610016 0.17470355331897736 0.22745098173618317 0.26274511218070984 0.25882354378700256
0.16182266175746918 0.3699668347835541 0.0071146246045827866 0.6392157077789307 0.6274510025978088 0.6000000238418579
0.35812807083129883 0.43881258368492126 0.21739129722118378 0.14509804546833038 0.15294118225574493 0.14901961386203766
0.2495073825120926 0.4165482521057129 0.006719367578625679 0.5607843399047852 0.5647059082984924 0.4941176474094391
0.2061576396226883 0.35212379693984985 0.0071146246045827866 0.5764706134796143 0.5686274766921997 0.5098039507865906
0.24039408564567566 0.3443865478038788 0.006719367578625679 0.6313725709915161 0.6274510025978088 0.545098066329956
0.29556649923324585 0.45002368092536926 0.007905138656497002 0.6039215922355652 0.5960784554481506 0.5137255191802979
0.1743842363357544 0.40154746174812317 0.0071146246045827866 0.6196078658103943 0.6235294342041016 0.5921568870544434
0.23497536778450012 0.4100742042064667 0.9897233247756958 0.4000000059604645 0.38823530077934265 0.3686274588108063
0.2187192142009735 0.3623875081539154 0.9897233247756958 0.38823530077934265 0.3843137323856354 0.364705890417099
0.3652709424495697 0.3739144206047058 0.24387352168560028 0.12941177189350128 0.12941177189350128 0.12156862765550613
0.3339901566505432 0.327333003282547 0.006719367578625679 0.4941176474094391 0.5137255191802979 0.3960784375667572
0.20714285969734192 0.4103900194168091 0.0071146246045827866 0.6509804129600525 0.658823549747467 0.6078431606292725
0.36256158351898193 0.3685457110404968 0.18656127154827118 0.06666667014360428 0.07058823853731155 0.0784313753247261
0.31108373403549194 0.3538607358932495 0.0063241105526685715 0.658823549747467 0.6745098233222961 0.5686274766921997
0.25517240166664124 0.36965101957321167 0.9893280863761902 0.3960784375667572 0.38823530077934265 0.34117648005485535
