0.7298029661178589 0.2150639444589615 0.992094874382019 1.0 1.0 1.0
0.740394115447998 0.22785410284996033 0.9928853511810303 0.9411764740943909 0.95686274766922 0.9529411792755127
0.8334975242614746 0.2411179542541504 0.9916995763778687 0.3019607961177826 0.3019607961177826 0.2705882489681244
0.6817734241485596 0.17321963608264923 0.005928853526711464 0.6549019813537598 0.6627451181411743 0.6078431606292725
0.7995073795318604 0.2125374972820282 0.992094874382019 0.29411765933036804 0.2823529541492462 0.24705882370471954
0.8421182036399841 0.29496288299560547 0.9916995763778687 0.3607843220233917 0.3490196168422699 0.32156863808631897
0.8258620500564575 0.2899099886417389 0.992094874382019 0.364705890417099 0.3529411852359772 0.3333333432674408
0.6576354503631592 0.2850149869918823 0.2956521809101105 0.5098039507865906 0.5176470875740051 0.49803921580314636
0.7527093887329102 0.30254223942756653 0.9940711259841919 0.30588236451148987 0.3137255012989044 0.30980393290519714
0.6820197105407715 0.29417338967323303 0.0071146246045827866 0.13725490868091583 0.1568627506494522 0.16862745583057404
0.6354680061340332 0.2725406587123871 0.9916995763778687 0.9450980424880981 0.9607843160629272 0.9725490212440491
0.8034482598304749 0.3104373812675476 0.9928853511810303 0.3921568691730499 0.38823530077934265 0.3686274588108063
0.684236466884613 0.18253591656684875 0.005928853526711464 0.7058823704719543 0.7215686440467834 0.6666666865348816
0.8354679942131042 0.259276807308197 0.0063241105526685715 0.49803921580314636 0.49803921580314636 0.38823530077934265
0.6561576128005981 0.1751144826412201 0.9905138611793518 0.9215686321258545 0.9411764740943909 0.9647058844566345
0.6465517282485962 0.22453813254833221 0.24347825348377228 0.08627451211214066 0.08235294371843338 0.07450980693101883
0.8012315034866333 0.29748934507369995 0.9928853511810303 0.3490196168422699 0.33725491166114807 0.3176470696926117
0.7214285731315613 0.2441181093454361 0.0071146246045827866 0.239215686917305 0.23137255012989044 0.18039216101169586
0.6492610573768616 0.2180641144514084 0.27984189987182617 0.11764705926179886 0.11372549086809158 0.10588235408067703
0.8059113025665283 0.1669035255908966 0.991304337978363 0.3137255012989044 0.3019607961177826 0.2823529541492462
0.7108374238014221 0.26022422313690186 0.2960474193096161 0.47843137383461 0.48627451062202454 0.46666666865348816
0.674876868724823 0.2528027892112732 0.0063241105526685715 0.21568627655506134 0.20000000298023224 0.16470588743686676
0.692364513874054 0.30348965525627136 0.9924901127815247 1.0 1.0 1.0
0.6305418610572815 0.19437864422798157 0.0063241105526685715 0.5529412031173706 0.5568627715110779 0.48627451062202454
0.6453201770782471 0.22501184046268463 0.18893280625343323 0.07058823853731155 0.054901961237192154 0.05882352963089943
0.6399014592170715 0.2354334443807602 0.9905138611793518 0.9529411792755127 0.9725490212440491 0.9843137264251709
0.7684729099273682 0.15916627645492554 0.005928853526711464 0.6470588445663452 0.6470588445663452 0.6000000238418579
0.6593596339225769 0.22548554837703705 0.9893280863761902 0.9176470637321472 0.9450980424880981 0.9764705896377563
0.6630541682243347 0.2936996817588806 0.2956521809101105 0.5058823823928833 0.5098039507865906 0.48627451062202454
0.629802942276001 0.19453655183315277 0.0063241105526685715 0.5490196347236633 0.5529412031173706 0.48235294222831726
0.7108374238014221 0.20448444783687592 0.006719367578625679 0.6745098233222961 0.6509804129600525 0.5568627715110779
0.7928571701049805 0.2839096784591675 0.9928853511810303 0.27843138575553894 0.27450981736183167 0.2666666805744171
0.6514778137207031 0.2295910269021988 0.0063241105526685715 0.23529411852359772 0.22745098173618317 0.18039216101169586
0.692364513874054 0.23417021334171295 0.9889327883720398 0.9607843160629272 0.9803921580314636 1.0
0.7211822867393494 0.1950102597475052 0.991304337978363 0.9725490212440491 0.9921568632125854 1.0
0.6948275566101074 0.16864044964313507 0.005928853526711464 0.6980392336845398 0.7058823704719543 0.6549019813537598
0.7990148067474365 0.17906205356121063 0.9916995763778687 0.2862745225429535 0.2705882489681244 0.2666666805744171
0.7871921062469482 0.16737723350524902 0.9916995763778687 0.2549019753932953 0.239215686917305 0.22745098173618317
0.743842363357544 0.18853624165058136 0.9932806491851807 0.6196078658103943 0.6784313917160034 0.6666666865348816
0.6566502451896667 0.23938101530075073 0.15810276567935944 0.07450980693101883 0.0941176488995552 0.10980392247438431
0.6431034207344055 0.2693825960159302 0.9909090995788574 0.9411764740943909 0.9607843160629272 0.9725490212440491
0.6950739026069641 0.27490919828414917 0.2960474193096161 0.47058823704719543 0.47843137383461 0.46666666865348816
0.7990148067474365 0.22374862432479858 0.9924901127815247 0.3137255012989044 0.29411765933036804 0.27843138575553894
0.8450738787651062 0.16721932590007782 0.9901185631752014 0.3176470696926117 0.29019609093666077 0.2666666805744171
0.6652709245681763 0.30585819482803345 0.005928853526711464 0.22745098173618317 0.23137255012989044 0.20000000298023224
0.8376847505569458 0.2534343898296356 0.006719367578625679 0.529411792755127 0.5411764979362488 0.46666666865348816
0.751477837562561 0.28296226263046265 0.007509881630539894 0.21176470816135406 0.20000000298023224 0.1411764770746231
0.6687192320823669 0.2299068421125412 0.2956521809101105 0.501960813999176 0.5098039507865906 0.4901960790157318
0.6288177371025085 0.2521711587905884 0.991304337978363 0.9529411792755127 0.9764705896377563 0.9764705896377563
0.7477832436561584 0.17179851233959198 0.0063241105526685715 0.6313725709915161 0.6352941393852234 0.5803921818733215
0.6416256427764893 0.22359071671962738 0.24624505639076233 0.10196078568696976 0.09803921729326248 0.09019608050584793
0.7236453294754028 0.1610611081123352 0.992094874382019 1.0 1.0 1.0
0.6270936131477356 0.2445918172597885 0.991304337978363 0.9921568632125854 1.0 0.9960784316062927
0.6756157875061035 0.21932733058929443 0.9885375499725342 0.95686274766922 0.9686274528503418 0.9882352948188782
0.681280791759491 0.2725406587123871 0.9905138611793518 0.9764705896377563 0.9921568632125854 1.0
0.684236466884613 0.29748934507369995 0.0071146246045827866 0.13725490868091583 0.1568627506494522 0.1411764770746231
0.7349753975868225 0.2216958850622177 0.9924901127815247 0.929411768913269 0.9333333373069763 0.9411764740943909
0.8578817844390869 0.2586452066898346 0.991304337978363 0.26274511218070984 0.2705882489681244 0.21960784494876862
0.6564039587974548 0.2785409688949585 0.9909090995788574 0.9647058844566345 0.9960784316062927 1.0
0.7679802775382996 0.22580136358737946 0.006719367578625679 0.4627451002597809 0.4627451002597809 0.3607843220233917
0.7100985050201416 0.27680402994155884 0.2960474193096161 0.4901960790157318 0.5098039507865906 0.48235294222831726
0.7172414064407349 0.2709616422653198 0.2960474193096161 0.47843137383461 0.48235294222831726 0.45098039507865906
0.826600968837738 0.1754302829504013 0.9909090995788574 0.3019607961177826 0.27450981736183167 0.250980406999588
0.8381773233413696 0.24806568026542664 0.006719367578625679 0.5490196347236633 0.5490196347236633 0.43921568989753723
0.793596088886261 0.2908574044704437 0.006719367578625679 0.43921568989753723 0.4470588266849518 0.3529411852359772
0.7990148067474365 0.31438496708869934 0.9928853511810303 0.3921568691730499 0.3921568691730499 0.3607843220233917
0.8583743572235107 0.2693825960159302 0.991304337978363 0.3137255012989044 0.30588236451148987 0.25882354378700256
0.8118226528167725 0.17953576147556305 0.991304337978363 0.3529411852359772 0.32549020648002625 0.3019607961177826
0.6389162540435791 0.2700141966342926 0.991304337978363 0.9411764740943909 0.9607843160629272 0.9725490212440491
0.8224138021469116 0.17021948099136353 0.006719367578625679 0.572549045085907 0.5764706134796143 0.5215686559677124
0.7366995215415955 0.26306647062301636 0.0071146246045827866 0.21568627655506134 0.2078431397676468 0.14901961386203766
0.7448275685310364 0.31438496708869934 0.9932806491851807 0.8509804010391235 0.8784313797950745 0.9019607901573181
0.6307882070541382 0.24822358787059784 0.1762845814228058 0.05882352963089943 0.062745101749897 0.07058823853731155
0.8517241477966309 0.16895626485347748 0.006719367578625679 0.6549019813537598 0.6431372761726379 0.5686274766921997
0.8440886735916138 0.24774987995624542 0.9916995763778687 0.2862745225429535 0.27843138575553894 0.23137255012989044
0.6418719291687012 0.3041212558746338 0.005533596966415644 0.0470588244497776 0.04313725605607033 0.03529411926865578
0.6837438344955444 0.23385441303253174 0.9881423115730286 0.9607843160629272 0.9764705896377563 0.9803921580314636
0.754679799079895 0.30870047211647034 0.9940711259841919 0.21960784494876862 0.20392157137393951 0.20000000298023224
0.8128078579902649 0.3020685315132141 0.0063241105526685715 0.615686297416687 0.6235294342041016 0.5411764979362488
0.6302955746650696 0.16295593976974487 0.005533596966415644 0.6901960968971252 0.6980392336845398 0.6431372761726379
0.81083744764328 0.3022264242172241 0.0063241105526685715 0.45490196347236633 0.4588235318660736 0.38823530077934265
0.6167487502098083 0.28312015533447266 0.29525691270828247 0.545098066329956 0.5607843399047852 0.5647059082984924
0.6204433441162109 0.2793304920196533 0.18498024344444275 0.0941176488995552 0.09803921729326248 0.10588235408067703
0.7135468125343323 0.29133111238479614 0.007905138656497002 0.32549020648002625 0.3176470696926117 0.2666666805744171
0.6524630784988403 0.22943313419818878 0.9897233247756958 0.9137254953384399 0.9411764740943909 0.9725490212440491
0.6490147709846497 0.26843518018722534 0.16996046900749207 0.05882352963089943 0.062745101749897 0.07058823853731155
0.6320196986198425 0.20480024814605713 0.9905138611793518 0.9960784316062927 0.9960784316062927 0.9960784316062927
0.7862069010734558 0.2010105848312378 0.006719367578625679 0.5529412031173706 0.5607843399047852 0.46666666865348816
0.6800492405891418 0.2295910269021988 0.9881423115730286 0.9607843160629272 0.9764705896377563 0.9882352948188782
0.8179802894592285 0.16295593976974487 0.0063241105526685715 0.6470588445663452 0.6470588445663452 0.6000000238418579
0.6165024638175964 0.22027474641799927 0.1719367653131485 0.10588235408067703 0.10588235408067703 0.09803921729326248
0.7862069010734558 0.16895626485347748 0.9916995763778687 0.26274511218070984 0.25882354378700256 0.250980406999588
0.7056650519371033 0.26843518018722534 0.007509881630539894 0.21568627655506134 0.2078431397676468 0.16078431904315948
0.6504926085472107 0.2041686475276947 0.9893280863761902 0.9529411792755127 0.9725490212440491 0.9882352948188782
0.6610837578773499 0.19137848913669586 0.9897233247756958 0.9098039269447327 0.9372549057006836 0.9686274528503418
0.7504926323890686 0.19169430434703827 0.9932806491851807 0.2823529541492462 0.30980393290519714 0.34117648005485535
0.8455665111541748 0.31185850501060486 0.0063241105526685715 0.47058823704719543 0.46666666865348816 0.3843137323856354
0.7428571581840515 0.3134375512599945 0.29486167430877686 0.5411764979362488 0.5647059082984924 0.5490196347236633
0.6802955865859985 0.24080215394496918 0.2960474193096161 0.46666666865348816 0.48627451062202454 0.4588235318660736
0.6470443606376648 0.27775144577026367 0.9909090995788574 0.9803921580314636 0.9764705896377563 0.9960784316062927
0.7391625642776489 0.25090792775154114 0.9928853511810303 1.0 0.9960784316062927 1.0
0.809359610080719 0.21174798905849457 0.006719367578625679 0.5607843399047852 0.5529412031173706 0.501960813999176
0.7527093887329102 0.1983262300491333 0.006719367578625679 0.5764706134796143 0.5921568870544434 0.501960813999176
0.7527093887329102 0.21064266562461853 0.006719367578625679 0.47843137383461 0.4745098054409027 0.35686275362968445
0.6226601004600525 0.25722405314445496 0.992094874382019 0.9647058844566345 0.9882352948188782 0.9882352948188782
0.6401478052139282 0.17385125160217285 0.005533596966415644 0.6470588445663452 0.6627451181411743 0.6078431606292725
0.8174876570701599 0.18206220865249634 0.006719367578625679 0.615686297416687 0.6352941393852234 0.5490196347236633
0.6719211935997009 0.27727773785591125 0.9909090995788574 0.9725490212440491 0.9882352948188782 1.0
0.6963053941726685 0.22011685371398926 0.006719367578625679 0.4627451002597809 0.47843137383461 0.38823530077934265
0.678078830242157 0.24901311099529266 0.2960474193096161 0.4588235318660736 0.46666666865348816 0.4470588266849518
0.6633005142211914 0.2295910269021988 0.9889327883720398 0.9372549057006836 0.95686274766922 0.9803921580314636
0.7576354742050171 0.30380547046661377 0.9940711259841919 0.27450981736183167 0.250980406999588 0.250980406999588
0.7529556751251221 0.27459341287612915 0.2956521809101105 0.48235294222831726 0.48235294222831726 0.45098039507865906
0.6995074152946472 0.21727459132671356 0.9897233247756958 1.0 1.0 1.0
0.6571428775787354 0.1757460981607437 0.9905138611793518 0.9254902005195618 0.9450980424880981 0.9686274528503418
0.8081280589103699 0.2608558237552643 0.9924901127815247 0.29411765933036804 0.29019609093666077 0.2705882489681244
0.7199507355690002 0.24380230903625488 0.0071146246045827866 0.27843138575553894 0.2705882489681244 0.2235294133424759
0.8546798229217529 0.3069635331630707 0.991304337978363 0.4000000059604645 0.3921568691730499 0.3450980484485626
0.7280788421630859 0.30601611733436584 0.007905138656497002 0.1882352977991104 0.1725490242242813 0.12941177189350128
0.7894088625907898 0.2272224873304367 0.9924901127815247 0.30980393290519714 0.30588236451148987 0.2862745225429535
0.8618226647377014 0.20527395606040955 0.9905138611793518 0.27450981736183167 0.26274511218070984 0.22745098173618317
0.6253694295883179 0.28596243262290955 0.29525691270828247 0.501960813999176 0.5176470875740051 0.5215686559677124
0.6253694295883179 0.17448286712169647 0.005533596966415644 0.572549045085907 0.5803921818733215 0.5372549295425415
0.6549261212348938 0.2693825960159302 0.15810276567935944 0.07058823853731155 0.0784313753247261 0.07450980693101883
0.7576354742050171 0.23401232063770294 0.29407113790512085 0.12941177189350128 0.13333334028720856 0.11372549086809158
0.8209359645843506 0.31122690439224243 0.005928853526711464 0.5490196347236633 0.545098066329956 0.4745098054409027
0.806157648563385 0.27790936827659607 0.006719367578625679 0.5607843399047852 0.5764706134796143 0.48627451062202454
0.7731527090072632 0.25485551357269287 0.0071146246045827866 0.32156863808631897 0.30980393290519714 0.250980406999588
0.7246305346488953 0.2815411388874054 0.9916995763778687 1.0 1.0 1.0
0.6566502451896667 0.2562766373157501 0.9901185631752014 0.9254902005195618 0.9529411792755127 0.9764705896377563
0.7820196747779846 0.3049107789993286 0.9932806491851807 0.2980392277240753 0.29411765933036804 0.2862745225429535
0.8160098791122437 0.1839570552110672 0.006719367578625679 0.6313725709915161 0.6392157077789307 0.5568627715110779
0.6667487621307373 0.2562766373157501 0.9897233247756958 0.9529411792755127 0.9647058844566345 0.9843137264251709
0.620197057723999 0.2982788681983948 0.9928853511810303 1.0 0.9960784316062927 1.0
0.6637930870056152 0.253750205039978 0.0063241105526685715 0.239215686917305 0.239215686917305 0.20000000298023224
0.6800492405891418 0.2556450366973877 0.2960474193096161 0.4588235318660736 0.48235294222831726 0.4431372582912445
0.628078818321228 0.24017053842544556 0.991304337978363 1.0 1.0 1.0
0.7133004665374756 0.2327490895986557 0.006719367578625679 0.30980393290519714 0.30588236451148987 0.22745098173618317
0.6783251166343689 0.29164692759513855 0.992094874382019 0.9764705896377563 0.9921568632125854 0.9960784316062927
0.6743842363357544 0.2038528323173523 0.0063241105526685715 0.6235294342041016 0.6392157077789307 0.572549045085907
0.7233990430831909 0.2502763271331787 0.0071146246045827866 0.2549019753932953 0.2549019753932953 0.2078431397676468
0.6724137663841248 0.21111637353897095 0.006719367578625679 0.4470588266849518 0.45098039507865906 0.41960784792900085
0.628078818321228 0.2738038897514343 0.005928853526711464 0.26274511218070984 0.250980406999588 0.21568627655506134
0.7233990430831909 0.2502763271331787 0.0071146246045827866 0.2549019753932953 0.2549019753932953 0.2078431397676468
0.7886699438095093 0.23227538168430328 0.9928853511810303 0.3019607961177826 0.3019607961177826 0.2705882489681244
0.6224138140678406 0.23953892290592194 0.9916995763778687 1.0 1.0 1.0
0.678078830242157 0.2906995117664337 0.2956521809101105 0.4745098054409027 0.501960813999176 0.4745098054409027
0.6692118048667908 0.2210642695426941 0.2956521809101105 0.08235294371843338 0.09803921729326248 0.10980392247438431
0.6522167325019836 0.30270013213157654 0.005533596966415644 0.25882354378700256 0.2549019753932953 0.239215686917305
0.7137930989265442 0.20922154188156128 0.006719367578625679 0.5803921818733215 0.5960784554481506 0.5058823823928833
0.7834975123405457 0.286594033241272 0.0071146246045827866 0.3803921639919281 0.38823530077934265 0.33725491166114807
0.6704433560371399 0.2820148468017578 0.0063241105526685715 0.007843137718737125 0.003921568859368563 0.0
0.75935959815979 0.27206695079803467 0.9936758875846863 0.2078431397676468 0.20000000298023224 0.21176470816135406
0.7773398756980896 0.19358913600444794 0.9924901127815247 0.2862745225429535 0.2823529541492462 0.2666666805744171
0.6310344934463501 0.2505921423435211 0.1766798347234726 0.05882352963089943 0.062745101749897 0.07058823853731155
0.7344827651977539 0.23764409124851227 0.2964426875114441 0.4431372582912445 0.4901960790157318 0.48235294222831726
0.6566502451896667 0.189325749874115 0.005928853526711464 0.572549045085907 0.5803921818733215 0.5372549295425415
0.6416256427764893 0.22359071671962738 0.24624505639076233 0.10196078568696976 0.09803921729326248 0.09019608050584793
0.8184729218482971 0.2040107399225235 0.006719367578625679 0.545098066329956 0.5529412031173706 0.4588235318660736
0.821921169757843 0.23085425794124603 0.006719367578625679 0.6509804129600525 0.6470588445663452 0.5647059082984924
0.767241358757019 0.27111953496932983 0.0071146246045827866 0.2666666805744171 0.25882354378700256 0.1764705926179886
0.684482753276825 0.27396178245544434 0.9909090995788574 0.9607843160629272 0.9803921580314636 0.9921568632125854
0.628078818321228 0.16800884902477264 0.9905138611793518 0.9450980424880981 0.9607843160629272 0.9725490212440491
0.6743842363357544 0.3101215958595276 0.006719367578625679 0.21568627655506134 0.21960784494876862 0.1568627506494522
0.8295566439628601 0.1896415650844574 0.006719367578625679 0.5686274766921997 0.5647059082984924 0.48627451062202454
0.6182265877723694 0.28896257281303406 0.005533596966415644 0.1725490242242813 0.15294118225574493 0.13725490868091583
0.7396551966667175 0.3098057806491852 0.007509881630539894 0.23137255012989044 0.2235294133424759 0.1725490242242813
0.670197069644928 0.2869098484516144 0.9916995763778687 0.9764705896377563 0.9921568632125854 1.0
0.6470443606376648 0.2606979310512543 0.0063241105526685715 0.23529411852359772 0.22745098173618317 0.18039216101169586
0.7431034445762634 0.18316753208637238 0.9928853511810303 0.7254902124404907 0.7647058963775635 0.7686274647712708
0.6455665230751038 0.1634296476840973 0.9909090995788574 0.9058823585510254 0.9254902005195618 0.9411764740943909
0.7559113502502441 0.2502763271331787 0.9936758875846863 0.2823529541492462 0.27450981736183167 0.29411765933036804
0.6832512021064758 0.2668561637401581 0.9905138611793518 0.9764705896377563 0.9803921580314636 0.9960784316062927
0.7325122952461243 0.19690510630607605 0.992094874382019 0.9843137264251709 0.9882352948188782 0.9960784316062927
0.8359605669975281 0.2846992015838623 0.992094874382019 0.30980393290519714 0.2980392277240753 0.2705882489681244
0.6564039587974548 0.2610137462615967 0.156521737575531 0.06666667014360428 0.07450980693101883 0.07058823853731155
0.6512315273284912 0.22753828763961792 0.21501976251602173 0.08235294371843338 0.0784313753247261 0.07058823853731155
0.743596076965332 0.3045949637889862 0.007509881630539894 0.21176470816135406 0.20392157137393951 0.15294118225574493
0.6731526851654053 0.20874783396720886 0.006719367578625679 0.45098039507865906 0.4627451002597809 0.38823530077934265
0.7066502571105957 0.3055424094200134 0.00830039568245411 0.1725490242242813 0.16470588743686676 0.11764705926179886
0.6620689630508423 0.25659245252609253 0.2956521809101105 0.4588235318660736 0.48627451062202454 0.4588235318660736
0.7842364311218262 0.19058898091316223 0.006719367578625679 0.49803921580314636 0.5137255191802979 0.4470588266849518
0.7009851932525635 0.3080688416957855 0.29446640610694885 0.4901960790157318 0.5176470875740051 0.48627451062202454
0.7460591197013855 0.25690826773643494 0.2964426875114441 0.48235294222831726 0.48627451062202454 0.46666666865348816
0.8465517163276672 0.2698563039302826 0.0063241105526685715 0.43921568989753723 0.4588235318660736 0.3686274588108063
0.8374384045600891 0.30285805463790894 0.0063241105526685715 0.501960813999176 0.5137255191802979 0.40784314274787903
0.6273398995399475 0.16785094141960144 0.005533596966415644 0.6431372761726379 0.6274510025978088 0.5921568870544434
0.7539408802986145 0.2643297016620636 0.9940711259841919 0.2666666805744171 0.2823529541492462 0.29411765933036804
0.8066502213478088 0.23148587346076965 0.006719367578625679 0.5058823823928833 0.529411792755127 0.41960784792900085
0.6790640354156494 0.21648508310317993 0.006719367578625679 0.4000000059604645 0.40784314274787903 0.35686275362968445
0.809359610080719 0.17132480442523956 0.006719367578625679 0.6823529601097107 0.686274528503418 0.6235294342041016
0.8504925966262817 0.25122374296188354 0.9916995763778687 0.32549020648002625 0.3176470696926117 0.2666666805744171
0.631280779838562 0.31138479709625244 0.9932806491851807 0.9490196108818054 0.9882352948188782 0.9921568632125854
0.6736453175544739 0.1722722202539444 0.9909090995788574 0.9647058844566345 0.9803921580314636 0.9921568632125854
0.7027093768119812 0.24348649382591248 0.9897233247756958 0.9372549057006836 0.9725490212440491 1.0
0.8394088745117188 0.2726985514163971 0.9916995763778687 0.34117648005485535 0.3333333432674408 0.2862745225429535
0.7369458079338074 0.26306647062301636 0.9924901127815247 1.0 1.0 1.0
0.7830049395561218 0.28848886489868164 0.0071146246045827866 0.47058823704719543 0.4745098054409027 0.4117647111415863
0.6423645615577698 0.17164061963558197 0.005533596966415644 0.686274528503418 0.6980392336845398 0.6705882549285889
0.6933497786521912 0.2905416190624237 0.29486167430877686 0.4901960790157318 0.5098039507865906 0.48627451062202454
0.6293103694915771 0.27159324288368225 0.9916995763778687 0.95686274766922 0.9725490212440491 0.9843137264251709
0.8056650161743164 0.206852987408638 0.9916995763778687 0.2823529541492462 0.2823529541492462 0.250980406999588
0.7394088506698608 0.18916785717010498 0.9928853511810303 1.0 1.0 1.0
0.7980295419692993 0.25201326608657837 0.006719367578625679 0.48235294222831726 0.48627451062202454 0.364705890417099
0.6965517401695251 0.24601294100284576 0.0071146246045827866 0.23137255012989044 0.23137255012989044 0.1921568661928177
0.7076354622840881 0.17100900411605835 0.991304337978363 1.0 1.0 1.0
0.6357142925262451 0.1867993026971817 0.005928853526711464 0.6352941393852234 0.6509804129600525 0.5921568870544434
0.823399007320404 0.3156481981277466 0.005928853526711464 0.5411764979362488 0.545098066329956 0.4745098054409027
0.6160098314285278 0.22485393285751343 0.9916995763778687 1.0 1.0 1.0
0.7684729099273682 0.31517449021339417 0.006719367578625679 0.29411765933036804 0.2862745225429535 0.239215686917305
0.6524630784988403 0.26922470331192017 0.2956521809101105 0.47843137383461 0.4901960790157318 0.45490196347236633
0.6945812702178955 0.20906363427639008 0.9893280863761902 0.9764705896377563 0.9803921580314636 1.0
0.8418719172477722 0.20858992636203766 0.006719367578625679 0.5215686559677124 0.529411792755127 0.4470588266849518
0.7748768329620361 0.2531185746192932 0.006719367578625679 0.30980393290519714 0.2980392277240753 0.23137255012989044
0.7652709484100342 0.2583293914794922 0.9936758875846863 0.250980406999588 0.24313725531101227 0.2549019753932953
0.754679799079895 0.30333176255226135 0.007509881630539894 0.23529411852359772 0.22745098173618317 0.1764705926179886
0.6399014592170715 0.23495973646640778 0.9905138611793518 0.95686274766922 0.9764705896377563 0.9882352948188782
0.7522167563438416 0.20006315410137177 0.9932806491851807 0.3294117748737335 0.3294117748737335 0.33725491166114807
0.7061576247215271 0.270172119140625 0.007509881630539894 0.21176470816135406 0.20392157137393951 0.15294118225574493
0.7371920943260193 0.29164692759513855 0.29169961810112 0.4941176474094391 0.5215686559677124 0.4941176474094391
0.8541871905326843 0.26243487000465393 0.0063241105526685715 0.5764706134796143 0.5764706134796143 0.4745098054409027
0.6539409160614014 0.25169745087623596 0.16877470910549164 0.05882352963089943 0.062745101749897 0.07058823853731155
0.6593596339225769 0.23432812094688416 0.15296442806720734 0.11764705926179886 0.07450980693101883 0.09803921729326248
0.6465517282485962 0.2239065170288086 0.24624505639076233 0.09803921729326248 0.0941176488995552 0.08627451211214066
0.7652709484100342 0.21648508310317993 0.006719367578625679 0.4941176474094391 0.49803921580314636 0.3764705955982208
0.6184729337692261 0.2561187446117401 0.29525691270828247 0.4627451002597809 0.49803921580314636 0.48627451062202454
0.678078830242157 0.24553923308849335 0.9889327883720398 0.9607843160629272 0.9764705896377563 0.9882352948188782
0.6825123429298401 0.2818569540977478 0.2956521809101105 0.47058823704719543 0.48235294222831726 0.45490196347236633
0.7509852051734924 0.19769461452960968 0.006719367578625679 0.5607843399047852 0.5764706134796143 0.48627451062202454
0.8054187297821045 0.24253907799720764 0.9924901127815247 0.2823529541492462 0.2705882489681244 0.250980406999588
0.7194581031799316 0.2359071522951126 0.991304337978363 0.929411768913269 0.9647058844566345 0.9921568632125854
0.68916255235672 0.2412758618593216 0.2960474193096161 0.4627451002597809 0.4901960790157318 0.4588235318660736
0.7837438583374023 0.28927838802337646 0.9932806491851807 0.2549019753932953 0.250980406999588 0.24313725531101227
0.6490147709846497 0.2469603717327118 0.1774703562259674 0.07058823853731155 0.07450980693101883 0.08235294371843338
0.7541871666908264 0.17479866743087769 0.0063241105526685715 0.686274528503418 0.6901960968971252 0.6274510025978088
0.6480295658111572 0.19643139839172363 0.0063241105526685715 0.6078431606292725 0.6117647290229797 0.5568627715110779
0.7238916158676147 0.2666982412338257 0.007509881630539894 0.2235294133424759 0.22745098173618317 0.1725490242242813
0.7440886497497559 0.26559293270111084 0.0071146246045827866 0.2823529541492462 0.27450981736183167 0.2235294133424759
0.7177339792251587 0.1899573653936386 0.0063241105526685715 0.6784313917160034 0.6784313917160034 0.5764706134796143
0.8598521947860718 0.16516658663749695 0.9897233247756958 0.3333333432674408 0.30588236451148987 0.2666666805744171
0.6463054418563843 0.3071214258670807 0.9928853511810303 1.0 1.0 1.0
0.8566502332687378 0.19595767557621002 0.006719367578625679 0.5333333611488342 0.5372549295425415 0.46666666865348816
0.6179803013801575 0.16137690842151642 0.9905138611793518 0.9333333373069763 0.95686274766922 0.9490196108818054
0.7509852051734924 0.2820148468017578 0.007509881630539894 0.239215686917305 0.23137255012989044 0.18039216101169586
0.6761083602905273 0.2842254936695099 0.0063241105526685715 0.0117647061124444 0.019607843831181526 0.007843137718737125
0.6305418610572815 0.22027474641799927 0.1660079061985016 0.10588235408067703 0.10588235408067703 0.09803921729326248
0.8182265758514404 0.2726985514163971 0.0063241105526685715 0.5098039507865906 0.5176470875740051 0.42352941632270813
0.8182265758514404 0.17116689682006836 0.9909090995788574 0.32156863808631897 0.29411765933036804 0.26274511218070984
0.7275862097740173 0.160745307803154 0.005928853526711464 0.6352941393852234 0.6392157077789307 0.615686297416687
0.7332512140274048 0.29180482029914856 0.007905138656497002 0.3019607961177826 0.27843138575553894 0.21568627655506134
0.8253694772720337 0.27206695079803467 0.0063241105526685715 0.572549045085907 0.5647059082984924 0.48235294222831726
0.633004903793335 0.2215379774570465 0.23754940927028656 0.10980392247438431 0.10588235408067703 0.09019608050584793
0.7068965435028076 0.2502763271331787 0.9901185631752014 0.95686274766922 0.9764705896377563 0.9921568632125854
0.8605911135673523 0.2071688026189804 0.9905138611793518 0.3137255012989044 0.3019607961177826 0.2666666805744171
0.7433497309684753 0.22027474641799927 0.006719367578625679 0.5960784554481506 0.6078431606292725 0.5333333611488342
0.8598521947860718 0.2643297016620636 0.0063241105526685715 0.4431372582912445 0.43921568989753723 0.35686275362968445
0.8123152852058411 0.189325749874115 0.006719367578625679 0.6352941393852234 0.6470588445663452 0.5803921818733215
0.8147783279418945 0.24806568026542664 0.9924901127815247 0.27450981736183167 0.25882354378700256 0.24705882370471954
0.620197057723999 0.23764409124851227 0.29525691270828247 0.4901960790157318 0.48235294222831726 0.4313725531101227
0.6435960531234741 0.26843518018722534 0.17391304671764374 0.054901961237192154 0.05882352963089943 0.06666667014360428
0.6192117929458618 0.19469445943832397 0.0063241105526685715 0.4941176474094391 0.49803921580314636 0.4274509847164154
0.729556679725647 0.2966998219490051 0.007905138656497002 0.2078431397676468 0.20000000298023224 0.14901961386203766
0.7628079056739807 0.30364754796028137 0.9936758875846863 0.2862745225429535 0.26274511218070984 0.26274511218070984
0.8177340030670166 0.24585504829883575 0.9924901127815247 0.27843138575553894 0.2862745225429535 0.27450981736183167
0.7433497309684753 0.22059056162834167 0.006719367578625679 0.5960784554481506 0.6078431606292725 0.5333333611488342
0.7162561416625977 0.25943470001220703 0.9909090995788574 0.9764705896377563 1.0 0.9921568632125854
0.8532019853591919 0.22564345598220825 0.006719367578625679 0.6039215922355652 0.6000000238418579 0.5176470875740051
0.7894088625907898 0.20448444783687592 0.006719367578625679 0.5921568870544434 0.6000000238418579 0.5058823823928833
0.8032019734382629 0.2910153269767761 0.9928853511810303 0.29019609093666077 0.2862745225429535 0.2705882489681244
0.6332512497901917 0.22753828763961792 0.0063241105526685715 0.29019609093666077 0.2823529541492462 0.2235294133424759
0.7305418848991394 0.22611716389656067 0.2964426875114441 0.4627451002597809 0.47843137383461 0.4901960790157318
0.6692118048667908 0.16595610976219177 0.9909090995788574 0.9254902005195618 0.9411764740943909 0.9764705896377563
0.8002462983131409 0.22659087181091309 0.9924901127815247 0.29019609093666077 0.29019609093666077 0.25882354378700256
0.6273398995399475 0.20922154188156128 0.30474308133125305 0.12941177189350128 0.12941177189350128 0.12941177189350128
0.6667487621307373 0.2665403485298157 0.0063241105526685715 0.10980392247438431 0.11372549086809158 0.0941176488995552
0.7157635688781738 0.28612032532691956 0.29446640610694885 0.47843137383461 0.5058823823928833 0.47843137383461
0.7655172348022461 0.29180482029914856 0.0071146246045827866 0.29019609093666077 0.2862745225429535 0.21568627655506134
0.7965517044067383 0.19406284391880035 0.9916995763778687 0.27843138575553894 0.27450981736183167 0.2549019753932953
0.6275861859321594 0.31170061230659485 0.2960474193096161 0.48627451062202454 0.5176470875740051 0.529411792755127
0.7645320296287537 0.183799147605896 0.9924901127815247 0.2666666805744171 0.26274511218070984 0.2549019753932953
0.7800492644309998 0.23969683051109314 0.9932806491851807 0.2823529541492462 0.2862745225429535 0.2666666805744171
0.6211822628974915 0.21348491311073303 0.28418973088264465 0.1411764770746231 0.13725490868091583 0.12156862765550613
0.7551724314689636 0.24885520339012146 0.29486167430877686 0.2666666805744171 0.29019609093666077 0.27450981736183167
0.6596059203147888 0.17006158828735352 0.005533596966415644 0.5921568870544434 0.6000000238418579 0.5568627715110779
0.6278325319290161 0.30664771795272827 0.9928853511810303 1.0 1.0 1.0
0.7524630427360535 0.20053687691688538 0.006719367578625679 0.48627451062202454 0.49803921580314636 0.3921568691730499
0.6825123429298401 0.2156955599784851 0.006719367578625679 0.5058823823928833 0.5098039507865906 0.4470588266849518
0.8167487978935242 0.27411970496177673 0.9924901127815247 0.30980393290519714 0.2980392277240753 0.27843138575553894
0.6504926085472107 0.2153797596693039 0.9897233247756958 0.929411768913269 0.9450980424880981 0.9803921580314636
0.6738916039466858 0.28312015533447266 0.991304337978363 0.95686274766922 0.9764705896377563 0.9882352948188782
0.8182265758514404 0.3109110891819 0.9924901127815247 0.38823530077934265 0.3764705955982208 0.3490196168422699
0.7960591316223145 0.16564029455184937 0.0063241105526685715 0.6274510025978088 0.6313725709915161 0.5764706134796143
0.8320196866989136 0.22659087181091309 0.006719367578625679 0.5176470875740051 0.5176470875740051 0.42352941632270813
0.8226600885391235 0.16185061633586884 0.0063241105526685715 0.6000000238418579 0.5921568870544434 0.5333333611488342
0.7330049276351929 0.19927364587783813 0.992094874382019 0.9960784316062927 0.9960784316062927 1.0
0.7899014949798584 0.30301594734191895 0.9932806491851807 0.33725491166114807 0.34117648005485535 0.32156863808631897
0.8342364430427551 0.275698721408844 0.992094874382019 0.33725491166114807 0.32549020648002625 0.29019609093666077
0.8017241358757019 0.1954839676618576 0.9916995763778687 0.26274511218070984 0.26274511218070984 0.23137255012989044
0.6704433560371399 0.2126954048871994 0.9889327883720398 0.9450980424880981 0.9647058844566345 0.9882352948188782
0.6546797752380371 0.31517449021339417 0.005138339940458536 0.25882354378700256 0.25882354378700256 0.21960784494876862
0.6573891639709473 0.2532764971256256 0.9897233247756958 0.929411768913269 0.9490196108818054 0.9725490212440491
0.8293103575706482 0.1691141575574875 0.9905138611793518 0.29411765933036804 0.2666666805744171 0.23529411852359772
0.8226600885391235 0.2846992015838623 0.9924901127815247 0.3137255012989044 0.2980392277240753 0.2862745225429535
0.6495074033737183 0.2641718089580536 0.1711462438106537 0.05882352963089943 0.062745101749897 0.07058823853731155
0.684482753276825 0.1814306080341339 0.005928853526711464 0.5098039507865906 0.5254902243614197 0.47058823704719543
0.7004926204681396 0.24632875621318817 0.2960474193096161 0.45490196347236633 0.4745098054409027 0.45098039507865906
0.7110837697982788 0.22753828763961792 0.2964426875114441 0.47058823704719543 0.5058823823928833 0.4941176474094391
0.7699507474899292 0.2959102988243103 0.9936758875846863 0.2980392277240753 0.29411765933036804 0.2862745225429535
0.6568965315818787 0.22295910120010376 0.006719367578625679 0.5254902243614197 0.5215686559677124 0.43921568989753723
0.6679803133010864 0.2930680513381958 0.2956521809101105 0.48235294222831726 0.4941176474094391 0.46666666865348816
0.7630541920661926 0.26227694749832153 0.9936758875846863 0.2549019753932953 0.25882354378700256 0.2666666805744171
0.823399007320404 0.27490919828414917 0.992094874382019 0.3333333432674408 0.32156863808631897 0.29411765933036804
0.7408866882324219 0.23148587346076965 0.9928853511810303 0.9803921580314636 0.9882352948188782 0.9843137264251709
0.687438428401947 0.2763303220272064 0.2960474193096161 0.47058823704719543 0.4901960790157318 0.46666666865348816
0.6778324842453003 0.25690826773643494 0.2960474193096161 0.47058823704719543 0.4941176474094391 0.45490196347236633
0.6490147709846497 0.21774829924106598 0.2810276746749878 0.11764705926179886 0.11372549086809158 0.10588235408067703
0.7123152613639832 0.28327807784080505 0.2956521809101105 0.4901960790157318 0.5098039507865906 0.48235294222831726
0.7490147948265076 0.2753829061985016 0.007509881630539894 0.2078431397676468 0.20000000298023224 0.14901961386203766
0.7731527090072632 0.17037738859653473 0.992094874382019 0.27843138575553894 0.25882354378700256 0.24705882370471954
0.7753694653511047 0.17132480442523956 0.992094874382019 0.27450981736183167 0.26274511218070984 0.24313725531101227
0.631280779838562 0.3134375512599945 0.2960474193096161 0.47058823704719543 0.49803921580314636 0.5215686559677124
0.6581280827522278 0.20811621844768524 0.0063241105526685715 0.5686274766921997 0.5764706134796143 0.4941176474094391
0.7396551966667175 0.1839570552110672 0.9928853511810303 0.9882352948188782 0.9960784316062927 0.9843137264251709
0.759605884552002 0.2643297016620636 0.0071146246045827866 0.250980406999588 0.23529411852359772 0.20000000298023224
0.6665024757385254 0.22295910120010376 0.2956521809101105 0.10196078568696976 0.11764705926179886 0.11372549086809158
0.6807881593704224 0.31170061230659485 0.29525691270828247 0.45098039507865906 0.4745098054409027 0.46666666865348816
0.7241379022598267 0.20495815575122833 0.9916995763778687 0.9803921580314636 0.9960784316062927 1.0
0.7798029780387878 0.28596243262290955 0.9932806491851807 0.23529411852359772 0.23137255012989044 0.2235294133424759
0.7150246500968933 0.17116689682006836 0.991304337978363 0.9803921580314636 1.0 0.9960784316062927
0.8263546824455261 0.275856614112854 0.0063241105526685715 0.5215686559677124 0.5254902243614197 0.45490196347236633
0.6209359765052795 0.22974893450737 0.29525691270828247 0.46666666865348816 0.47058823704719543 0.45098039507865906
0.7034482955932617 0.23622295260429382 0.9897233247756958 0.95686274766922 0.9725490212440491 0.9686274528503418
0.7923645377159119 0.16579820215702057 0.0063241105526685715 0.5843137502670288 0.5921568870544434 0.5411764979362488
0.7386699318885803 0.1757460981607437 0.0063241105526685715 0.6549019813537598 0.6666666865348816 0.5921568870544434
0.7746305465698242 0.23717038333415985 0.9932806491851807 0.29019609093666077 0.2862745225429535 0.27843138575553894
0.8374384045600891 0.2651192247867584 0.992094874382019 0.30980393290519714 0.2980392277240753 0.26274511218070984
0.7443349957466125 0.18522027134895325 0.9932806491851807 0.6901960968971252 0.729411780834198 0.7333333492279053
0.621921181678772 0.2872256338596344 0.9924901127815247 0.9686274528503418 0.9882352948188782 1.0
0.7224137783050537 0.2469603717327118 0.0071146246045827866 0.19607843458652496 0.1882352977991104 0.1411764770746231
0.6825123429298401 0.18222011625766754 0.9905138611793518 0.9843137264251709 0.9882352948188782 0.9960784316062927
0.8460590839385986 0.2927522361278534 0.0063241105526685715 0.6117647290229797 0.6196078658103943 0.5254902243614197
0.7997536659240723 0.2935417592525482 0.006719367578625679 0.46666666865348816 0.47843137383461 0.37254902720451355
0.8443349599838257 0.16185061633586884 0.9901185631752014 0.3176470696926117 0.2823529541492462 0.2549019753932953
0.8098522424697876 0.21080057322978973 0.006719367578625679 0.5843137502670288 0.5803921818733215 0.501960813999176
0.8568965792655945 0.2875414490699768 0.0063241105526685715 0.5137255191802979 0.5215686559677124 0.43921568989753723
0.6157635450363159 0.24932891130447388 0.17470355331897736 0.054901961237192154 0.05882352963089943 0.06666667014360428
0.6371921300888062 0.22359071671962738 0.20079050958156586 0.05882352963089943 0.05882352963089943 0.05098039284348488
0.6933497786521912 0.2551713287830353 0.9897233247756958 0.9607843160629272 0.9764705896377563 0.9803921580314636
0.7642857432365417 0.2990683615207672 0.9936758875846863 0.3294117748737335 0.3137255012989044 0.3019607961177826
0.8374384045600891 0.29133111238479614 0.0063241105526685715 0.572549045085907 0.5764706134796143 0.5058823823928833
0.7201970219612122 0.23717038333415985 0.0071146246045827866 0.3137255012989044 0.3176470696926117 0.24705882370471954
0.6583743691444397 0.17116689682006836 0.9905138611793518 0.9137254953384399 0.9411764740943909 0.9725490212440491
0.7322660088539124 0.26038211584091187 0.2964426875114441 0.48627451062202454 0.4941176474094391 0.48235294222831726
0.8054187297821045 0.2502763271331787 0.9924901127815247 0.2705882489681244 0.2666666805744171 0.250980406999588
0.6435960531234741 0.2870677411556244 0.005928853526711464 0.15294118225574493 0.15294118225574493 0.11372549086809158
0.751477837562561 0.28375178575515747 0.29288536310195923 0.49803921580314636 0.5058823823928833 0.48627451062202454
0.7980295419692993 0.2412758618593216 0.9928853511810303 0.2823529541492462 0.250980406999588 0.239215686917305
0.8586207032203674 0.1811147928237915 0.9901185631752014 0.3333333432674408 0.30588236451148987 0.2666666805744171
0.8113300204277039 0.28959420323371887 0.9924901127815247 0.3137255012989044 0.3137255012989044 0.2823529541492462
0.6342364549636841 0.21664297580718994 0.2964426875114441 0.250980406999588 0.2823529541492462 0.29411765933036804
0.6967980265617371 0.29180482029914856 0.011067193932831287 0.2078431397676468 0.21960784494876862 0.18431372940540314
0.8428571224212646 0.1639033704996109 0.9901185631752014 0.32156863808631897 0.2862745225429535 0.25882354378700256
0.81083744764328 0.25690826773643494 0.9924901127815247 0.3176470696926117 0.30588236451148987 0.2862745225429535
0.7497537136077881 0.25959262251853943 0.9936758875846863 0.3960784375667572 0.42352941632270813 0.4627451002597809
0.6633005142211914 0.2963840067386627 0.29486167430877686 0.48627451062202454 0.4941176474094391 0.4745098054409027
0.7270935773849487 0.24238118529319763 0.2964426875114441 0.4627451002597809 0.48627451062202454 0.47843137383461
0.734236478805542 0.22627507150173187 0.006719367578625679 0.5058823823928833 0.4901960790157318 0.3921568691730499
0.8150246143341064 0.22516974806785583 0.992094874382019 0.2980392277240753 0.29019609093666077 0.24313725531101227
0.678078830242157 0.25722405314445496 0.2960474193096161 0.46666666865348816 0.4901960790157318 0.4431372582912445
0.8497536778450012 0.23732827603816986 0.991304337978363 0.30588236451148987 0.2980392277240753 0.250980406999588
0.6657635569572449 0.22027474641799927 0.9889327883720398 0.929411768913269 0.9647058844566345 0.9921568632125854
0.7758620977401733 0.1956418752670288 0.006719367578625679 0.6117647290229797 0.6078431606292725 0.5254902243614197
0.8539409041404724 0.23448602855205536 0.991304337978363 0.3176470696926117 0.30980393290519714 0.25882354378700256
0.7549260854721069 0.259118914604187 0.9936758875846863 0.250980406999588 0.250980406999588 0.2823529541492462
0.8490147590637207 0.23322279751300812 0.006719367578625679 0.5176470875740051 0.5176470875740051 0.42352941632270813
0.6965517401695251 0.18900994956493378 0.0063241105526685715 0.7686274647712708 0.7607843279838562 0.7137255072593689
0.623399019241333 0.21095846593379974 0.2956521809101105 0.1411764770746231 0.1411764770746231 0.13333334028720856
0.7995073795318604 0.292278528213501 0.006719367578625679 0.42352941632270813 0.4313725531101227 0.33725491166114807
0.7504926323890686 0.28548872470855713 0.9936758875846863 0.25882354378700256 0.27843138575553894 0.29019609093666077
0.6576354503631592 0.2846992015838623 0.2956521809101105 0.48235294222831726 0.501960813999176 0.47843137383461
0.7347290515899658 0.20322121679782867 0.006719367578625679 0.49803921580314636 0.5137255191802979 0.4156862795352936
0.7455664873123169 0.281225323677063 0.9932806491851807 0.9686274528503418 0.9843137264251709 0.9960784316062927
0.6637930870056152 0.16895626485347748 0.005533596966415644 0.572549045085907 0.572549045085907 0.5333333611488342
0.6578817963600159 0.28612032532691956 0.2956521809101105 0.4941176474094391 0.5058823823928833 0.47843137383461
0.8463054299354553 0.25122374296188354 0.006719367578625679 0.4745098054409027 0.48235294222831726 0.4000000059604645
0.856157660484314 0.20180009305477142 0.006719367578625679 0.48627451062202454 0.49803921580314636 0.42352941632270813
0.6834975481033325 0.30648982524871826 0.9928853511810303 0.9882352948188782 1.0 1.0
0.6216748952865601 0.22201168537139893 0.2956521809101105 0.37254902720451355 0.38823530077934265 0.3921568691730499
0.6384236216545105 0.21932733058929443 0.15889328718185425 0.10196078568696976 0.09803921729326248 0.09019608050584793
0.8091133236885071 0.21680088341236115 0.006719367578625679 0.6627451181411743 0.6745098233222961 0.5607843399047852
0.809359610080719 0.17132480442523956 0.006719367578625679 0.6823529601097107 0.686274528503418 0.6235294342041016
0.7034482955932617 0.2894362807273865 0.007905138656497002 0.239215686917305 0.22745098173618317 0.1921568661928177
0.6293103694915771 0.24490763247013092 0.0063241105526685715 0.30980393290519714 0.2862745225429535 0.2235294133424759
0.6876847147941589 0.17369335889816284 0.005928853526711464 0.5686274766921997 0.572549045085907 0.5411764979362488
0.8517241477966309 0.26638245582580566 0.0063241105526685715 0.4117647111415863 0.4274509847164154 0.32156863808631897
0.7475369572639465 0.30901625752449036 0.007509881630539894 0.16078431904315948 0.14509804546833038 0.10196078568696976
0.6662561297416687 0.23669667541980743 0.0063241105526685715 0.16078431904315948 0.14901961386203766 0.12941177189350128
0.806157648563385 0.26606664061546326 0.9924901127815247 0.3019607961177826 0.3019607961177826 0.29411765933036804
0.6630541682243347 0.21206378936767578 0.006719367578625679 0.4156862795352936 0.42352941632270813 0.37254902720451355
0.8022167682647705 0.18300963938236237 0.9916995763778687 0.29019609093666077 0.2862745225429535 0.2666666805744171
0.6665024757385254 0.29717352986335754 0.29446640610694885 0.4941176474094391 0.49803921580314636 0.46666666865348816
0.6460590958595276 0.16627191007137299 0.9905138611793518 0.9176470637321472 0.929411768913269 0.9490196108818054
0.6522167325019836 0.3022264242172241 0.9924901127815247 1.0 1.0 1.0
0.6598522067070007 0.25185537338256836 0.2956521809101105 0.4588235318660736 0.46666666865348816 0.4470588266849518
0.6290640234947205 0.27111953496932983 0.29525691270828247 0.47843137383461 0.49803921580314636 0.4745098054409027
0.7623152732849121 0.25185537338256836 0.9936758875846863 0.27450981736183167 0.2705882489681244 0.3019607961177826
0.7130541801452637 0.21727459132671356 0.9905138611793518 1.0 0.9960784316062927 1.0
0.7125615477561951 0.17164061963558197 0.991304337978363 0.9803921580314636 0.9960784316062927 0.9921568632125854
0.7189655303955078 0.29433128237724304 0.2920948565006256 0.48627451062202454 0.5058823823928833 0.47843137383461
0.6886699795722961 0.2586452066898346 0.2960474193096161 0.46666666865348816 0.47843137383461 0.4431372582912445
0.8258620500564575 0.21111637353897095 0.991304337978363 0.3294117748737335 0.29411765933036804 0.2666666805744171
0.6980295777320862 0.25469762086868286 0.007509881630539894 0.3843137323856354 0.38823530077934265 0.35686275362968445
0.7655172348022461 0.1841149479150772 0.006719367578625679 0.5882353186607361 0.5921568870544434 0.529411792755127
0.7539408802986145 0.18758882582187653 0.006719367578625679 0.6235294342041016 0.6431372761726379 0.5568627715110779
0.6497536897659302 0.2213800698518753 0.2592885494232178 0.09803921729326248 0.10196078568696976 0.08235294371843338
0.7645320296287537 0.25390809774398804 0.0071146246045827866 0.32156863808631897 0.3137255012989044 0.23137255012989044
0.7756157517433167 0.28548872470855713 0.0071146246045827866 0.3764705955982208 0.3803921639919281 0.3176470696926117
0.6325123310089111 0.17685140669345856 0.005928853526711464 0.615686297416687 0.6431372761726379 0.6117647290229797
