0.9812808036804199 0.08100426197052002 0.8770750761032104 0.5137255191802979 0.48627451062202454 0.4117647111415863
0.9832512140274048 0.17921996116638184 0.9438735246658325 0.4313725531101227 0.4000000059604645 0.3490196168422699
0.9211822748184204 0.2126954048871994 0.9889327883720398 0.40392157435417175 0.3803921639919281 0.32549020648002625
0.9539408683776855 0.1897994577884674 0.007905138656497002 0.5333333611488342 0.5137255191802979 0.43529412150382996
0.9810344576835632 0.23401232063770294 0.7952569127082825 0.6745098233222961 0.6980392336845398 0.6980392336845398
0.9502463340759277 0.15727142989635468 0.006719367578625679 0.4745098054409027 0.47058823704719543 0.38823530077934265
0.9418719410896301 0.20274750888347626 0.007509881630539894 0.4941176474094391 0.4941176474094391 0.3921568691730499
0.9820197224617004 0.23369650542736053 0.866007924079895 0.5647059082984924 0.545098066329956 0.46666666865348816
0.9785714149475098 0.17590399086475372 0.23636363446712494 0.09803921729326248 0.09803921729326248 0.09019608050584793
0.9768472909927368 0.1839570552110672 0.37154150009155273 0.7137255072593689 0.7372549176216125 0.6901960968971252
0.9820197224617004 0.13421759009361267 0.9067193865776062 0.47843137383461 0.45490196347236633 0.3686274588108063
0.9815270900726318 0.14542870223522186 0.8885375261306763 0.5058823823928833 0.48235294222831726 0.38823530077934265
0.9832512140274048 0.13105952739715576 0.843478262424469 0.10980392247438431 0.10196078568696976 0.11372549086809158
0.8684729337692261 0.16311384737491608 0.9893280863761902 0.30980393290519714 0.29411765933036804 0.250980406999588
0.9399014711380005 0.19690510630607605 0.9881423115730286 0.3294117748737335 0.3019607961177826 0.239215686917305
0.8837438225746155 0.09537344425916672 0.006719367578625679 0.4627451002597809 0.48627451062202454 0.4470588266849518
0.9763546586036682 0.18174640834331512 0.3798418939113617 0.29411765933036804 0.30980393290519714 0.3529411852359772
0.9812808036804199 0.2043265402317047 0.17035573720932007 0.7137255072593689 0.7058823704719543 0.6470588445663452
0.8743842244148254 0.11984841525554657 0.9893280863761902 0.3137255012989044 0.2862745225429535 0.2235294133424759
0.9830049276351929 0.1926417201757431 0.9383399486541748 0.4470588266849518 0.4156862795352936 0.364705890417099
0.9633004665374756 0.17400915920734406 0.9869565367698669 0.33725491166114807 0.30588236451148987 0.26274511218070984
0.9802955389022827 0.16169272363185883 0.852173924446106 0.25882354378700256 0.2705882489681244 0.2980392277240753
0.9918718934059143 0.1692720651626587 0.42885375022888184 0.1921568661928177 0.1764705926179886 0.13333334028720856
0.9820197224617004 0.12553292512893677 0.9189723134040833 0.4588235318660736 0.4313725531101227 0.3607843220233917
0.9798029661178589 0.1926417201757431 0.7632411122322083 0.615686297416687 0.6196078658103943 0.5647059082984924
0.9179803133010864 0.17953576147556305 0.007509881630539894 0.5803921818733215 0.5882353186607361 0.501960813999176
0.9376847147941589 0.11305858194828033 0.0063241105526685715 0.572549045085907 0.5882353186607361 0.529411792755127
0.9793103337287903 0.2128533124923706 0.7245059013366699 0.7450980544090271 0.7568627595901489 0.7764706015586853
0.9539408683776855 0.2216958850622177 0.9877470135688782 0.3686274588108063 0.34117648005485535 0.30980393290519714
0.9847290515899658 0.17116689682006836 0.4272727370262146 0.4117647111415863 0.38823530077934265 0.34117648005485535
0.982758641242981 0.17464077472686768 0.104347825050354 0.05882352963089943 0.07450980693101883 0.0784313753247261
0.9810344576835632 0.20006315410137177 0.40909090638160706 0.7529411911964417 0.7490196228027344 0.729411780834198
0.9199507236480713 0.16279804706573486 0.9881423115730286 0.3333333432674408 0.3019607961177826 0.25882354378700256
0.9810344576835632 0.22295910120010376 0.3027667999267578 0.5647059082984924 0.5372549295425415 0.49803921580314636
0.9556650519371033 0.20748460292816162 0.007509881630539894 0.4470588266849518 0.4431372582912445 0.364705890417099
0.9768472909927368 0.21901153028011322 0.5308300256729126 0.7254902124404907 0.7411764860153198 0.7529411911964417
0.9817733764648438 0.22201168537139893 0.8351778388023376 0.5843137502670288 0.572549045085907 0.5058823823928833
0.9783251285552979 0.18206220865249634 0.7122529745101929 0.545098066329956 0.5647059082984924 0.5372549295425415
0.8879310488700867 0.12332227826118469 0.9889327883720398 0.3176470696926117 0.2862745225429535 0.23529411852359772
0.9640393853187561 0.1694299727678299 0.007509881630539894 0.5568627715110779 0.545098066329956 0.48627451062202454
0.9894088506698608 0.17100900411605835 0.2347826063632965 0.0784313753247261 0.08627451211214066 0.07450980693101883
0.9812808036804199 0.21948523819446564 0.7948616743087769 0.7137255072593689 0.7215686440467834 0.7176470756530762
0.9820197224617004 0.16453497111797333 0.9292489886283875 0.45098039507865906 0.41960784792900085 0.3764705955982208
0.9807881712913513 0.19943155348300934 0.260474294424057 0.7647058963775635 0.7568627595901489 0.7098039388656616
0.9798029661178589 0.19137848913669586 0.5446640253067017 0.6823529601097107 0.686274528503418 0.6549019813537598
0.9283251166343689 0.19090478122234344 0.9881423115730286 0.3529411852359772 0.32156863808631897 0.2705882489681244
0.9041872024536133 0.0805305540561676 0.006719367578625679 0.4431372582912445 0.4470588266849518 0.3764705955982208
0.9817733764648438 0.21648508310317993 0.8470355868339539 0.5764706134796143 0.5686274766921997 0.48627451062202454
0.9098522067070007 0.13895468413829803 0.0063241105526685715 0.5843137502670288 0.6039215922355652 0.5254902243614197
0.9785714149475098 0.18727301061153412 0.47588932514190674 0.7490196228027344 0.7529411911964417 0.6980392336845398
0.9820197224617004 0.11463761329650879 0.9509881138801575 0.3960784375667572 0.37254902720451355 0.2862745225429535
0.9802955389022827 0.19437864422798157 0.5758893489837646 0.6117647290229797 0.6509804129600525 0.6470588445663452
0.9802955389022827 0.19943155348300934 0.7747035622596741 0.6196078658103943 0.6117647290229797 0.5607843399047852
0.9931034445762634 0.1694299727678299 0.33162054419517517 0.26274511218070984 0.21960784494876862 0.19607843458652496
0.9578817486763 0.08416232466697693 0.0063241105526685715 0.5960784554481506 0.6000000238418579 0.545098066329956
0.9793103337287903 0.20906363427639008 0.4644268751144409 0.7019608020782471 0.7058823704719543 0.6745098233222961
0.9812808036804199 0.22216959297657013 0.260869562625885 0.7568627595901489 0.7450980544090271 0.7176470756530762
0.9763546586036682 0.1781146377325058 0.6288537383079529 0.1764705926179886 0.1882352977991104 0.2078431397676468
0.8743842244148254 0.1206379309296608 0.9893280863761902 0.3137255012989044 0.2823529541492462 0.23137255012989044
0.8967980146408081 0.18300963938236237 0.0071146246045827866 0.5803921818733215 0.572549045085907 0.48235294222831726
0.9802955389022827 0.1869572103023529 0.16442687809467316 0.7333333492279053 0.7254902124404907 0.6352941393852234
0.9802955389022827 0.1980104148387909 0.3233201503753662 0.7764706015586853 0.7686274647712708 0.7215686440467834
0.9770935773849487 0.18474656343460083 0.5830039381980896 0.7372549176216125 0.7411764860153198 0.686274528503418
0.9768472909927368 0.22769619524478912 0.544268786907196 0.7137255072593689 0.7450980544090271 0.7529411911964417
0.9022167325019836 0.09932101517915726 0.9881423115730286 0.2862745225429535 0.25882354378700256 0.19607843458652496
0.9780788421630859 0.21443234384059906 0.5541502237319946 0.7137255072593689 0.729411780834198 0.7333333492279053
0.9766010046005249 0.23511764407157898 0.469565212726593 0.7254902124404907 0.7411764860153198 0.7450980544090271
0.9810344576835632 0.20353703200817108 0.2553359568119049 0.7529411911964417 0.7450980544090271 0.6980392336845398
0.8645319938659668 0.22043265402317047 0.006719367578625679 0.43529412150382996 0.4431372582912445 0.35686275362968445
0.9337438344955444 0.23448602855205536 0.9889327883720398 0.3607843220233917 0.3450980484485626 0.2980392277240753
0.9916256070137024 0.17164061963558197 0.5893280506134033 0.14901961386203766 0.13333334028720856 0.12941177189350128
0.9790640473365784 0.2101689577102661 0.5936759114265442 0.6196078658103943 0.6392157077789307 0.6509804129600525
0.9798029661178589 0.20795831084251404 0.5841897130012512 0.7490196228027344 0.7647058963775635 0.7607843279838562
0.9352216720581055 0.09537344425916672 0.9873517751693726 0.3294117748737335 0.3019607961177826 0.23137255012989044
0.9798029661178589 0.18348334729671478 0.18379446864128113 0.6470588445663452 0.6509804129600525 0.6196078658103943
0.9793103337287903 0.18222011625766754 0.2031620591878891 0.21568627655506134 0.21960784494876862 0.20000000298023224
0.9384236335754395 0.0890573188662529 0.006719367578625679 0.529411792755127 0.545098066329956 0.4901960790157318
0.9522167444229126 0.11274277418851852 0.9865612387657166 0.2980392277240753 0.2705882489681244 0.20000000298023224
0.9770935773849487 0.18316753208637238 0.4948616623878479 0.7529411911964417 0.7882353067398071 0.7215686440467834
0.867241382598877 0.13074372708797455 0.006719367578625679 0.5921568870544434 0.6000000238418579 0.5176470875740051
0.9534482955932617 0.16232433915138245 0.0071146246045827866 0.572549045085907 0.5686274766921997 0.48627451062202454
0.9780788421630859 0.21348491311073303 0.48695650696754456 0.6509804129600525 0.6705882549285889 0.6470588445663452
0.8960590958595276 0.2273803949356079 0.0071146246045827866 0.48627451062202454 0.48235294222831726 0.40392157435417175
0.9817733764648438 0.2324332892894745 0.2395256906747818 0.7450980544090271 0.7372549176216125 0.6901960968971252
0.9825122952461243 0.21964314579963684 0.9154150485992432 0.4901960790157318 0.4745098054409027 0.3764705955982208
0.9770935773849487 0.18190431594848633 0.054940711706876755 0.125490203499794 0.13725490868091583 0.10980392247438431
0.9820197224617004 0.16548238694667816 0.9359683990478516 0.43921568989753723 0.40784314274787903 0.35686275362968445
0.8743842244148254 0.1814306080341339 0.9897233247756958 0.35686275362968445 0.3294117748737335 0.29019609093666077
0.9820197224617004 0.23432812094688416 0.8415019512176514 0.5803921818733215 0.5764706134796143 0.49803921580314636
0.9002463221549988 0.17037738859653473 0.0071146246045827866 0.5254902243614197 0.5215686559677124 0.4431372582912445
0.9206896424293518 0.1405337154865265 0.005928853526711464 0.529411792755127 0.545098066329956 0.47843137383461
0.9800492525100708 0.17985157668590546 0.8059288263320923 0.4470588266849518 0.4588235318660736 0.4941176474094391
0.9704433679580688 0.18600979447364807 0.9869565367698669 0.34117648005485535 0.30980393290519714 0.2666666805744171
0.9933497309684753 0.17353545129299164 0.7071146368980408 0.09803921729326248 0.10196078568696976 0.12156862765550613
0.8756157755851746 0.13184905052185059 0.9893280863761902 0.3137255012989044 0.2823529541492462 0.239215686917305
0.9825122952461243 0.21111637353897095 0.8909090757369995 0.529411792755127 0.5098039507865906 0.43529412150382996
0.9288177490234375 0.16500867903232574 0.0071146246045827866 0.5333333611488342 0.5333333611488342 0.43921568989753723
0.990394115447998 0.1722722202539444 0.7747035622596741 0.21568627655506134 0.22745098173618317 0.2862745225429535
0.949999988079071 0.15727142989635468 0.006719367578625679 0.48235294222831726 0.47843137383461 0.3960784375667572
0.9931034445762634 0.1722722202539444 0.6031620502471924 0.08235294371843338 0.08627451211214066 0.06666667014360428
0.9583743810653687 0.11337438970804214 0.9865612387657166 0.29411765933036804 0.2666666805744171 0.20392157137393951
0.9221674799919128 0.155376598238945 0.9877470135688782 0.3333333432674408 0.3019607961177826 0.25882354378700256
0.9610837697982788 0.16500867903232574 0.9869565367698669 0.3019607961177826 0.2705882489681244 0.21960784494876862
0.9514778256416321 0.17590399086475372 0.9873517751693726 0.3490196168422699 0.3176470696926117 0.27450981736183167
0.8793103694915771 0.10690036416053772 0.9889327883720398 0.2980392277240753 0.2705882489681244 0.2078431397676468
0.9780788421630859 0.21885362267494202 0.6648221611976624 0.6784313917160034 0.7098039388656616 0.7215686440467834
0.8869457840919495 0.23117005825042725 0.0071146246045827866 0.43529412150382996 0.4431372582912445 0.3490196168422699
0.9041872024536133 0.1346912980079651 0.0063241105526685715 0.5372549295425415 0.5529412031173706 0.49803921580314636
0.9871920943260193 0.17400915920734406 0.738339900970459 0.12941177189350128 0.11372549086809158 0.16862745583057404
0.9830049276351929 0.19485236704349518 0.9205533862113953 0.48235294222831726 0.45098039507865906 0.40784314274787903
0.8625615835189819 0.17937786877155304 0.9901185631752014 0.33725491166114807 0.30980393290519714 0.2705882489681244
0.9798029661178589 0.19911573827266693 0.08458498120307922 0.7098039388656616 0.7019608020782471 0.6039215922355652
0.9817733764648438 0.22185377776622772 0.8201581239700317 0.5960784554481506 0.6000000238418579 0.529411792755127
0.9793103337287903 0.23132796585559845 0.7225296497344971 0.6549019813537598 0.6666666865348816 0.686274528503418
0.9448275566101074 0.1725880354642868 0.9873517751693726 0.3529411852359772 0.32156863808631897 0.27843138575553894
0.9815270900726318 0.22769619524478912 0.24308300018310547 0.7411764860153198 0.7333333492279053 0.686274528503418
0.9179803133010864 0.17953576147556305 0.007509881630539894 0.5803921818733215 0.5882353186607361 0.501960813999176
0.9640393853187561 0.18016737699508667 0.9869565367698669 0.32549020648002625 0.29411765933036804 0.250980406999588
0.9825122952461243 0.18743091821670532 0.8885375261306763 0.5254902243614197 0.501960813999176 0.4470588266849518
0.9226601123809814 0.16706141829490662 0.9881423115730286 0.3333333432674408 0.3019607961177826 0.25882354378700256
0.9844827651977539 0.16706141829490662 0.8438735008239746 0.08235294371843338 0.08235294371843338 0.09019608050584793
0.9790640473365784 0.19185219705104828 0.0731225311756134 0.729411780834198 0.7333333492279053 0.6117647290229797
0.94852215051651 0.19927364587783813 0.007509881630539894 0.4627451002597809 0.45490196347236633 0.37254902720451355
0.8682265877723694 0.11226906627416611 0.9893280863761902 0.3137255012989044 0.2823529541492462 0.239215686917305
0.9145320057868958 0.08953102678060532 0.9877470135688782 0.3333333432674408 0.30588236451148987 0.23529411852359772
0.9798029661178589 0.19911573827266693 0.08458498120307922 0.7098039388656616 0.7019608020782471 0.6039215922355652
0.9261083602905273 0.10816358774900436 0.9873517751693726 0.34117648005485535 0.30588236451148987 0.24705882370471954
0.9431034326553345 0.21474814414978027 0.9881423115730286 0.30980393290519714 0.2862745225429535 0.23137255012989044
0.9820197224617004 0.23511764407157898 0.8474308252334595 0.5803921818733215 0.5686274766921997 0.4941176474094391
0.9770935773849487 0.23322279751300812 0.42924901843070984 0.729411780834198 0.7529411911964417 0.7529411911964417
0.9751231670379639 0.08953102678060532 0.9857707619667053 0.32549020648002625 0.29411765933036804 0.21960784494876862
0.9793103337287903 0.19011527299880981 0.54347825050354 0.7450980544090271 0.7450980544090271 0.7058823704719543
0.9576354622840881 0.11984841525554657 0.9865612387657166 0.30980393290519714 0.2823529541492462 0.21960784494876862
0.9805418848991394 0.20258961617946625 0.39328062534332275 0.7450980544090271 0.7490196228027344 0.7254902124404907
0.875123143196106 0.16800884902477264 0.0071146246045827866 0.658823549747467 0.6627451181411743 0.5921568870544434
0.9788177609443665 0.22485393285751343 0.7011857628822327 0.6627451181411743 0.6823529601097107 0.6941176652908325
0.8822659850120544 0.09174167364835739 0.006719367578625679 0.5647059082984924 0.5647059082984924 0.5254902243614197
0.9825122952461243 0.14290225505828857 0.9383399486541748 0.4313725531101227 0.3960784375667572 0.33725491166114807
0.9832512140274048 0.11132165044546127 0.8679841756820679 0.16862745583057404 0.15294118225574493 0.11764705926179886
0.9866995215415955 0.07910943031311035 0.8399209380149841 0.07058823853731155 0.0784313753247261 0.06666667014360428
0.9770935773849487 0.18869413435459137 0.046640317887067795 0.3490196168422699 0.3294117748737335 0.2549019753932953
0.9810344576835632 0.21316911280155182 0.7869565486907959 0.7333333492279053 0.7490196228027344 0.7529411911964417
0.982758641242981 0.10816358774900436 0.8778656125068665 0.5058823823928833 0.49803921580314636 0.4000000059604645
0.9509851932525635 0.10421600937843323 0.9865612387657166 0.3137255012989044 0.2862745225429535 0.21568627655506134
0.9832512140274048 0.18522027134895325 0.9770750999450684 0.3529411852359772 0.32156863808631897 0.2705882489681244
0.9773399233818054 0.23464392125606537 0.3857707381248474 0.7215686440467834 0.7568627595901489 0.7529411911964417
0.9857142567634583 0.1751144826412201 0.07154150307178497 0.05882352963089943 0.06666667014360428 0.062745101749897
0.8817734122276306 0.08163587749004364 0.9889327883720398 0.3333333432674408 0.29411765933036804 0.24705882370471954
0.9394088387489319 0.1691141575574875 0.9873517751693726 0.37254902720451355 0.34117648005485535 0.29019609093666077
0.979556679725647 0.20353703200817108 0.6320158243179321 0.5411764979362488 0.5372549295425415 0.4588235318660736
0.865517258644104 0.10721617192029953 0.006719367578625679 0.529411792755127 0.5333333611488342 0.47843137383461
0.9571428298950195 0.22848570346832275 0.9877470135688782 0.35686275362968445 0.32549020648002625 0.27450981736183167
0.9800492525100708 0.21695879101753235 0.08142292499542236 0.6901960968971252 0.6823529601097107 0.6000000238418579
0.9798029661178589 0.1781146377325058 0.11106719076633453 0.08627451211214066 0.08627451211214066 0.08627451211214066
0.8783251047134399 0.09663666784763336 0.006719367578625679 0.545098066329956 0.5372549295425415 0.43921568989753723
0.8950738906860352 0.13642823696136475 0.9885375499725342 0.3137255012989044 0.2823529541492462 0.239215686917305
0.9798029661178589 0.1261645406484604 0.005138339940458536 0.5372549295425415 0.5490196347236633 0.4745098054409027
0.8977832794189453 0.11432180553674698 0.006719367578625679 0.572549045085907 0.5647059082984924 0.5058823823928833
0.8815270662307739 0.14763934910297394 0.9889327883720398 0.3333333432674408 0.3019607961177826 0.25882354378700256
0.8864532113075256 0.132322758436203 0.9889327883720398 0.3333333432674408 0.30588236451148987 0.24313725531101227
0.9802955389022827 0.19374704360961914 0.4268774688243866 0.7529411911964417 0.7529411911964417 0.7137255072593689
0.8756157755851746 0.20258961617946625 0.0071146246045827866 0.5686274766921997 0.5803921818733215 0.5137255191802979
0.9825122952461243 0.08447813242673874 0.9039525985717773 0.48627451062202454 0.4627451002597809 0.3764705955982208
0.9822660088539124 0.09268908947706223 0.9379446506500244 0.4313725531101227 0.40784314274787903 0.32156863808631897
0.883004903793335 0.13437549769878387 0.9889327883720398 0.32549020648002625 0.2980392277240753 0.23529411852359772
0.9820197224617004 0.13263855874538422 0.9110671877861023 0.47058823704719543 0.4431372582912445 0.3686274588108063
0.9475369453430176 0.13058581948280334 0.9869565367698669 0.3333333432674408 0.3019607961177826 0.250980406999588
0.9832512140274048 0.1812727004289627 0.9632411003112793 0.38823530077934265 0.3490196168422699 0.3019607961177826
0.9802955389022827 0.22974893450737 0.7545454502105713 0.6039215922355652 0.6235294342041016 0.6352941393852234
0.9832512140274048 0.18048317730426788 0.9857707619667053 0.32549020648002625 0.2980392277240753 0.23529411852359772
0.940640389919281 0.18553608655929565 0.007509881630539894 0.41960784792900085 0.4000000059604645 0.32156863808631897
0.9810344576835632 0.22943313419818878 0.7893280386924744 0.6823529601097107 0.7058823704719543 0.6980392336845398
0.9820197224617004 0.155376598238945 0.9177865386009216 0.46666666865348816 0.43921568989753723 0.3686274588108063
0.9766010046005249 0.18269382417201996 0.3695652186870575 0.772549033164978 0.7960784435272217 0.7882353067398071
0.9443349838256836 0.17290383577346802 0.007509881630539894 0.5137255191802979 0.5098039507865906 0.4313725531101227
0.9849753975868225 0.17448286712169647 0.6201580762863159 0.07450980693101883 0.07450980693101883 0.07450980693101883
0.9123152494430542 0.15000788867473602 0.005928853526711464 0.5529412031173706 0.5647059082984924 0.4901960790157318
0.9805418848991394 0.22848570346832275 0.7679842114448547 0.6235294342041016 0.6431372761726379 0.658823549747467
0.9369457960128784 0.11842728406190872 0.0063241105526685715 0.5411764979362488 0.5372549295425415 0.45490196347236633
0.9002463221549988 0.1147955134510994 0.9885375499725342 0.3137255012989044 0.2862745225429535 0.2235294133424759
0.9753694534301758 0.17858834564685822 0.5446640253067017 0.1764705926179886 0.18039216101169586 0.1882352977991104
0.9908866882324219 0.17464077472686768 0.6893280744552612 0.10196078568696976 0.0941176488995552 0.09803921729326248
0.9802955389022827 0.23053844273090363 0.09090909361839294 0.6901960968971252 0.686274528503418 0.6039215922355652
0.982758641242981 0.15190273523330688 0.9545454382896423 0.4000000059604645 0.364705890417099 0.30588236451148987
0.979556679725647 0.19153639674186707 0.4379446506500244 0.7568627595901489 0.7568627595901489 0.7098039388656616
0.9933497309684753 0.1697457730770111 0.2557312250137329 0.0941176488995552 0.0784313753247261 0.07450980693101883
0.9775862097740173 0.1842728555202484 0.4750988185405731 0.7411764860153198 0.7333333492279053 0.6745098233222961
0.9785714149475098 0.2302226424217224 0.6936758756637573 0.6705882549285889 0.6901960968971252 0.7058823704719543
0.9785714149475098 0.21222169697284698 0.604347825050354 0.7215686440467834 0.7450980544090271 0.7450980544090271
0.9586206674575806 0.20195800065994263 0.007509881630539894 0.43529412150382996 0.42352941632270813 0.3490196168422699
0.9642857313156128 0.20274750888347626 0.9873517751693726 0.3294117748737335 0.3137255012989044 0.2666666805744171
0.9810344576835632 0.20353703200817108 0.24150197207927704 0.7529411911964417 0.7450980544090271 0.6980392336845398
0.99064040184021 0.17132480442523956 0.20079050958156586 0.0470588244497776 0.05098039284348488 0.0313725508749485
0.9830049276351929 0.2152218520641327 0.939130425453186 0.45098039507865906 0.4274509847164154 0.37254902720451355
0.9778324961662292 0.17653560638427734 0.23833991587162018 0.09019608050584793 0.09019608050584793 0.08235294371843338
0.9780788421630859 0.22074845433235168 0.6699604988098145 0.6901960968971252 0.7058823704719543 0.7176470756530762
0.9798029661178589 0.20795831084251404 0.6442687511444092 0.4431372582912445 0.47058823704719543 0.4431372582912445
0.9603448510169983 0.16879835724830627 0.9869565367698669 0.2862745225429535 0.2549019753932953 0.21176470816135406
0.9820197224617004 0.2330649048089981 0.8450592756271362 0.5803921818733215 0.5686274766921997 0.4941176474094391
0.9800492525100708 0.18237802386283875 0.12687747180461884 0.09019608050584793 0.09019608050584793 0.05098039284348488
0.9810344576835632 0.19911573827266693 0.3636363744735718 0.7568627595901489 0.7568627595901489 0.7254902124404907
0.8697044253349304 0.21932733058929443 0.006719367578625679 0.501960813999176 0.5098039507865906 0.4156862795352936
0.9603448510169983 0.22753828763961792 0.0071146246045827866 0.3960784375667572 0.3960784375667572 0.3490196168422699
0.9534482955932617 0.2180641144514084 0.007509881630539894 0.4588235318660736 0.4627451002597809 0.4000000059604645
0.8943349719047546 0.09553134441375732 0.9885375499725342 0.3176470696926117 0.29019609093666077 0.22745098173618317
0.979556679725647 0.08368861675262451 0.005928853526711464 0.5215686559677124 0.5098039507865906 0.45098039507865906
0.9815270900726318 0.21316911280155182 0.22806324064731598 0.7450980544090271 0.7372549176216125 0.6901960968971252
0.935960590839386 0.12253276258707047 0.9873517751693726 0.33725491166114807 0.30588236451148987 0.2549019753932953
0.8926108479499817 0.09079425036907196 0.9885375499725342 0.30588236451148987 0.27450981736183167 0.2235294133424759
0.9995073676109314 0.17148271203041077 0.7403162121772766 0.09803921729326248 0.10980392247438431 0.12941177189350128
0.9509851932525635 0.15948207676410675 0.9869565367698669 0.3176470696926117 0.29411765933036804 0.24705882370471954
0.9773399233818054 0.22816990315914154 0.31581026315689087 0.5529412031173706 0.5215686559677124 0.47843137383461
0.9798029661178589 0.19864203035831451 0.7573122382164001 0.6274510025978088 0.6196078658103943 0.572549045085907
0.9775862097740173 0.2267487794160843 0.31620553135871887 0.545098066329956 0.5176470875740051 0.47843137383461
0.9785714149475098 0.1752723753452301 0.040316205471754074 0.32549020648002625 0.3333333432674408 0.3137255012989044
0.9817733764648438 0.20022106170654297 0.58339923620224 0.6980392336845398 0.7176470756530762 0.7019608020782471
0.9825122952461243 0.1640612632036209 0.9573122262954712 0.38823530077934265 0.3607843220233917 0.2980392277240753
0.9825122952461243 0.1549028903245926 0.9442687630653381 0.41960784792900085 0.3843137323856354 0.32549020648002625
0.992118239402771 0.17464077472686768 0.6387351751327515 0.0784313753247261 0.07450980693101883 0.06666667014360428
0.9460591077804565 0.1463761180639267 0.9869565367698669 0.30980393290519714 0.27843138575553894 0.23529411852359772
0.9522167444229126 0.14590241014957428 0.005928853526711464 0.5137255191802979 0.5176470875740051 0.4470588266849518
0.9820197224617004 0.12853308022022247 0.9245059490203857 0.45098039507865906 0.42352941632270813 0.3529411852359772
0.8709359765052795 0.21680088341236115 0.0071146246045827866 0.529411792755127 0.529411792755127 0.43529412150382996
0.9184728860855103 0.1667456179857254 0.9881423115730286 0.33725491166114807 0.3019607961177826 0.2666666805744171
0.9820197224617004 0.23322279751300812 0.8984189629554749 0.529411792755127 0.5137255191802979 0.4156862795352936
0.8652709126472473 0.07926733046770096 0.9897233247756958 0.32549020648002625 0.29019609093666077 0.2235294133424759
0.8716748952865601 0.13437549769878387 0.9893280863761902 0.32549020648002625 0.29411765933036804 0.250980406999588
0.9682266116142273 0.12332227826118469 0.9861660003662109 0.2823529541492462 0.2549019753932953 0.1921568661928177
0.9775862097740173 0.22801199555397034 0.34703558683395386 0.7764706015586853 0.8078431487083435 0.8156862854957581
0.9810344576835632 0.2272224873304367 0.28814229369163513 0.6901960968971252 0.6823529601097107 0.6313725709915161
0.9793103337287903 0.1841149479150772 0.2193675935268402 0.7490196228027344 0.7529411911964417 0.6980392336845398
0.9650246500968933 0.1809568852186203 0.007905138656497002 0.5960784554481506 0.5843137502670288 0.5098039507865906
0.9120689630508423 0.19169430434703827 0.007509881630539894 0.5372549295425415 0.5215686559677124 0.4156862795352936
0.9810344576835632 0.2014842927455902 0.46561264991760254 0.7372549176216125 0.7372549176216125 0.7058823704719543
0.9317734241485596 0.08542554825544357 0.0071146246045827866 0.38823530077934265 0.38823530077934265 0.35686275362968445
0.9790640473365784 0.189325749874115 0.2956521809101105 0.772549033164978 0.7764706015586853 0.7137255072593689
0.9440886974334717 0.22880151867866516 0.9881423115730286 0.38823530077934265 0.364705890417099 0.3176470696926117
0.9778324961662292 0.18474656343460083 0.3237154185771942 0.7960784435272217 0.7882353067398071 0.729411780834198
0.9251231551170349 0.15679772198200226 0.9877470135688782 0.3450980484485626 0.3137255012989044 0.26274511218070984
0.9364532232284546 0.10247907787561417 0.006719367578625679 0.5333333611488342 0.5137255191802979 0.43921568989753723
0.9766010046005249 0.21916942298412323 0.52173912525177 0.7254902124404907 0.7411764860153198 0.7529411911964417
0.9002463221549988 0.0890573188662529 0.006719367578625679 0.4313725531101227 0.4431372582912445 0.4000000059604645
0.9802955389022827 0.1956418752670288 0.10316205769777298 0.7058823704719543 0.6980392336845398 0.6078431606292725
0.9822660088539124 0.16027159988880157 0.9363636374473572 0.43529412150382996 0.40392157435417175 0.3529411852359772
0.9807881712913513 0.18316753208637238 0.8249011635780334 0.48627451062202454 0.4901960790157318 0.4588235318660736
0.890640377998352 0.14021790027618408 0.9885375499725342 0.25882354378700256 0.23529411852359772 0.1882352977991104
0.9785714149475098 0.19295752048492432 0.7158102989196777 0.6784313917160034 0.6784313917160034 0.6392157077789307
0.9184728860855103 0.15758724510669708 0.9877470135688782 0.3490196168422699 0.3176470696926117 0.27450981736183167
0.8839901685714722 0.1724301278591156 0.9893280863761902 0.34117648005485535 0.30980393290519714 0.2666666805744171
0.9807881712913513 0.17400915920734406 0.29328063130378723 0.08627451211214066 0.07058823853731155 0.06666667014360428
0.9123152494430542 0.15000788867473602 0.005928853526711464 0.5529412031173706 0.5647059082984924 0.4901960790157318
0.9894088506698608 0.17116689682006836 0.5754940509796143 0.0941176488995552 0.0784313753247261 0.08235294371843338
0.9817733764648438 0.08400442451238632 0.9794466495513916 0.3529411852359772 0.3294117748737335 0.24313725531101227
0.982758641242981 0.20558977127075195 0.9019762873649597 0.5137255191802979 0.48627451062202454 0.42352941632270813
0.9652709364891052 0.19769461452960968 0.007509881630539894 0.5568627715110779 0.5607843399047852 0.4901960790157318
0.9068965315818787 0.23227538168430328 0.0071146246045827866 0.5098039507865906 0.5098039507865906 0.4156862795352936
0.9778324961662292 0.224222332239151 0.3553359806537628 0.7686274647712708 0.7882353067398071 0.8039215803146362
0.9820197224617004 0.23369650542736053 0.866007924079895 0.5647059082984924 0.545098066329956 0.46666666865348816
0.9216748476028442 0.15142902731895447 0.005928853526711464 0.47058823704719543 0.4901960790157318 0.4117647111415863
0.9142857193946838 0.09237328171730042 0.9877470135688782 0.32156863808631897 0.29411765933036804 0.2235294133424759
0.9770935773849487 0.17858834564685822 0.6656126379966736 0.2235294133424759 0.2549019753932953 0.2666666805744171
0.8652709126472473 0.14290225505828857 0.9893280863761902 0.29019609093666077 0.26274511218070984 0.2235294133424759
0.9741379022598267 0.18774671852588654 0.009881422854959965 0.30980393290519714 0.2862745225429535 0.23137255012989044
0.9798029661178589 0.20827412605285645 0.5596837997436523 0.7529411911964417 0.7764706015586853 0.7607843279838562
0.9807881712913513 0.19595767557621002 0.13438735902309418 0.7215686440467834 0.7098039388656616 0.6352941393852234
0.9785714149475098 0.19879993796348572 0.7110671997070312 0.6823529601097107 0.6823529601097107 0.6509804129600525
0.9551724195480347 0.1234801858663559 0.005533596966415644 0.5490196347236633 0.529411792755127 0.45098039507865906
0.9837438464164734 0.17148271203041077 0.4000000059604645 0.18431372940540314 0.15294118225574493 0.1411764770746231
0.8778325319290161 0.23038055002689362 0.0071146246045827866 0.5607843399047852 0.5568627715110779 0.4745098054409027
0.9029556512832642 0.10374230146408081 0.006719367578625679 0.5137255191802979 0.5176470875740051 0.45490196347236633
0.9334975481033325 0.17053529620170593 0.007509881630539894 0.46666666865348816 0.4745098054409027 0.38823530077934265
0.9768472909927368 0.18300963938236237 0.3632411062717438 0.7411764860153198 0.7607843279838562 0.7372549176216125
0.979556679725647 0.19090478122234344 0.6363636255264282 0.7098039388656616 0.7215686440467834 0.6470588445663452
0.9972906112670898 0.17021948099136353 0.799209475517273 0.14901961386203766 0.14901961386203766 0.18039216101169586
0.9315270781517029 0.18016737699508667 0.9881423115730286 0.3137255012989044 0.3019607961177826 0.24313725531101227
0.9554187059402466 0.22059056162834167 0.9877470135688782 0.3607843220233917 0.3333333432674408 0.29411765933036804
0.9997537136077881 0.14132322371006012 0.8415019512176514 0.08235294371843338 0.08627451211214066 0.10588235408067703
0.9798029661178589 0.19090478122234344 0.469565212726593 0.7333333492279053 0.7333333492279053 0.6941176652908325
0.866995096206665 0.1752723753452301 0.006719367578625679 0.6235294342041016 0.6117647290229797 0.5372549295425415
0.9682266116142273 0.1406916081905365 0.9865612387657166 0.21176470816135406 0.1882352977991104 0.13333334028720856
0.9817733764648438 0.11416390538215637 0.9146245121955872 0.47058823704719543 0.43921568989753723 0.35686275362968445
0.9770935773849487 0.224380224943161 0.5861660242080688 0.7176470756530762 0.7333333492279053 0.7450980544090271
0.9770935773849487 0.23085425794124603 0.31581026315689087 0.5372549295425415 0.5137255191802979 0.46666666865348816
0.867241382598877 0.19058898091316223 0.006719367578625679 0.5843137502670288 0.5960784554481506 0.5137255191802979
0.8884236216545105 0.08968893438577652 0.006719367578625679 0.5058823823928833 0.5098039507865906 0.45490196347236633
0.9810344576835632 0.20053687691688538 0.19960474967956543 0.729411780834198 0.7137255072593689 0.6666666865348816
0.9822660088539124 0.13737565279006958 0.9304347634315491 0.43921568989753723 0.4117647111415863 0.3490196168422699
0.9800492525100708 0.20732669532299042 0.5766798257827759 0.6784313917160034 0.7215686440467834 0.7058823704719543
0.929556667804718 0.11463761329650879 0.0063241105526685715 0.5843137502670288 0.6000000238418579 0.5333333611488342
0.9825122952461243 0.23622295260429382 0.16442687809467316 0.7058823704719543 0.7098039388656616 0.6470588445663452
0.9509851932525635 0.17148271203041077 0.007509881630539894 0.5882353186607361 0.5843137502670288 0.501960813999176
0.8977832794189453 0.20258961617946625 0.9893280863761902 0.35686275362968445 0.32549020648002625 0.2823529541492462
0.9778324961662292 0.21459023654460907 0.49802371859550476 0.7333333492279053 0.7450980544090271 0.7647058963775635
0.9709359407424927 0.17669351398944855 0.007905138656497002 0.5333333611488342 0.5137255191802979 0.4274509847164154
0.9258620738983154 0.18443076312541962 0.007509881630539894 0.47058823704719543 0.49803921580314636 0.4274509847164154
0.9815270900726318 0.1635875552892685 0.9063240885734558 0.4941176474094391 0.46666666865348816 0.3921568691730499
0.9697044491767883 0.21159008145332336 0.9873517751693726 0.34117648005485535 0.32549020648002625 0.27843138575553894
0.9918718934059143 0.09647876024246216 0.8418972492218018 0.0784313753247261 0.08235294371843338 0.09019608050584793
0.9830049276351929 0.2158534675836563 0.9367588758468628 0.4588235318660736 0.4274509847164154 0.3764705955982208
0.8967980146408081 0.18300963938236237 0.0071146246045827866 0.5803921818733215 0.572549045085907 0.48235294222831726
0.9775862097740173 0.1007421463727951 0.005533596966415644 0.658823549747467 0.7019608020782471 0.6352941393852234
0.9778324961662292 0.1814306080341339 0.28418973088264465 0.1411764770746231 0.14901961386203766 0.20000000298023224
0.9637930989265442 0.1438496708869934 0.9865612387657166 0.29019609093666077 0.25882354378700256 0.2078431397676468
0.987438440322876 0.17464077472686768 0.030830038711428642 0.06666667014360428 0.07450980693101883 0.07058823853731155
0.9793103337287903 0.17479866743087769 0.8059288263320923 0.2549019753932953 0.25882354378700256 0.27843138575553894
0.8785714507102966 0.14874467253684998 0.9889327883720398 0.3176470696926117 0.2862745225429535 0.24313725531101227
0.9753694534301758 0.1866413950920105 0.02806324139237404 0.21960784494876862 0.18039216101169586 0.13333334028720856
0.9810344576835632 0.2008526772260666 0.42529645562171936 0.7450980544090271 0.7450980544090271 0.7058823704719543
0.8977832794189453 0.09647876024246216 0.9885375499725342 0.3137255012989044 0.2862745225429535 0.2235294133424759
0.9763546586036682 0.21316911280155182 0.9869565367698669 0.3333333432674408 0.3333333432674408 0.29411765933036804
0.9625615477561951 0.19185219705104828 0.007905138656497002 0.4274509847164154 0.43529412150382996 0.3529411852359772
0.990394115447998 0.1692720651626587 0.499604731798172 0.09019608050584793 0.08627451211214066 0.0784313753247261
0.9775862097740173 0.2355913519859314 0.6407114863395691 0.7098039388656616 0.7137255072593689 0.729411780834198
0.8783251047134399 0.10768987983465195 0.9893280863761902 0.3137255012989044 0.29019609093666077 0.22745098173618317
0.9761083722114563 0.17764092981815338 0.35138338804244995 0.125490203499794 0.10980392247438431 0.11372549086809158
0.9815270900726318 0.22327491641044617 0.8094861507415771 0.6705882549285889 0.6823529601097107 0.6549019813537598
0.9160098433494568 0.22832781076431274 0.9893280863761902 0.3686274588108063 0.35686275362968445 0.29019609093666077
0.9775862097740173 0.18016737699508667 0.6833992004394531 0.24313725531101227 0.27450981736183167 0.2823529541492462
0.9027093648910522 0.18537817895412445 0.9889327883720398 0.34117648005485535 0.3137255012989044 0.27450981736183167
0.8679803013801575 0.20574766397476196 0.006719367578625679 0.5058823823928833 0.501960813999176 0.42352941632270813
0.9369457960128784 0.08889941871166229 0.006719367578625679 0.47843137383461 0.4941176474094391 0.43921568989753723
0.9100984930992126 0.11463761329650879 0.9881423115730286 0.3490196168422699 0.32156863808631897 0.250980406999588
0.9810344576835632 0.20022106170654297 0.1355731189250946 0.7176470756530762 0.7098039388656616 0.6196078658103943
0.9800492525100708 0.20495815575122833 0.5126482248306274 0.7098039388656616 0.7176470756530762 0.6313725709915161
0.9778324961662292 0.21727459132671356 0.6446640491485596 0.6823529601097107 0.7176470756530762 0.7058823704719543
0.8849753737449646 0.18253591656684875 0.0071146246045827866 0.5960784554481506 0.5882353186607361 0.5058823823928833
0.9820197224617004 0.1549028903245926 0.9146245121955872 0.47058823704719543 0.4431372582912445 0.37254902720451355
0.9812808036804199 0.2240644246339798 0.26798418164253235 0.7607843279838562 0.7490196228027344 0.7137255072593689
0.9798029661178589 0.20732669532299042 0.43557313084602356 0.7411764860153198 0.7490196228027344 0.7058823704719543
0.9773399233818054 0.21648508310317993 0.5063241124153137 0.7254902124404907 0.7490196228027344 0.7490196228027344
0.9820197224617004 0.13737565279006958 0.896442711353302 0.49803921580314636 0.4745098054409027 0.3803921639919281
0.926600992679596 0.21980103850364685 0.0071146246045827866 0.4745098054409027 0.48235294222831726 0.3960784375667572
0.8894088864326477 0.11526922136545181 0.006719367578625679 0.5137255191802979 0.5333333611488342 0.5058823823928833
0.9812808036804199 0.21159008145332336 0.8015810251235962 0.7843137383460999 0.7921568751335144 0.7803921699523926
0.9807881712913513 0.2295910269021988 0.10158102959394455 0.615686297416687 0.6235294342041016 0.5686274766921997
0.9798029661178589 0.17764092981815338 0.09525691717863083 0.0784313753247261 0.07058823853731155 0.08235294371843338
0.9433497786521912 0.20527395606040955 0.9881423115730286 0.34117648005485535 0.30980393290519714 0.2666666805744171
0.9820197224617004 0.10168956220149994 0.926877498626709 0.45490196347236633 0.42352941632270813 0.34117648005485535
0.9477832317352295 0.15727142989635468 0.006719367578625679 0.5607843399047852 0.5686274766921997 0.48235294222831726
0.9184728860855103 0.23164376616477966 0.9893280863761902 0.3607843220233917 0.33725491166114807 0.2823529541492462
0.9918718934059143 0.1694299727678299 0.40909090638160706 0.16470588743686676 0.13725490868091583 0.10588235408067703
0.9830049276351929 0.17306174337863922 0.5268774628639221 0.09803921729326248 0.0941176488995552 0.08627451211214066
0.9460591077804565 0.0833728089928627 0.006719367578625679 0.5411764979362488 0.5529412031173706 0.48627451062202454
0.9773399233818054 0.18569397926330566 0.3691699504852295 0.7490196228027344 0.7568627595901489 0.7058823704719543
0.9802955389022827 0.22753828763961792 0.09130434691905975 0.6941176652908325 0.6901960968971252 0.6117647290229797
0.9807881712913513 0.20258961617946625 0.45652174949645996 0.7372549176216125 0.7372549176216125 0.7058823704719543
0.9699507355690002 0.21616926789283752 0.007509881630539894 0.3490196168422699 0.33725491166114807 0.26274511218070984
0.9793103337287903 0.1812727004289627 0.7671936750411987 0.32549020648002625 0.3607843220233917 0.38823530077934265
0.979556679725647 0.17732512950897217 0.1296442747116089 0.08627451211214066 0.08235294371843338 0.07450980693101883
0.8940886855125427 0.1151113212108612 0.006719367578625679 0.5176470875740051 0.5254902243614197 0.47058823704719543
0.9817733764648438 0.12316437810659409 0.9039525985717773 0.48235294222831726 0.45098039507865906 0.3686274588108063
0.9160098433494568 0.137849360704422 0.0063241105526685715 0.5647059082984924 0.5764706134796143 0.5098039507865906
0.9812808036804199 0.20590557157993317 0.1928853690624237 0.7254902124404907 0.7176470756530762 0.6666666865348816
0.9854679703712463 0.08400442451238632 0.8399209380149841 0.07450980693101883 0.07450980693101883 0.07450980693101883
0.881280779838562 0.11842728406190872 0.006719367578625679 0.5176470875740051 0.529411792755127 0.501960813999176
0.9780788421630859 0.17606189846992493 0.34664031863212585 0.10588235408067703 0.10588235408067703 0.10588235408067703
0.9793103337287903 0.19927364587783813 0.7379446625709534 0.6431372761726379 0.6509804129600525 0.6000000238418579
0.9812808036804199 0.206852987408638 0.13399209082126617 0.7137255072593689 0.7019608020782471 0.6274510025978088
0.9810344576835632 0.21143217384815216 0.1197628453373909 0.7098039388656616 0.7019608020782471 0.6196078658103943
0.9783251285552979 0.21474814414978027 0.425691694021225 0.7372549176216125 0.7568627595901489 0.772549033164978
0.8805418610572815 0.11447971314191818 0.9889327883720398 0.3019607961177826 0.2705882489681244 0.21960784494876862
0.9684728980064392 0.11053213477134705 0.9861660003662109 0.2862745225429535 0.2666666805744171 0.1921568661928177
0.898522138595581 0.08810990303754807 0.9885375499725342 0.3176470696926117 0.29019609093666077 0.22745098173618317
0.923399031162262 0.1290067881345749 0.9877470135688782 0.33725491166114807 0.30980393290519714 0.24705882370471954
0.9807881712913513 0.21695879101753235 0.30948618054389954 0.5490196347236633 0.5372549295425415 0.5098039507865906
0.9798029661178589 0.1749565750360489 0.8260869383811951 0.3294117748737335 0.3294117748737335 0.3607843220233917
0.9770935773849487 0.22753828763961792 0.5770751237869263 0.7176470756530762 0.7372549176216125 0.7490196228027344
0.9817733764648438 0.22485393285751343 0.13636364042758942 0.6941176652908325 0.7058823704719543 0.6392157077789307
0.9773399233818054 0.22643296420574188 0.3948616683483124 0.729411780834198 0.7490196228027344 0.7647058963775635
0.9029556512832642 0.15269224345684052 0.005928853526711464 0.49803921580314636 0.5058823823928833 0.42352941632270813
0.9426108598709106 0.19027316570281982 0.9877470135688782 0.3529411852359772 0.32156863808631897 0.2705882489681244
0.8881773352622986 0.12221696227788925 0.9889327883720398 0.32156863808631897 0.29019609093666077 0.239215686917305
0.9721674919128418 0.23164376616477966 0.9873517751693726 0.3294117748737335 0.3137255012989044 0.2666666805744171
0.9770935773849487 0.18253591656684875 0.4430830180644989 0.7607843279838562 0.7764706015586853 0.772549033164978
0.8699507117271423 0.1263224333524704 0.006719367578625679 0.6235294342041016 0.6392157077789307 0.572549045085907
0.9822660088539124 0.23464392125606537 0.18577075004577637 0.7058823704719543 0.7098039388656616 0.6549019813537598
0.9995073676109314 0.08432022482156754 0.842687726020813 0.06666667014360428 0.07450980693101883 0.07058823853731155
0.9812808036804199 0.19690510630607605 0.5553359389305115 0.7450980544090271 0.7803921699523926 0.7764706015586853
0.9593595862388611 0.1149534210562706 0.9865612387657166 0.30588236451148987 0.27843138575553894 0.21568627655506134
0.984236478805542 0.11100584268569946 0.8501976132392883 0.16470588743686676 0.16078431904315948 0.15294118225574493
0.9807881712913513 0.15695562958717346 0.87312251329422 0.529411792755127 0.5058823823928833 0.4117647111415863
0.9817733764648438 0.18490447103977203 0.8743082880973816 0.5607843399047852 0.529411792755127 0.47843137383461
0.9029556512832642 0.12742775678634644 0.9881423115730286 0.34117648005485535 0.30588236451148987 0.24705882370471954
0.947044312953949 0.1841149479150772 0.007905138656497002 0.47058823704719543 0.4627451002597809 0.40392157435417175
0.9822660088539124 0.17369335889816284 0.5628458261489868 0.07058823853731155 0.06666667014360428 0.05098039284348488
0.9140394330024719 0.1462182253599167 0.9881423115730286 0.3294117748737335 0.30588236451148987 0.250980406999588
0.8933497667312622 0.10863729566335678 0.9885375499725342 0.3019607961177826 0.27843138575553894 0.21568627655506134
0.8699507117271423 0.178272545337677 0.006719367578625679 0.615686297416687 0.6117647290229797 0.5411764979362488
0.8684729337692261 0.21395863592624664 0.006719367578625679 0.6823529601097107 0.6823529601097107 0.5882353186607361
0.9810344576835632 0.20858992636203766 0.11739130318164825 0.7176470756530762 0.6980392336845398 0.6196078658103943
0.9852216839790344 0.17069318890571594 0.3426877558231354 0.3921568691730499 0.3450980484485626 0.2823529541492462
0.9357143044471741 0.21648508310317993 0.9885375499725342 0.3450980484485626 0.32156863808631897 0.27450981736183167
0.9100984930992126 0.23385441303253174 0.0071146246045827866 0.4274509847164154 0.4274509847164154 0.32549020648002625
0.982758641242981 0.1492183804512024 0.9541501998901367 0.4000000059604645 0.37254902720451355 0.30980393290519714
0.9810344576835632 0.17621980607509613 0.8727272748947144 0.5411764979362488 0.5215686559677124 0.4470588266849518
0.8642857074737549 0.21916942298412323 0.9905138611793518 0.32549020648002625 0.3019607961177826 0.2549019753932953
0.9812808036804199 0.23164376616477966 0.27984189987182617 0.7372549176216125 0.729411780834198 0.6823529601097107
0.9322659969329834 0.15758724510669708 0.9873517751693726 0.3294117748737335 0.2980392277240753 0.2549019753932953
0.9805418848991394 0.2065371870994568 0.7798418998718262 0.6078431606292725 0.6000000238418579 0.5411764979362488
0.9815270900726318 0.21143217384815216 0.23754940927028656 0.7490196228027344 0.7411764860153198 0.6941176652908325
0.9152709245681763 0.18869413435459137 0.9885375499725342 0.35686275362968445 0.32156863808631897 0.2862745225429535
0.9807881712913513 0.19674719870090485 0.2296442687511444 0.7411764860153198 0.7333333492279053 0.6823529601097107
0.8965517282485962 0.2071688026189804 0.0071146246045827866 0.5647059082984924 0.5607843399047852 0.4901960790157318
0.9844827651977539 0.17085109651088715 0.36126482486724854 0.3921568691730499 0.3686274588108063 0.3137255012989044
0.9783251285552979 0.2125374972820282 0.6102766990661621 0.7333333492279053 0.7490196228027344 0.7450980544090271
0.9027093648910522 0.13579662144184113 0.9881423115730286 0.33725491166114807 0.2980392277240753 0.250980406999588
0.9167487621307373 0.2041686475276947 0.9889327883720398 0.3764705955982208 0.3490196168422699 0.30980393290519714
0.9349753856658936 0.14148113131523132 0.9873517751693726 0.30588236451148987 0.27450981736183167 0.2235294133424759
0.9830049276351929 0.17369335889816284 0.9474308490753174 0.41960784792900085 0.38823530077934265 0.33725491166114807
0.9793103337287903 0.18174640834331512 0.7604743242263794 0.3490196168422699 0.3607843220233917 0.3176470696926117
