0.9834975600242615 0.299699991941452 0.9474308490753174 0.4431372582912445 0.4156862795352936 0.3529411852359772
0.979556679725647 0.19453655183315277 0.7454545497894287 0.6352941393852234 0.6392157077789307 0.5843137502670288
0.9810344576835632 0.18727301061153412 0.8166007995605469 0.6039215922355652 0.5803921818733215 0.5254902243614197
0.9788177609443665 0.3023843467235565 0.7264822125434875 0.6352941393852234 0.6470588445663452 0.6666666865348816
0.9899014830589294 0.1724301278591156 0.7723320126533508 0.2078431397676468 0.1921568661928177 0.19607843458652496
0.9766010046005249 0.21916942298412323 0.5146244764328003 0.7254902124404907 0.7490196228027344 0.7490196228027344
0.982758641242981 0.28880468010902405 0.8790513873100281 0.5568627715110779 0.5254902243614197 0.45098039507865906
0.9815270900726318 0.16516658663749695 0.9134387373924255 0.48235294222831726 0.45490196347236633 0.3921568691730499
0.9834975600242615 0.17700931429862976 0.6581027507781982 0.06666667014360428 0.06666667014360428 0.06666667014360428
0.9773399233818054 0.18506237864494324 0.5905138254165649 0.7333333492279053 0.7372549176216125 0.6823529601097107
0.882758617401123 0.18458865582942963 0.0071146246045827866 0.6039215922355652 0.6039215922355652 0.5098039507865906
0.9820197224617004 0.2564345598220825 0.20118577778339386 0.7019608020782471 0.7058823704719543 0.6509804129600525
0.9716748595237732 0.30301594734191895 0.3185770809650421 0.5137255191802979 0.5058823823928833 0.4470588266849518
0.8743842244148254 0.1926417201757431 0.9897233247756958 0.33725491166114807 0.3019607961177826 0.2666666805744171
0.9798029661178589 0.24917100369930267 0.7486165761947632 0.6352941393852234 0.6549019813537598 0.6666666865348816
0.9800492525100708 0.2722248435020447 0.7691699862480164 0.6274510025978088 0.6431372761726379 0.6549019813537598
0.9766010046005249 0.25422391295433044 0.47075098752975464 0.7215686440467834 0.7372549176216125 0.7490196228027344
0.8849753737449646 0.24869729578495026 0.9905138611793518 0.3490196168422699 0.34117648005485535 0.29411765933036804
0.9408866763114929 0.25485551357269287 0.006719367578625679 0.3803921639919281 0.3764705955982208 0.29411765933036804
0.9834975600242615 0.2927522361278534 0.9533596634864807 0.4274509847164154 0.40392157435417175 0.3490196168422699
0.979556679725647 0.3015948235988617 0.056521739810705185 0.7372549176216125 0.7450980544090271 0.6627451181411743
0.9068965315818787 0.3055424094200134 0.0071146246045827866 0.4941176474094391 0.48627451062202454 0.3960784375667572
0.9815270900726318 0.21411652863025665 0.24861660599708557 0.7529411911964417 0.7450980544090271 0.6980392336845398
0.9785714149475098 0.2008526772260666 0.7031620740890503 0.6980392336845398 0.686274528503418 0.658823549747467
0.9820197224617004 0.30048948526382446 0.822529673576355 0.5960784554481506 0.5960784554481506 0.5490196347236633
0.8665024638175964 0.20922154188156128 0.006719367578625679 0.5882353186607361 0.6000000238418579 0.5176470875740051
0.9773399233818054 0.18569397926330566 0.38300395011901855 0.7686274647712708 0.7568627595901489 0.7215686440467834
0.9758620858192444 0.3101215958595276 0.4901185631752014 0.6901960968971252 0.7058823704719543 0.7176470756530762
0.9793103337287903 0.2696984112262726 0.7256916761398315 0.6509804129600525 0.6627451181411743 0.6823529601097107
0.9830049276351929 0.19485236704349518 0.960869550704956 0.3960784375667572 0.364705890417099 0.3137255012989044
0.9766010046005249 0.3012790083885193 0.6047430634498596 0.6901960968971252 0.7058823704719543 0.7098039388656616
0.9192118048667908 0.28817304968833923 0.006719367578625679 0.47058823704719543 0.4627451002597809 0.3803921639919281
0.9815270900726318 0.2906995117664337 0.23320157825946808 0.7098039388656616 0.7019608020782471 0.6431372761726379
0.9793103337287903 0.17621980607509613 0.6217391490936279 0.16862745583057404 0.1725490242242813 0.1882352977991104
0.8815270662307739 0.19216801226139069 0.9897233247756958 0.3450980484485626 0.30980393290519714 0.27450981736183167
0.9780788421630859 0.24885520339012146 0.011857707053422928 0.35686275362968445 0.3137255012989044 0.24313725531101227
0.9650246500968933 0.1809568852186203 0.007905138656497002 0.5960784554481506 0.5843137502670288 0.5098039507865906
0.9763546586036682 0.24222327768802643 0.49802371859550476 0.7254902124404907 0.7411764860153198 0.7529411911964417
0.9766010046005249 0.26006633043289185 0.5905138254165649 0.7058823704719543 0.7215686440467834 0.7333333492279053
0.9766010046005249 0.26890888810157776 0.591304361820221 0.7098039388656616 0.7254902124404907 0.7372549176216125
0.9761083722114563 0.2676456570625305 0.5090909004211426 0.7176470756530762 0.7333333492279053 0.7450980544090271
0.9766010046005249 0.2894362807273865 0.44426876306533813 0.7019608020782471 0.7215686440467834 0.7333333492279053
0.9790640473365784 0.2783830761909485 0.037154149264097214 0.20392157137393951 0.1764705926179886 0.13725490868091583
0.9125615954399109 0.2071688026189804 0.9889327883720398 0.35686275362968445 0.3333333432674408 0.27843138575553894
0.8817734122276306 0.20858992636203766 0.0071146246045827866 0.5411764979362488 0.5411764979362488 0.4470588266849518
0.9825122952461243 0.23432812094688416 0.17588932812213898 0.7058823704719543 0.7098039388656616 0.6470588445663452
0.9798029661178589 0.20843201875686646 0.43043479323387146 0.729411780834198 0.7372549176216125 0.6941176652908325
0.9820197224617004 0.2610137462615967 0.835573136806488 0.5843137502670288 0.5803921818733215 0.5098039507865906
0.9817733764648438 0.2216958850622177 0.8422924876213074 0.5764706134796143 0.572549045085907 0.4941176474094391
0.9775862097740173 0.2782251834869385 0.6470355987548828 0.686274528503418 0.7019608020782471 0.7058823704719543
0.8911330103874207 0.1814306080341339 0.0071146246045827866 0.6392157077789307 0.6313725709915161 0.5803921818733215
0.9758620858192444 0.27490919828414917 0.31343874335289 0.5254902243614197 0.5137255191802979 0.43921568989753723
0.9832512140274048 0.31138479709625244 0.9300395250320435 0.47058823704719543 0.45098039507865906 0.3764705955982208
0.9768472909927368 0.25453969836235046 0.4332015812397003 0.7176470756530762 0.7411764860153198 0.7411764860153198
0.9431034326553345 0.21474814414978027 0.9881423115730286 0.30980393290519714 0.2862745225429535 0.23137255012989044
0.8677340149879456 0.2521711587905884 0.006719367578625679 0.6274510025978088 0.6352941393852234 0.5490196347236633
0.9837438464164734 0.17085109651088715 0.0071146246045827866 0.5411764979362488 0.5490196347236633 0.4941176474094391
0.9534482955932617 0.29196274280548096 0.9881423115730286 0.3529411852359772 0.3294117748737335 0.2823529541492462
0.956403911113739 0.2733301818370819 0.9881423115730286 0.37254902720451355 0.35686275362968445 0.3137255012989044
0.9822660088539124 0.24380230903625488 0.19604742527008057 0.7058823704719543 0.6980392336845398 0.6392157077789307
0.9788177609443665 0.2100110501050949 0.5150197744369507 0.5960784554481506 0.5803921818733215 0.5843137502670288
0.9822660088539124 0.24001263082027435 0.19011858105659485 0.6980392336845398 0.7019608020782471 0.6470588445663452
0.9768472909927368 0.2182220071554184 0.5375494360923767 0.7215686440467834 0.7450980544090271 0.7450980544090271
0.9389162659645081 0.23338070511817932 0.0071146246045827866 0.41960784792900085 0.41960784792900085 0.32549020648002625
0.9817733764648438 0.17590399086475372 0.7083004117012024 0.0784313753247261 0.09019608050584793 0.10980392247438431
0.9027093648910522 0.2848570942878723 0.9901185631752014 0.37254902720451355 0.364705890417099 0.3176470696926117
0.9790640473365784 0.21080057322978973 0.4375494122505188 0.5254902243614197 0.5254902243614197 0.4941176474094391
0.9763546586036682 0.2586452066898346 0.5604743361473083 0.7254902124404907 0.729411780834198 0.7372549176216125
0.9849753975868225 0.17464077472686768 0.731225311756134 0.07058823853731155 0.062745101749897 0.10588235408067703
0.9800492525100708 0.2905416190624237 0.7869565486907959 0.6078431606292725 0.6196078658103943 0.6392157077789307
0.9802955389022827 0.1896415650844574 0.7849802374839783 0.6078431606292725 0.5960784554481506 0.5215686559677124
0.9810344576835632 0.25975051522254944 0.3031620681285858 0.5254902243614197 0.5098039507865906 0.4627451002597809
0.8997536897659302 0.28880468010902405 0.9901185631752014 0.364705890417099 0.364705890417099 0.3176470696926117
0.9820197224617004 0.1749565750360489 0.01304347813129425 0.05882352963089943 0.06666667014360428 0.054901961237192154
0.9524630308151245 0.25485551357269287 0.9885375499725342 0.3607843220233917 0.3450980484485626 0.2980392277240753
0.8958128094673157 0.2071688026189804 0.0071146246045827866 0.6117647290229797 0.6000000238418579 0.5254902243614197
0.9763546586036682 0.27490919828414917 0.4794466495513916 0.7137255072593689 0.729411780834198 0.7411764860153198
0.9790640473365784 0.27506712079048157 0.03478260710835457 0.21176470816135406 0.16862745583057404 0.14509804546833038
0.9731526970863342 0.17479866743087769 0.007905138656497002 0.529411792755127 0.5058823823928833 0.4431372582912445
0.9736453294754028 0.2872256338596344 0.9877470135688782 0.3529411852359772 0.32549020648002625 0.2862745225429535
0.9758620858192444 0.3044370710849762 0.4952569305896759 0.6901960968971252 0.7137255072593689 0.7137255072593689
0.9763546586036682 0.23669667541980743 0.5114624500274658 0.729411780834198 0.7450980544090271 0.7568627595901489
0.9802955389022827 0.23464392125606537 0.7581027746200562 0.6078431606292725 0.6274510025978088 0.6392157077789307
0.8896551728248596 0.2990683615207672 0.9905138611793518 0.3803921639919281 0.3803921639919281 0.3333333432674408
0.8677340149879456 0.26306647062301636 0.991304337978363 0.32549020648002625 0.3294117748737335 0.27450981736183167
0.9761083722114563 0.2554871439933777 0.5241106748580933 0.7176470756530762 0.7411764860153198 0.7411764860153198
0.9766010046005249 0.28027790784835815 0.4316205680370331 0.7098039388656616 0.729411780834198 0.7411764860153198
0.9832512140274048 0.27364596724510193 0.979051411151886 0.3607843220233917 0.33725491166114807 0.29019609093666077
0.9758620858192444 0.20748460292816162 0.017391303554177284 0.21960784494876862 0.1921568661928177 0.12941177189350128
0.8881773352622986 0.1634296476840973 0.9889327883720398 0.32156863808631897 0.2980392277240753 0.24313725531101227
0.9825122952461243 0.3098057806491852 0.8509881496429443 0.5647059082984924 0.5529412031173706 0.47843137383461
0.9825122952461243 0.1667456179857254 0.9525691866874695 0.4117647111415863 0.3764705955982208 0.3176470696926117
0.9807881712913513 0.24569714069366455 0.7956521511077881 0.5843137502670288 0.615686297416687 0.6235294342041016
0.982758641242981 0.25453969836235046 0.9632411003112793 0.4000000059604645 0.3686274588108063 0.3176470696926117
0.9783251285552979 0.2734880745410919 0.6778656244277954 0.6705882549285889 0.6941176652908325 0.6941176652908325
0.9820197224617004 0.2610137462615967 0.835573136806488 0.5882353186607361 0.5843137502670288 0.5137255191802979
0.9763546586036682 0.30301594734191895 0.45494070649147034 0.7019608020782471 0.7019608020782471 0.7333333492279053
0.9770935773849487 0.31138479709625244 0.3501976430416107 0.4627451002597809 0.48627451062202454 0.48627451062202454
0.9800492525100708 0.2698563039302826 0.3067193627357483 0.5176470875740051 0.5098039507865906 0.4588235318660736
0.9802955389022827 0.1864835023880005 0.11225296556949615 0.7019608020782471 0.6980392336845398 0.615686297416687
0.9763546586036682 0.18174640834331512 0.5553359389305115 0.5803921818733215 0.6196078658103943 0.615686297416687
0.9773399233818054 0.2728564739227295 0.3683794438838959 0.7372549176216125 0.7568627595901489 0.7803921699523926
0.9726601243019104 0.1812727004289627 0.9865612387657166 0.30980393290519714 0.27843138575553894 0.23529411852359772
0.9142857193946838 0.16816674172878265 0.9881423115730286 0.3450980484485626 0.32156863808631897 0.27450981736183167
0.9770935773849487 0.1806410849094391 0.30948618054389954 0.09803921729326248 0.11764705926179886 0.13333334028720856
0.9810344576835632 0.1950102597475052 0.5399209260940552 0.7686274647712708 0.7607843279838562 0.7137255072593689
0.9943349957466125 0.17148271203041077 0.5920948386192322 0.09803921729326248 0.08235294371843338 0.0784313753247261
0.9896551966667175 0.17195641994476318 0.006719367578625679 0.27843138575553894 0.2823529541492462 0.250980406999588
0.9802955389022827 0.1752723753452301 0.8446640372276306 0.20000000298023224 0.20392157137393951 0.2235294133424759
0.9270936250686646 0.23069635033607483 0.9889327883720398 0.3843137323856354 0.3607843220233917 0.3137255012989044
0.9830049276351929 0.17369335889816284 0.16837944090366364 0.0470588244497776 0.054901961237192154 0.05098039284348488
0.9812808036804199 0.26906678080558777 0.11501976102590561 0.7058823704719543 0.7137255072593689 0.6313725709915161
0.9830049276351929 0.30048948526382446 0.8940711617469788 0.5254902243614197 0.49803921580314636 0.42352941632270813
0.9221674799919128 0.25185537338256836 0.006719367578625679 0.4588235318660736 0.4588235318660736 0.35686275362968445
0.9773399233818054 0.18348334729671478 0.4750988185405731 0.7333333492279053 0.7450980544090271 0.6784313917160034
0.9879310131072998 0.17085109651088715 0.8328063488006592 0.13725490868091583 0.11764705926179886 0.10196078568696976
0.8871921300888062 0.15900836884975433 0.9889327883720398 0.3294117748737335 0.30588236451148987 0.250980406999588
0.8761083483695984 0.22059056162834167 0.0071146246045827866 0.4588235318660736 0.4588235318660736 0.35686275362968445
0.9770935773849487 0.2734880745410919 0.3750988245010376 0.7333333492279053 0.7529411911964417 0.7647058963775635
0.9689655303955078 0.16027159988880157 0.9865612387657166 0.24705882370471954 0.2235294133424759 0.1764705926179886
0.8645319938659668 0.27159324288368225 0.0063241105526685715 0.5607843399047852 0.5607843399047852 0.46666666865348816
0.9810344576835632 0.17306174337863922 0.8830039501190186 0.5333333611488342 0.5058823823928833 0.4313725531101227
0.979556679725647 0.30301594734191895 0.7743083238601685 0.6078431606292725 0.6235294342041016 0.6274510025978088
0.9817733764648438 0.27711984515190125 0.2130434811115265 0.7137255072593689 0.7098039388656616 0.6313725709915161
0.9766010046005249 0.26575082540512085 0.60513836145401 0.7058823704719543 0.7215686440467834 0.7333333492279053
0.9822660088539124 0.1841149479150772 0.8916996121406555 0.5254902243614197 0.501960813999176 0.43921568989753723
0.9807881712913513 0.17400915920734406 0.29920947551727295 0.07450980693101883 0.08235294371843338 0.07058823853731155
0.9812808036804199 0.1751144826412201 0.043478261679410934 0.062745101749897 0.07058823853731155 0.05882352963089943
0.9807881712913513 0.16737723350524902 0.8790513873100281 0.529411792755127 0.5058823823928833 0.41960784792900085
0.9763546586036682 0.2411179542541504 0.5019763112068176 0.7254902124404907 0.7411764860153198 0.7529411911964417
0.9798029661178589 0.23811779916286469 0.7426877617835999 0.6313725709915161 0.6509804129600525 0.6627451181411743
0.9790640473365784 0.31422707438468933 0.7592885494232178 0.6078431606292725 0.6235294342041016 0.6352941393852234
0.945320188999176 0.1749565750360489 0.9873517751693726 0.3490196168422699 0.3176470696926117 0.27450981736183167
0.8881773352622986 0.20306332409381866 0.9897233247756958 0.3529411852359772 0.32549020648002625 0.2862745225429535
0.9807881712913513 0.2152218520641327 0.3083004057407379 0.5686274766921997 0.5686274766921997 0.5372549295425415
0.9766010046005249 0.24001263082027435 0.4569169878959656 0.7254902124404907 0.7450980544090271 0.7568627595901489
0.9817733764648438 0.26922470331192017 0.2189723253250122 0.7098039388656616 0.7019608020782471 0.6431372761726379
0.9768472909927368 0.18253591656684875 0.4806324243545532 0.7607843279838562 0.7921568751335144 0.7490196228027344
0.9805418848991394 0.3014369308948517 0.08577074855566025 0.7254902124404907 0.7372549176216125 0.6705882549285889
0.9660098552703857 0.29212063550949097 0.9877470135688782 0.3803921639919281 0.35686275362968445 0.30980393290519714
0.9798029661178589 0.1752723753452301 0.00830039568245411 0.1411764770746231 0.14901961386203766 0.12941177189350128
0.993842363357544 0.1694299727678299 0.32648220658302307 0.10980392247438431 0.08627451211214066 0.08627451211214066
0.9758620858192444 0.20922154188156128 0.01462450623512268 0.4274509847164154 0.4000000059604645 0.33725491166114807
0.9736453294754028 0.2553292214870453 0.006719367578625679 0.3686274588108063 0.35686275362968445 0.2980392277240753
0.9768472909927368 0.23085425794124603 0.32569169998168945 0.45490196347236633 0.4431372582912445 0.40784314274787903
0.9810344576835632 0.17195641994476318 0.8328063488006592 0.11764705926179886 0.10980392247438431 0.12156862765550613
0.9780788421630859 0.20906363427639008 0.04426877573132515 0.1921568661928177 0.1764705926179886 0.12941177189350128
0.9775862097740173 0.24948681890964508 0.6442687511444092 0.6941176652908325 0.7137255072593689 0.7254902124404907
0.9534482955932617 0.25659245252609253 0.9881423115730286 0.3450980484485626 0.3294117748737335 0.2823529541492462
0.9822660088539124 0.24017053842544556 0.9367588758468628 0.4588235318660736 0.4313725531101227 0.3607843220233917
0.9820197224617004 0.2815411388874054 0.8185770511627197 0.5960784554481506 0.6000000238418579 0.5372549295425415
0.9770935773849487 0.2182220071554184 0.4683794379234314 0.7254902124404907 0.7568627595901489 0.7647058963775635
0.9229063987731934 0.2728564739227295 0.9893280863761902 0.3843137323856354 0.3686274588108063 0.32156863808631897
0.9933497309684753 0.17353545129299164 0.7071146368980408 0.09803921729326248 0.10196078568696976 0.12156862765550613
0.9820197224617004 0.2123796045780182 0.8541501760482788 0.5686274766921997 0.5568627715110779 0.4901960790157318
0.9763546586036682 0.2842254936695099 0.4675889313220978 0.7058823704719543 0.729411780834198 0.729411780834198
0.9320197105407715 0.28896257281303406 0.0071146246045827866 0.5215686559677124 0.5137255191802979 0.4313725531101227
0.9354679584503174 0.1725880354642868 0.9877470135688782 0.3490196168422699 0.3176470696926117 0.2666666805744171
0.9800492525100708 0.27190905809402466 0.06877470016479492 0.7254902124404907 0.7372549176216125 0.6549019813537598
0.9830049276351929 0.21206378936767578 0.9865612387657166 0.3294117748737335 0.2980392277240753 0.24705882370471954
0.9815270900726318 0.22927522659301758 0.813834011554718 0.6078431606292725 0.6078431606292725 0.5686274766921997
0.9812808036804199 0.2267487794160843 0.2707509994506836 0.7568627595901489 0.7568627595901489 0.7176470756530762
0.9753694534301758 0.1866413950920105 0.9865612387657166 0.33725491166114807 0.30588236451148987 0.26274511218070984
0.9822660088539124 0.26227694749832153 0.8600790500640869 0.572549045085907 0.545098066329956 0.47058823704719543
0.9766010046005249 0.2897520959377289 0.6015810370445251 0.6941176652908325 0.7098039388656616 0.7058823704719543
0.8918719291687012 0.20511606335639954 0.9897233247756958 0.3607843220233917 0.32549020648002625 0.29019609093666077
0.982758641242981 0.2095373421907425 0.9067193865776062 0.5058823823928833 0.47843137383461 0.4156862795352936
0.893842339515686 0.19027316570281982 0.9893280863761902 0.3176470696926117 0.2823529541492462 0.24705882370471954
0.9817733764648438 0.21459023654460907 0.8415019512176514 0.5843137502670288 0.5647059082984924 0.4901960790157318
0.9832512140274048 0.31438496708869934 0.9150197505950928 0.49803921580314636 0.4745098054409027 0.38823530077934265
0.9785714149475098 0.2150639444589615 0.36205533146858215 0.7686274647712708 0.8039215803146362 0.800000011920929
0.883004903793335 0.25975051522254944 0.9905138611793518 0.34117648005485535 0.32549020648002625 0.2823529541492462
0.9610837697982788 0.16595610976219177 0.9869565367698669 0.33725491166114807 0.30588236451148987 0.26274511218070984
0.9817733764648438 0.2213800698518753 0.13754940032958984 0.6941176652908325 0.7058823704719543 0.6235294342041016
0.9768472909927368 0.29685771465301514 0.4051383435726166 0.7019608020782471 0.7215686440467834 0.7372549176216125
0.9793103337287903 0.22185377776622772 0.3122529685497284 0.545098066329956 0.529411792755127 0.48627451062202454
0.8967980146408081 0.30838465690612793 0.006719367578625679 0.6274510025978088 0.6313725709915161 0.5607843399047852
0.9761083722114563 0.26590871810913086 0.49841898679733276 0.7137255072593689 0.729411780834198 0.7333333492279053
0.9293103218078613 0.19122059643268585 0.007509881630539894 0.49803921580314636 0.5058823823928833 0.4117647111415863
0.9766010046005249 0.2505921423435211 0.5802371501922607 0.7137255072593689 0.729411780834198 0.7333333492279053
0.9812808036804199 0.21127428114414215 0.26719367504119873 0.7607843279838562 0.7529411911964417 0.7058823704719543
0.9805418848991394 0.19343122839927673 0.2185770720243454 0.7333333492279053 0.7254902124404907 0.6666666865348816
0.9834975600242615 0.3049107789993286 0.9347826242446899 0.46666666865348816 0.43921568989753723 0.364705890417099
0.9820197224617004 0.21711668372154236 0.8675889372825623 0.5490196347236633 0.545098066329956 0.46666666865348816
0.9807881712913513 0.21301120519638062 0.7853754758834839 0.729411780834198 0.7450980544090271 0.7490196228027344
0.9815270900726318 0.27143535017967224 0.24387352168560028 0.6980392336845398 0.7058823704719543 0.6509804129600525
0.9876847267150879 0.17416706681251526 0.7280632257461548 0.11764705926179886 0.10588235408067703 0.13333334028720856
0.9667487740516663 0.19911573827266693 0.007509881630539894 0.48627451062202454 0.48235294222831726 0.4117647111415863
0.9224137663841248 0.2734880745410919 0.006719367578625679 0.48627451062202454 0.4745098054409027 0.40784314274787903
0.9805418848991394 0.16421917080879211 0.8648221492767334 0.18039216101169586 0.1725490242242813 0.1764705926179886
0.9768472909927368 0.17653560638427734 0.5462450385093689 0.18039216101169586 0.18039216101169586 0.18039216101169586
0.9798029661178589 0.19216801226139069 0.2810276746749878 0.7686274647712708 0.7686274647712708 0.729411780834198
0.8633005023002625 0.24506552517414093 0.991304337978363 0.3490196168422699 0.34117648005485535 0.29411765933036804
0.9763546586036682 0.2385915070772171 0.5059288740158081 0.7254902124404907 0.7411764860153198 0.7450980544090271
0.8704433441162109 0.23511764407157898 0.006719367578625679 0.6705882549285889 0.6666666865348816 0.5882353186607361
0.9881773591041565 0.1757460981607437 0.6683794260025024 0.125490203499794 0.11764705926179886 0.12156862765550613
0.9763546586036682 0.27443549036979675 0.5948616862297058 0.7058823704719543 0.7254902124404907 0.7372549176216125
0.9756157398223877 0.178430438041687 0.4264822006225586 0.125490203499794 0.125490203499794 0.125490203499794
0.9236453175544739 0.26906678080558777 0.9893280863761902 0.3764705955982208 0.3607843220233917 0.3137255012989044
0.982758641242981 0.2816990315914154 0.8814229369163513 0.545098066329956 0.5254902243614197 0.43921568989753723
0.8714285492897034 0.2930680513381958 0.9909090995788574 0.3843137323856354 0.37254902720451355 0.33725491166114807
0.8667487502098083 0.21111637353897095 0.006719367578625679 0.5803921818733215 0.5764706134796143 0.4941176474094391
0.9770935773849487 0.23053844273090363 0.5849802494049072 0.7176470756530762 0.7372549176216125 0.7490196228027344
0.8935960531234741 0.2763303220272064 0.0063241105526685715 0.5647059082984924 0.5607843399047852 0.48235294222831726
0.9970443248748779 0.1691141575574875 0.31422924995422363 0.0941176488995552 0.09019608050584793 0.08235294371843338
0.9768472909927368 0.24032843112945557 0.5877470374107361 0.7176470756530762 0.7333333492279053 0.7372549176216125
0.9761083722114563 0.2955945134162903 0.4679841995239258 0.6980392336845398 0.7215686440467834 0.7215686440467834
0.9770935773849487 0.2212221622467041 0.5612648129463196 0.7176470756530762 0.7411764860153198 0.7411764860153198
0.982758641242981 0.2186957150697708 0.9217391014099121 0.4901960790157318 0.4627451002597809 0.3921568691730499
0.9830049276351929 0.2606979310512543 0.970355749130249 0.3803921639919281 0.35686275362968445 0.3019607961177826
0.9805418848991394 0.20353703200817108 0.4462450444698334 0.7411764860153198 0.7411764860153198 0.7019608020782471
0.8738916516304016 0.23164376616477966 0.006719367578625679 0.5921568870544434 0.6078431606292725 0.5176470875740051
0.9802955389022827 0.2963840067386627 0.07984189689159393 0.7254902124404907 0.7372549176216125 0.6627451181411743
0.9891625642776489 0.1697457730770111 0.38260868191719055 0.0941176488995552 0.0784313753247261 0.07450980693101883
0.9766010046005249 0.3132796585559845 0.34545454382896423 0.6941176652908325 0.7137255072593689 0.729411780834198
0.926354706287384 0.160745307803154 0.006719367578625679 0.615686297416687 0.6078431606292725 0.5176470875740051
0.9817733764648438 0.2878572642803192 0.19090908765792847 0.6901960968971252 0.6901960968971252 0.6431372761726379
0.8884236216545105 0.18585188686847687 0.9893280863761902 0.35686275362968445 0.32549020648002625 0.2823529541492462
0.9798029661178589 0.31233224272727966 0.0624505914747715 0.7215686440467834 0.7333333492279053 0.658823549747467
0.9802955389022827 0.2043265402317047 0.4312252998352051 0.7372549176216125 0.7372549176216125 0.6980392336845398
0.9775862097740173 0.23353861272335052 0.35691699385643005 0.7607843279838562 0.7764706015586853 0.7882353067398071
0.9714285731315613 0.1814306080341339 0.9865612387657166 0.32156863808631897 0.29019609093666077 0.24705882370471954
0.9756157398223877 0.16327175498008728 0.9861660003662109 0.29411765933036804 0.2666666805744171 0.22745098173618317
0.9822660088539124 0.2738038897514343 0.8588932752609253 0.5607843399047852 0.5490196347236633 0.4745098054409027
0.9768472909927368 0.30254223942756653 0.6197628378868103 0.6823529601097107 0.6941176652908325 0.7137255072593689
0.9044334888458252 0.2876993417739868 0.0063241105526685715 0.4901960790157318 0.48235294222831726 0.3843137323856354
0.9793103337287903 0.2098531574010849 0.7268774509429932 0.529411792755127 0.5490196347236633 0.5254902243614197
0.9830049276351929 0.18585188686847687 0.926086962223053 0.46666666865348816 0.4431372582912445 0.38823530077934265
0.9807881712913513 0.19895784556865692 0.2454545497894287 0.7490196228027344 0.7411764860153198 0.6941176652908325
0.979556679725647 0.25469762086868286 0.7359683513641357 0.6470588445663452 0.6627451181411743 0.6745098233222961
0.9251231551170349 0.2876993417739868 0.9893280863761902 0.3960784375667572 0.3803921639919281 0.3333333432674408
0.9815270900726318 0.19769461452960968 0.5035573244094849 0.7176470756530762 0.7098039388656616 0.6274510025978088
0.9800492525100708 0.19327333569526672 0.09841897338628769 0.7098039388656616 0.7019608020782471 0.6117647290229797
0.9812808036804199 0.2962261140346527 0.8071146011352539 0.545098066329956 0.5647059082984924 0.5372549295425415
0.9763546586036682 0.28564661741256714 0.343873530626297 0.7176470756530762 0.729411780834198 0.7490196228027344
0.9800492525100708 0.18869413435459137 0.2296442687511444 0.7450980544090271 0.7411764860153198 0.6627451181411743
0.9182265996932983 0.16421917080879211 0.0071146246045827866 0.5411764979362488 0.545098066329956 0.48235294222831726
0.9418719410896301 0.22769619524478912 0.0071146246045827866 0.4745098054409027 0.47058823704719543 0.4000000059604645
0.9773399233818054 0.23464392125606537 0.4059288501739502 0.729411780834198 0.7490196228027344 0.7607843279838562
0.9293103218078613 0.17653560638427734 0.9877470135688782 0.35686275362968445 0.32549020648002625 0.27450981736183167
0.9768472909927368 0.2327490895986557 0.4517786502838135 0.7254902124404907 0.7490196228027344 0.7490196228027344
0.9798029661178589 0.18332543969154358 0.7794466614723206 0.5647059082984924 0.572549045085907 0.529411792755127
0.9480295777320862 0.19911573827266693 0.9877470135688782 0.364705890417099 0.3333333432674408 0.2823529541492462
0.9812808036804199 0.2442760169506073 0.2814229130744934 0.7019608020782471 0.7058823704719543 0.6431372761726379
0.9805418848991394 0.18506237864494324 0.8035573363304138 0.6078431606292725 0.5960784554481506 0.5215686559677124
0.9822660088539124 0.2267487794160843 0.1822134405374527 0.7137255072593689 0.7176470756530762 0.6549019813537598
0.9810344576835632 0.24222327768802643 0.10632411390542984 0.7137255072593689 0.7450980544090271 0.6941176652908325
0.9307881593704224 0.2551713287830353 0.9889327883720398 0.3764705955982208 0.3529411852359772 0.2980392277240753
0.9766010046005249 0.30064740777015686 0.43438735604286194 0.6980392336845398 0.7176470756530762 0.7411764860153198
0.982758641242981 0.2098531574010849 0.9189723134040833 0.4941176474094391 0.46666666865348816 0.40392157435417175
0.9766010046005249 0.2524869740009308 0.45533597469329834 0.7215686440467834 0.7372549176216125 0.7490196228027344
0.9802955389022827 0.24601294100284576 0.7612648010253906 0.6392157077789307 0.6431372761726379 0.658823549747467
0.9768472909927368 0.2505921423435211 0.4272727370262146 0.7176470756530762 0.7372549176216125 0.7529411911964417
0.9798029661178589 0.1751144826412201 0.822529673576355 0.3333333432674408 0.3333333432674408 0.364705890417099
0.9807881712913513 0.23969683051109314 0.09960474073886871 0.7019608020782471 0.7137255072593689 0.6392157077789307
0.8657635450363159 0.26054003834724426 0.991304337978363 0.33725491166114807 0.3294117748737335 0.2823529541492462
0.9832512140274048 0.17290383577346802 0.4521739184856415 0.11372549086809158 0.0941176488995552 0.10980392247438431
0.9830049276351929 0.2038528323173523 0.9347826242446899 0.45490196347236633 0.4313725531101227 0.3764705955982208
0.9068965315818787 0.30854254961013794 0.9897233247756958 0.3686274588108063 0.3607843220233917 0.3137255012989044
0.9785714149475098 0.2935417592525482 0.022134387865662575 0.2235294133424759 0.18431372940540314 0.14509804546833038
0.8753694295883179 0.21127428114414215 0.9901185631752014 0.3333333432674408 0.32549020648002625 0.27843138575553894
0.8839901685714722 0.1779567301273346 0.9893280863761902 0.34117648005485535 0.3137255012989044 0.27450981736183167
0.9034482836723328 0.2924364507198334 0.9901185631752014 0.3450980484485626 0.3450980484485626 0.2980392277240753
0.8802955746650696 0.3139112591743469 0.006719367578625679 0.545098066329956 0.5490196347236633 0.47843137383461
0.9825122952461243 0.2960682213306427 0.8569170236587524 0.572549045085907 0.5529412031173706 0.47843137383461
0.982758641242981 0.21916942298412323 0.9573122262954712 0.3960784375667572 0.3803921639919281 0.3333333432674408
0.8738916516304016 0.26527711749076843 0.006719367578625679 0.5215686559677124 0.5137255191802979 0.4156862795352936
0.9832512140274048 0.18585188686847687 0.9822134375572205 0.3450980484485626 0.3137255012989044 0.26274511218070984
0.9236453175544739 0.24474972486495972 0.9893280863761902 0.40392157435417175 0.3803921639919281 0.3333333432674408
0.9768472909927368 0.18853624165058136 0.04466403275728226 0.20000000298023224 0.16862745583057404 0.11764705926179886
0.9785714149475098 0.3045949637889862 0.017786560580134392 0.23529411852359772 0.19607843458652496 0.14901961386203766
0.8857142925262451 0.31438496708869934 0.006719367578625679 0.5137255191802979 0.5254902243614197 0.4588235318660736
0.9820197224617004 0.31485867500305176 0.11818181723356247 0.7333333492279053 0.7254902124404907 0.6745098233222961
0.9761083722114563 0.2673298716545105 0.5565217137336731 0.7058823704719543 0.7254902124404907 0.7372549176216125
0.9807881712913513 0.19879993796348572 0.18418972194194794 0.7254902124404907 0.7215686440467834 0.6509804129600525
0.9805418848991394 0.25975051522254944 0.7956521511077881 0.5921568870544434 0.6235294342041016 0.6352941393852234
0.9822660088539124 0.27427759766578674 0.8592885136604309 0.5607843399047852 0.5490196347236633 0.4745098054409027
0.9820197224617004 0.2695404887199402 0.8272727131843567 0.6039215922355652 0.5960784554481506 0.5372549295425415
0.9152709245681763 0.2558029294013977 0.9897233247756958 0.4000000059604645 0.38823530077934265 0.3137255012989044
0.9798029661178589 0.20732669532299042 0.5533596873283386 0.7254902124404907 0.7490196228027344 0.7411764860153198
0.9763546586036682 0.2526448667049408 0.5450592637062073 0.7176470756530762 0.7333333492279053 0.7450980544090271
0.8682265877723694 0.17290383577346802 0.006719367578625679 0.545098066329956 0.5372549295425415 0.47843137383461
0.9810344576835632 0.2840675711631775 0.2758893370628357 0.686274528503418 0.686274528503418 0.6392157077789307
0.9798029661178589 0.1779567301273346 0.11106719076633453 0.07450980693101883 0.07450980693101883 0.06666667014360428
0.9830049276351929 0.20464235544204712 0.9537549614906311 0.4000000059604645 0.3843137323856354 0.34117648005485535
0.9800492525100708 0.27159324288368225 0.06996047496795654 0.7254902124404907 0.7411764860153198 0.6509804129600525
0.9780788421630859 0.19911573827266693 0.6889328360557556 0.7372549176216125 0.7254902124404907 0.6980392336845398
0.8647783398628235 0.201326385140419 0.9905138611793518 0.30980393290519714 0.3019607961177826 0.2549019753932953
0.9788177609443665 0.17937786877155304 0.07984189689159393 0.08627451211214066 0.09803921729326248 0.07058823853731155
0.9790640473365784 0.1754302829504013 0.07351778447628021 0.21176470816135406 0.23137255012989044 0.21568627655506134
0.9798029661178589 0.3110690116882324 0.7968379259109497 0.5882353186607361 0.6117647290229797 0.6117647290229797
0.9805418848991394 0.20480024814605713 0.7750988006591797 0.615686297416687 0.6078431606292725 0.5490196347236633
0.9800492525100708 0.17479866743087769 0.24861660599708557 0.11764705926179886 0.11372549086809158 0.10588235408067703
0.9805418848991394 0.20274750888347626 0.7830039262771606 0.6117647290229797 0.6000000238418579 0.5411764979362488
0.9820197224617004 0.2764882445335388 0.17272727191448212 0.6941176652908325 0.7058823704719543 0.6313725709915161
0.9364532232284546 0.26543501019477844 0.9889327883720398 0.3921568691730499 0.3803921639919281 0.32156863808631897
0.9830049276351929 0.17479866743087769 0.7375494241714478 0.11372549086809158 0.10980392247438431 0.1411764770746231
0.9822660088539124 0.2267487794160843 0.15770751237869263 0.6941176652908325 0.6941176652908325 0.6470588445663452
0.9768472909927368 0.25943470001220703 0.6000000238418579 0.7058823704719543 0.7176470756530762 0.7372549176216125
0.9793103337287903 0.19074688851833344 0.4209486246109009 0.7764706015586853 0.7490196228027344 0.7254902124404907
0.9788177609443665 0.281383216381073 0.02648221328854561 0.22745098173618317 0.19607843458652496 0.14509804546833038
0.998275876045227 0.1697457730770111 0.4889328181743622 0.10980392247438431 0.0941176488995552 0.09019608050584793
0.9834975600242615 0.2786988914012909 0.9691699743270874 0.3960784375667572 0.364705890417099 0.32156863808631897
0.9793103337287903 0.2554871439933777 0.7193675637245178 0.6549019813537598 0.6745098233222961 0.6901960968971252
0.9832512140274048 0.29480499029159546 0.9225296378135681 0.4941176474094391 0.47058823704719543 0.3843137323856354
0.9798029661178589 0.28075161576271057 0.06837944686412811 0.7137255072593689 0.7215686440467834 0.6274510025978088
0.9785714149475098 0.3075951337814331 0.7245059013366699 0.6352941393852234 0.6509804129600525 0.6627451181411743
0.9798029661178589 0.19058898091316223 0.5027667880058289 0.7568627595901489 0.7568627595901489 0.7098039388656616
0.9770935773849487 0.2385915070772171 0.6098814010620117 0.7098039388656616 0.7254902124404907 0.7372549176216125
0.9837438464164734 0.30933207273483276 0.9826086759567261 0.37254902720451355 0.3490196168422699 0.3019607961177826
0.9815270900726318 0.2584872841835022 0.26166006922721863 0.7098039388656616 0.7176470756530762 0.6666666865348816
0.873399019241333 0.28533080220222473 0.0063241105526685715 0.5411764979362488 0.5411764979362488 0.4470588266849518
0.8889162540435791 0.17006158828735352 0.0071146246045827866 0.5843137502670288 0.572549045085907 0.5058823823928833
0.9773399233818054 0.2584872841835022 0.6379446387290955 0.7019608020782471 0.7058823704719543 0.7215686440467834
0.9812808036804199 0.20527395606040955 0.2185770720243454 0.7372549176216125 0.729411780834198 0.6823529601097107
0.982758641242981 0.22516974806785583 0.9363636374473572 0.45490196347236633 0.4313725531101227 0.3686274588108063
0.935960590839386 0.2267487794160843 0.0071146246045827866 0.45098039507865906 0.4470588266849518 0.364705890417099
0.9766010046005249 0.224380224943161 0.5264822244644165 0.729411780834198 0.7450980544090271 0.7568627595901489
0.9780788421630859 0.2726985514163971 0.6715415120124817 0.6745098233222961 0.6941176652908325 0.7058823704719543
0.9820197224617004 0.26338228583335876 0.20079050958156586 0.6941176652908325 0.6980392336845398 0.6352941393852234
0.9741379022598267 0.19406284391880035 0.9869565367698669 0.30588236451148987 0.29019609093666077 0.24705882370471954
0.9790640473365784 0.2355913519859314 0.7055336236953735 0.6627451181411743 0.6823529601097107 0.6980392336845398
0.9790640473365784 0.31122690439224243 0.752964437007904 0.6235294342041016 0.6274510025978088 0.6431372761726379
0.9778324961662292 0.22485393285751343 0.35612648725509644 0.772549033164978 0.7843137383460999 0.8039215803146362
0.9963054060935974 0.1694299727678299 0.4490118622779846 0.13725490868091583 0.13333334028720856 0.11764705926179886
0.9839901328086853 0.31517449021339417 0.9679841995239258 0.4000000059604645 0.3686274588108063 0.32549020648002625
0.9775862097740173 0.23953892290592194 0.6525691747665405 0.6980392336845398 0.7019608020782471 0.7098039388656616
0.9113300442695618 0.30317384004592896 0.0071146246045827866 0.4274509847164154 0.42352941632270813 0.3529411852359772
0.9820197224617004 0.19453655183315277 0.8509881496429443 0.572549045085907 0.5490196347236633 0.501960813999176
0.982758641242981 0.2935417592525482 0.8826087117195129 0.5529412031173706 0.5215686559677124 0.4470588266849518
0.9184728860855103 0.2611716389656067 0.9893280863761902 0.3803921639919281 0.3686274588108063 0.29411765933036804
0.9825122952461243 0.2962261140346527 0.864426851272583 0.5647059082984924 0.545098066329956 0.47058823704719543
0.9820197224617004 0.3022264242172241 0.8260869383811951 0.5921568870544434 0.5960784554481506 0.5411764979362488
0.9785714149475098 0.21443234384059906 0.3699604868888855 0.7568627595901489 0.7921568751335144 0.7882353067398071
0.982758641242981 0.1899573653936386 0.8901185989379883 0.529411792755127 0.5058823823928833 0.45098039507865906
0.9768472909927368 0.24569714069366455 0.4383399188518524 0.7176470756530762 0.7372549176216125 0.7490196228027344
0.9830049276351929 0.19090478122234344 0.9339920878410339 0.45098039507865906 0.41960784792900085 0.3686274588108063
0.9770935773849487 0.29196274280548096 0.6237154006958008 0.686274528503418 0.7019608020782471 0.7058823704719543
0.9798029661178589 0.17764092981815338 0.09525691717863083 0.0784313753247261 0.07058823853731155 0.08235294371843338
0.9583743810653687 0.2125374972820282 0.9877470135688782 0.3607843220233917 0.3294117748737335 0.2862745225429535
0.9810344576835632 0.17195641994476318 0.8873517513275146 0.5254902243614197 0.49803921580314636 0.42352941632270813
0.9810344576835632 0.22643296420574188 0.11620553582906723 0.5333333611488342 0.5686274766921997 0.5568627715110779
0.9229063987731934 0.2382756918668747 0.9893280863761902 0.3490196168422699 0.3333333432674408 0.2862745225429535
0.9788177609443665 0.2610137462615967 0.6940711736679077 0.6705882549285889 0.686274528503418 0.6901960968971252
0.9832512140274048 0.2730143666267395 0.9581027626991272 0.41960784792900085 0.38823530077934265 0.33725491166114807
0.9822660088539124 0.26811936497688293 0.8545454740524292 0.572549045085907 0.5607843399047852 0.48627451062202454
0.9810344576835632 0.17353545129299164 0.39802372455596924 0.06666667014360428 0.07058823853731155 0.0470588244497776
0.9817733764648438 0.23432812094688416 0.8280632495880127 0.5882353186607361 0.5921568870544434 0.5215686559677124
0.8731527328491211 0.2610137462615967 0.006719367578625679 0.572549045085907 0.5843137502670288 0.5098039507865906
0.9775862097740173 0.22848570346832275 0.36086955666542053 0.7450980544090271 0.7764706015586853 0.7843137383460999
0.9766010046005249 0.30838465690612793 0.41304346919059753 0.6901960968971252 0.7098039388656616 0.7254902124404907
0.9396551847457886 0.15900836884975433 0.9873517751693726 0.3019607961177826 0.2705882489681244 0.22745098173618317
0.8768472671508789 0.2444339245557785 0.9909090995788574 0.3176470696926117 0.3019607961177826 0.25882354378700256
0.9465517401695251 0.1699036806821823 0.007509881630539894 0.5254902243614197 0.5372549295425415 0.4313725531101227
0.9807881712913513 0.3131217360496521 0.28932806849479675 0.6392157077789307 0.6549019813537598 0.5568627715110779
0.996798038482666 0.16579820215702057 0.8371541500091553 0.06666667014360428 0.0784313753247261 0.09803921729326248
0.9810344576835632 0.2606979310512543 0.28972330689430237 0.6509804129600525 0.6470588445663452 0.5686274766921997
0.979556679725647 0.1755881905555725 0.7308300137519836 0.26274511218070984 0.2666666805744171 0.2823529541492462
0.9977832436561584 0.17021948099136353 0.7988142371177673 0.13725490868091583 0.13725490868091583 0.16862745583057404
0.9798029661178589 0.1751144826412201 0.573122501373291 0.1725490242242813 0.1725490242242813 0.1725490242242813
0.8807882070541382 0.21885362267494202 0.0071146246045827866 0.5058823823928833 0.5058823823928833 0.4117647111415863
0.9810344576835632 0.24585504829883575 0.3019762933254242 0.545098066329956 0.5176470875740051 0.48627451062202454
0.982758641242981 0.27743566036224365 0.9023715257644653 0.5176470875740051 0.4941176474094391 0.4000000059604645
0.9805418848991394 0.17179851233959198 0.8683794736862183 0.5764706134796143 0.5607843399047852 0.5176470875740051
0.9581280946731567 0.18253591656684875 0.007905138656497002 0.42352941632270813 0.4117647111415863 0.33725491166114807
0.9807881712913513 0.19958944618701935 0.29169961810112 0.7686274647712708 0.7607843279838562 0.7137255072593689
0.9768472909927368 0.2354334443807602 0.44980236887931824 0.729411780834198 0.7529411911964417 0.7529411911964417
0.8903940916061401 0.25943470001220703 0.9905138611793518 0.3490196168422699 0.3333333432674408 0.29019609093666077
0.9640393853187561 0.286751925945282 0.9881423115730286 0.3921568691730499 0.3764705955982208 0.3294117748737335
0.9083743691444397 0.30380547046661377 0.0071146246045827866 0.38823530077934265 0.3803921639919281 0.32156863808631897
0.9780788421630859 0.21885362267494202 0.6636363863945007 0.6784313917160034 0.7098039388656616 0.7215686440467834
0.9773399233818054 0.281383216381073 0.3600790500640869 0.7450980544090271 0.7568627595901489 0.7843137383460999
0.982758641242981 0.28280436992645264 0.8806324005126953 0.5529412031173706 0.5254902243614197 0.45098039507865906
0.86231529712677 0.17716722190380096 0.006719367578625679 0.5686274766921997 0.5647059082984924 0.48627451062202454
0.9778324961662292 0.21664297580718994 0.4363636374473572 0.7333333492279053 0.7529411911964417 0.7647058963775635
0.9738916158676147 0.2554871439933777 0.33122530579566956 0.364705890417099 0.364705890417099 0.35686275362968445
0.9798029661178589 0.30538448691368103 0.791304349899292 0.5921568870544434 0.6235294342041016 0.6313725709915161
0.9172413945198059 0.1869572103023529 0.007509881630539894 0.5137255191802979 0.5176470875740051 0.3921568691730499
0.9783251285552979 0.22911731898784637 0.6794466376304626 0.6823529601097107 0.6980392336845398 0.7098039388656616
0.9773399233818054 0.27206695079803467 0.3592885434627533 0.7568627595901489 0.7764706015586853 0.800000011920929
0.9820197224617004 0.3074372410774231 0.14347825944423676 0.6980392336845398 0.7019608020782471 0.6313725709915161
0.9231526851654053 0.27175113558769226 0.006719367578625679 0.4313725531101227 0.42352941632270813 0.37254902720451355
0.9785714149475098 0.22595925629138947 0.687747061252594 0.6745098233222961 0.6941176652908325 0.7058823704719543
0.9805418848991394 0.2240644246339798 0.09723319858312607 0.6901960968971252 0.686274528503418 0.6078431606292725
0.979556679725647 0.20274750888347626 0.7422924637794495 0.6352941393852234 0.6352941393852234 0.6039215922355652
0.9763546586036682 0.26322439312934875 0.47549405694007874 0.7137255072593689 0.729411780834198 0.7411764860153198
0.9820197224617004 0.2905416190624237 0.15849801898002625 0.6941176652908325 0.6980392336845398 0.6352941393852234
0.9805418848991394 0.19137848913669586 0.15770751237869263 0.7333333492279053 0.7215686440467834 0.6470588445663452
0.9231526851654053 0.22311700880527496 0.9889327883720398 0.3764705955982208 0.3529411852359772 0.2980392277240753
0.9027093648910522 0.18537817895412445 0.9889327883720398 0.34117648005485535 0.3137255012989044 0.27450981736183167
0.9775862097740173 0.17653560638427734 0.28418973088264465 0.0784313753247261 0.0784313753247261 0.08627451211214066
0.9635468125343323 0.24569714069366455 0.0071146246045827866 0.4313725531101227 0.4274509847164154 0.35686275362968445
0.8864532113075256 0.24190746247768402 0.9905138611793518 0.33725491166114807 0.32156863808631897 0.27843138575553894
0.9770935773849487 0.2722248435020447 0.6284584999084473 0.6901960968971252 0.7058823704719543 0.7176470756530762
0.982758641242981 0.2330649048089981 0.960869550704956 0.3960784375667572 0.37254902720451355 0.32549020648002625
0.9679803252220154 0.275856614112854 0.0071146246045827866 0.45490196347236633 0.43529412150382996 0.35686275362968445
0.9770935773849487 0.24348649382591248 0.34545454382896423 0.7764706015586853 0.7882353067398071 0.8078431487083435
0.9783251285552979 0.2499605268239975 0.6806324124336243 0.6745098233222961 0.6941176652908325 0.7058823704719543
0.9847290515899658 0.1722722202539444 0.5233201384544373 0.13725490868091583 0.11372549086809158 0.12156862765550613
0.9817733764648438 0.27364596724510193 0.20711462199687958 0.7058823704719543 0.7019608020782471 0.6313725709915161
0.982758641242981 0.18837833404541016 0.895652174949646 0.5176470875740051 0.4941176474094391 0.43921568989753723
0.9766010046005249 0.3153323829174042 0.6098814010620117 0.6745098233222961 0.6941176652908325 0.7098039388656616
0.9551724195480347 0.19895784556865692 0.007509881630539894 0.4588235318660736 0.43921568989753723 0.3607843220233917
0.9775862097740173 0.2360650599002838 0.6403161883354187 0.7098039388656616 0.7137255072593689 0.729411780834198
0.9783251285552979 0.19895784556865692 0.695652186870575 0.7058823704719543 0.7058823704719543 0.6745098233222961
0.9807881712913513 0.2010105848312378 0.11620553582906723 0.7137255072593689 0.7058823704719543 0.6235294342041016
0.9810344576835632 0.2966998219490051 0.10000000149011612 0.7058823704719543 0.7411764860153198 0.6352941393852234
0.9815270900726318 0.21095846593379974 0.14703556895256042 0.7098039388656616 0.7058823704719543 0.6274510025978088
0.9768472909927368 0.24869729578495026 0.43043479323387146 0.7137255072593689 0.7333333492279053 0.7450980544090271
0.9773399233818054 0.23922312259674072 0.6225296258926392 0.7058823704719543 0.7254902124404907 0.7372549176216125
0.9807881712913513 0.17400915920734406 0.2806324064731598 0.07058823853731155 0.07058823853731155 0.07058823853731155
0.9783251285552979 0.21411652863025665 0.4280632436275482 0.686274528503418 0.7019608020782471 0.7058823704719543
