0.001970443408936262 0.3039633631706238 0.908695638179779 0.5333333611488342 0.5254902243614197 0.47843137383461
0.20344828069210052 0.16848255693912506 0.9968379735946655 0.9764705896377563 0.9803921580314636 1.0
0.0014778325567021966 0.22611716389656067 0.7960474491119385 0.6549019813537598 0.6627451181411743 0.6509804129600525
0.003448275849223137 0.24032843112945557 0.15533596277236938 0.6823529601097107 0.6901960968971252 0.6352941393852234
0.001970443408936262 0.2955945134162903 0.7940711379051208 0.658823549747467 0.658823549747467 0.6509804129600525
0.003448275849223137 0.25659245252609253 0.15968379378318787 0.6705882549285889 0.6784313917160034 0.6274510025978088
0.002463054144755006 0.29164692759513855 0.5620553493499756 0.6784313917160034 0.686274528503418 0.6666666865348816
0.002955665113404393 0.30854254961013794 0.37233200669288635 0.6627451181411743 0.6705882549285889 0.6196078658103943
0.0017241379246115685 0.20590557157993317 0.6264821887016296 0.6941176652908325 0.7019608020782471 0.6470588445663452
0.09458128362894058 0.2903836965560913 0.007905138656497002 0.5607843399047852 0.5568627715110779 0.48627451062202454
0.0017241379246115685 0.18885204195976257 0.6146245002746582 0.6784313917160034 0.686274528503418 0.6352941393852234
0.0027093596290796995 0.16848255693912506 0.3853754997253418 0.6745098233222961 0.6784313917160034 0.6470588445663452
0.001231527072377503 0.16279804706573486 0.9007905125617981 0.49803921580314636 0.501960813999176 0.4470588266849518
0.1669950783252716 0.275698721408844 0.9897233247756958 0.8901960849761963 0.8941176533699036 0.9098039269447327
0.002955665113404393 0.31517449021339417 0.4098814129829407 0.6745098233222961 0.6745098233222961 0.6352941393852234
0.0036945813335478306 0.3077530264854431 0.11106719076633453 0.6666666865348816 0.6745098233222961 0.6235294342041016
0.16403940320014954 0.26859307289123535 0.9897233247756958 0.8666666746139526 0.8823529481887817 0.8941176533699036
0.0017241379246115685 0.24932891130447388 0.9667984247207642 0.3960784375667572 0.3921568691730499 0.32156863808631897
0.005665024742484093 0.24853940308094025 0.020948616787791252 0.1882352977991104 0.16862745583057404 0.14509804546833038
0.002216748660430312 0.17069318890571594 0.5150197744369507 0.6509804129600525 0.6745098233222961 0.6352941393852234
0.05320196971297264 0.23353861272335052 0.008695651777088642 0.3843137323856354 0.3921568691730499 0.3490196168422699
0.1231527104973793 0.19485236704349518 0.9897233247756958 0.3803921639919281 0.3803921639919281 0.3333333432674408
0.06108374521136284 0.2823306620121002 0.9889327883720398 0.43921568989753723 0.4156862795352936 0.3607843220233917
0.003448275849223137 0.30664771795272827 0.1932806372642517 0.6784313917160034 0.6784313917160034 0.6313725709915161
0.0017241379246115685 0.21932733058929443 0.9573122262954712 0.41960784792900085 0.3960784375667572 0.3333333432674408
0.004433497320860624 0.15932416915893555 0.1201581060886383 0.6745098233222961 0.6784313917160034 0.6078431606292725
0.003940886817872524 0.24885520339012146 0.10355731099843979 0.6666666865348816 0.6745098233222961 0.6196078658103943
0.001970443408936262 0.19453655183315277 0.5624505877494812 0.6745098233222961 0.686274528503418 0.6431372761726379
0.23743842542171478 0.16721932590007782 0.9976284503936768 0.9490196108818054 0.9647058844566345 0.9686274528503418
0.11206896603107452 0.19895784556865692 0.00830039568245411 0.4745098054409027 0.47058823704719543 0.3921568691730499
0.1822660118341446 0.18900994956493378 0.9944664239883423 0.9411764740943909 0.95686274766922 0.9686274528503418
0.22512315213680267 0.21727459132671356 0.9924901127815247 0.9686274528503418 0.9803921580314636 1.0
0.03916256129741669 0.2924364507198334 0.9889327883720398 0.4156862795352936 0.3921568691730499 0.33725491166114807
0.16477832198143005 0.21774829924106598 0.991304337978363 0.9254902005195618 0.9450980424880981 0.9607843160629272
0.002216748660430312 0.16864044964313507 0.4897233247756958 0.6509804129600525 0.6784313917160034 0.6078431606292725
0.002955665113404393 0.2878572642803192 0.3268774747848511 0.6666666865348816 0.6745098233222961 0.6313725709915161
0.0014778325567021966 0.1953260749578476 0.7035573124885559 0.686274528503418 0.686274528503418 0.6392157077789307
0.001970443408936262 0.224380224943161 0.9671936631202698 0.3686274588108063 0.35686275362968445 0.2980392277240753
0.2182265967130661 0.19674719870090485 0.9944664239883423 0.9647058844566345 0.9764705896377563 0.9960784316062927
0.0017241379246115685 0.26290857791900635 0.8533596992492676 0.6117647290229797 0.6117647290229797 0.6039215922355652
0.09039408713579178 0.25785568356513977 0.00830039568245411 0.47058823704719543 0.47843137383461 0.43529412150382996
0.005172413773834705 0.2329069972038269 0.07588932663202286 0.6666666865348816 0.6745098233222961 0.6196078658103943
0.001970443408936262 0.18490447103977203 0.9205533862113953 0.48627451062202454 0.48627451062202454 0.43921568989753723
0.0027093596290796995 0.2041686475276947 0.4316205680370331 0.6784313917160034 0.6941176652908325 0.6392157077789307
0.0032019703648984432 0.2606979310512543 0.2822134494781494 0.6784313917160034 0.7019608020782471 0.6470588445663452
0.005418719258159399 0.2439602017402649 0.041897233575582504 0.15294118225574493 0.15294118225574493 0.12156862765550613
0.0027093596290796995 0.2041686475276947 0.4363636374473572 0.6784313917160034 0.6901960968971252 0.6470588445663452
0.1583743840456009 0.2897520959377289 0.9897233247756958 0.8784313797950745 0.9058823585510254 0.929411768913269
0.05197044461965561 0.1722722202539444 0.9889327883720398 0.3764705955982208 0.3607843220233917 0.3137255012989044
0.1630541831254959 0.3131217360496521 0.007509881630539894 0.545098066329956 0.5529412031173706 0.501960813999176
0.07192118465900421 0.2993841767311096 0.00830039568245411 0.4627451002597809 0.45098039507865906 0.4156862795352936
0.002463054144755006 0.2936996817588806 0.49802371859550476 0.6549019813537598 0.6745098233222961 0.6470588445663452
0.07857143133878708 0.27427759766578674 0.00830039568245411 0.4470588266849518 0.4588235318660736 0.4156862795352936
0.16157636046409607 0.17116689682006836 0.9928853511810303 0.7254902124404907 0.7921568751335144 0.8196078538894653
0.0517241396009922 0.17621980607509613 0.9889327883720398 0.3490196168422699 0.3333333432674408 0.2862745225429535
0.0014778325567021966 0.22880151867866516 0.7679842114448547 0.6941176652908325 0.6941176652908325 0.6627451181411743
0.001970443408936262 0.2786988914012909 0.6549407243728638 0.7058823704719543 0.7137255072593689 0.6705882549285889
0.23177340626716614 0.16800884902477264 0.9976284503936768 0.95686274766922 0.9725490212440491 0.9764705896377563
0.18793103098869324 0.2300647348165512 0.9905138611793518 0.9803921580314636 0.9960784316062927 1.0
0.001970443408936262 0.160745307803154 0.5363636612892151 0.6549019813537598 0.6705882549285889 0.615686297416687
0.06034482643008232 0.17053529620170593 0.00909090880304575 0.6196078658103943 0.6352941393852234 0.5803921818733215
0.058128077536821365 0.2930680513381958 0.00830039568245411 0.4000000059604645 0.3960784375667572 0.32549020648002625
0.001970443408936262 0.24759197235107422 0.6683794260025024 0.7137255072593689 0.7215686440467834 0.6705882549285889
0.2216748744249344 0.17164061963558197 0.006719367578625679 0.5764706134796143 0.6039215922355652 0.5411764979362488
0.0017241379246115685 0.2668561637401581 0.8960474133491516 0.5882353186607361 0.5960784554481506 0.5764706134796143
0.1423645317554474 0.29480499029159546 0.007509881630539894 0.5215686559677124 0.5215686559677124 0.4745098054409027
0.001970443408936262 0.27475130558013916 0.6205533742904663 0.7019608020782471 0.7058823704719543 0.6745098233222961
0.21699507534503937 0.30254223942756653 0.0071146246045827866 0.6274510025978088 0.6196078658103943 0.572549045085907
0.002216748660430312 0.2708037197589874 0.5288537740707397 0.686274528503418 0.6901960968971252 0.658823549747467
0.0027093596290796995 0.2357492446899414 0.4648221433162689 0.6823529601097107 0.6941176652908325 0.658823549747467
0.0032019703648984432 0.2644875943660736 0.24071146547794342 0.6784313917160034 0.6901960968971252 0.6470588445663452
0.001970443408936262 0.1754302829504013 0.5715414881706238 0.6745098233222961 0.6823529601097107 0.6392157077789307
0.10394088923931122 0.2155376672744751 0.9889327883720398 0.40392157435417175 0.3960784375667572 0.3490196168422699
0.002463054144755006 0.2723827660083771 0.5094861388206482 0.6666666865348816 0.686274528503418 0.658823549747467
0.21674877405166626 0.178272545337677 0.9960474371910095 0.9686274528503418 0.9843137264251709 0.9960784316062927
0.0017241379246115685 0.2731722593307495 0.9822134375572205 0.32156863808631897 0.30588236451148987 0.2705882489681244
0.1943349689245224 0.2240644246339798 0.991304337978363 0.95686274766922 0.9686274528503418 0.9960784316062927
0.002955665113404393 0.24553923308849335 0.3810276687145233 0.6627451181411743 0.6745098233222961 0.6313725709915161
0.20123152434825897 0.2521711587905884 0.0071146246045827866 0.45490196347236633 0.4431372582912445 0.3686274588108063
0.002955665113404393 0.2300647348165512 0.2976284623146057 0.6941176652908325 0.7058823704719543 0.6627451181411743
0.1347290575504303 0.2880151569843292 0.9897233247756958 0.46666666865348816 0.45098039507865906 0.43921568989753723
0.001970443408936262 0.2875414490699768 0.9798418879508972 0.34117648005485535 0.32549020648002625 0.29019609093666077
0.10073891282081604 0.2982788681983948 0.9893280863761902 0.4588235318660736 0.4431372582912445 0.40784314274787903
0.01206896547228098 0.24348649382591248 0.9877470135688782 0.3137255012989044 0.3019607961177826 0.2666666805744171
0.001231527072377503 0.16579820215702057 0.7486165761947632 0.6352941393852234 0.6431372761726379 0.5921568870544434
0.1869458109140396 0.23353861272335052 0.9905138611793518 0.9803921580314636 0.9960784316062927 1.0
0.001970443408936262 0.16816674172878265 0.970355749130249 0.3294117748737335 0.3137255012989044 0.27843138575553894
0.002463054144755006 0.21411652863025665 0.49209487438201904 0.6666666865348816 0.6784313917160034 0.6352941393852234
0.0017241379246115685 0.25075003504753113 0.7857707738876343 0.6784313917160034 0.6823529601097107 0.6509804129600525
0.06798029690980911 0.16437707841396332 0.008695651777088642 0.6352941393852234 0.6352941393852234 0.5882353186607361
0.005172413773834705 0.2302226424217224 0.07430829852819443 0.6666666865348816 0.6745098233222961 0.6196078658103943
0.002216748660430312 0.178430438041687 0.5083004236221313 0.6666666865348816 0.6745098233222961 0.6235294342041016
0.0032019703648984432 0.15900836884975433 0.28498023748397827 0.6823529601097107 0.6941176652908325 0.6274510025978088
0.06773398816585541 0.2793304920196533 0.00830039568245411 0.4000000059604645 0.40784314274787903 0.364705890417099
0.08793103694915771 0.24222327768802643 0.00830039568245411 0.5176470875740051 0.5098039507865906 0.4627451002597809
0.001970443408936262 0.1841149479150772 0.9169960618019104 0.48627451062202454 0.48627451062202454 0.45490196347236633
0.002463054144755006 0.30033159255981445 0.5063241124153137 0.658823549747467 0.6666666865348816 0.6549019813537598
0.002216748660430312 0.31170061230659485 0.7205533385276794 0.6823529601097107 0.686274528503418 0.6666666865348816
0.10985221713781357 0.23038055002689362 0.9889327883720398 0.3764705955982208 0.364705890417099 0.3294117748737335
0.004187192302197218 0.25090792775154114 0.09169960767030716 0.658823549747467 0.6705882549285889 0.6039215922355652
0.002463054144755006 0.17606189846992493 0.4383399188518524 0.6705882549285889 0.6784313917160034 0.6352941393852234
0.1948275864124298 0.17148271203041077 0.9964426755905151 0.95686274766922 0.9764705896377563 1.0
0.002216748660430312 0.21080057322978973 0.9853755235671997 0.27843138575553894 0.25882354378700256 0.23529411852359772
0.004679802805185318 0.28612032532691956 0.041897233575582504 0.25882354378700256 0.24705882370471954 0.21960784494876862
0.1588670015335083 0.30648982524871826 0.9897233247756958 0.8745098114013672 0.886274516582489 0.9215686321258545
0.0027093596290796995 0.31233224272727966 0.4162055253982544 0.6745098233222961 0.6784313917160034 0.6470588445663452
0.002463054144755006 0.17132480442523956 0.42885375022888184 0.6705882549285889 0.686274528503418 0.6313725709915161
0.0027093596290796995 0.28043580055236816 0.40395256876945496 0.6705882549285889 0.6941176652908325 0.686274528503418
0.22709359228610992 0.17985157668590546 0.9964426755905151 0.9725490212440491 0.9882352948188782 1.0
0.0032019703648984432 0.22043265402317047 0.25256916880607605 0.6823529601097107 0.6901960968971252 0.6470588445663452
0.0017241379246115685 0.16216643154621124 0.5920948386192322 0.6666666865348816 0.6745098233222961 0.6313725709915161
0.056896552443504333 0.2761724293231964 0.00830039568245411 0.5176470875740051 0.4901960790157318 0.41960784792900085
0.001970443408936262 0.2990683615207672 0.9490118622779846 0.45098039507865906 0.45490196347236633 0.3921568691730499
0.0017241379246115685 0.25485551357269287 0.9146245121955872 0.5490196347236633 0.5568627715110779 0.5137255191802979
0.1665024608373642 0.2125374972820282 0.9916995763778687 0.9960784316062927 1.0 1.0
0.002463054144755006 0.15869256854057312 0.4383399188518524 0.6745098233222961 0.6823529601097107 0.6313725709915161
0.24014778435230255 0.18158850073814392 0.006719367578625679 0.6078431606292725 0.6196078658103943 0.545098066329956
0.1990147829055786 0.19122059643268585 0.9944664239883423 0.9529411792755127 0.9647058844566345 0.9843137264251709
0.008374384604394436 0.2526448667049408 0.9877470135688782 0.27843138575553894 0.25882354378700256 0.23529411852359772
0.000985221704468131 0.15885046124458313 0.8612648248672485 0.5254902243614197 0.5333333611488342 0.48235294222831726
0.115024633705616 0.2215379774570465 0.00830039568245411 0.658823549747467 0.6470588445663452 0.5803921818733215
0.001970443408936262 0.17385125160217285 0.5525691509246826 0.6666666865348816 0.6784313917160034 0.6352941393852234
0.023152709007263184 0.2638559937477112 0.9877470135688782 0.3686274588108063 0.3529411852359772 0.30588236451148987
0.003940886817872524 0.18174640834331512 0.23043477535247803 0.686274528503418 0.7019608020782471 0.6470588445663452
0.005665024742484093 0.2327490895986557 0.038735177367925644 0.20000000298023224 0.16862745583057404 0.1568627506494522
0.1231527104973793 0.27743566036224365 0.007905138656497002 0.5058823823928833 0.4941176474094391 0.43529412150382996
0.18793103098869324 0.25943470001220703 0.9889327883720398 0.9254902005195618 0.9254902005195618 0.95686274766922
0.16034482419490814 0.30822673439979553 0.007509881630539894 0.5686274766921997 0.5333333611488342 0.49803921580314636
0.0032019703648984432 0.2763303220272064 0.2446640282869339 0.686274528503418 0.7019608020782471 0.6470588445663452
0.002216748660430312 0.26811936497688293 0.5328063368797302 0.6705882549285889 0.6941176652908325 0.6549019813537598
0.001970443408936262 0.2010105848312378 0.9458497762680054 0.45098039507865906 0.43921568989753723 0.37254902720451355
0.17142857611179352 0.21901153028011322 0.991304337978363 1.0 1.0 1.0
0.002955665113404393 0.224380224943161 0.2873517870903015 0.6784313917160034 0.6901960968971252 0.6470588445663452
0.12512315809726715 0.15885046124458313 0.007905138656497002 0.5803921818733215 0.572549045085907 0.5215686559677124
0.001231527072377503 0.1951681673526764 0.8541501760482788 0.6078431606292725 0.6117647290229797 0.5803921818733215
0.002955665113404393 0.23401232063770294 0.3166007995605469 0.6705882549285889 0.6823529601097107 0.6392157077789307
0.0014778325567021966 0.2095373421907425 0.7189723253250122 0.7137255072593689 0.7176470756530762 0.6980392336845398
0.0036945813335478306 0.3098057806491852 0.134782612323761 0.6745098233222961 0.6823529601097107 0.6313725709915161
0.001970443408936262 0.2561187446117401 0.6098814010620117 0.7058823704719543 0.7137255072593689 0.6627451181411743
0.028817733749747276 0.1640612632036209 0.9889327883720398 0.3333333432674408 0.3176470696926117 0.27450981736183167
0.07512315362691879 0.19990526139736176 0.9889327883720398 0.4000000059604645 0.3843137323856354 0.33725491166114807
0.2460591197013855 0.17764092981815338 0.0063241105526685715 0.5176470875740051 0.5254902243614197 0.4431372582912445
0.12955665588378906 0.25090792775154114 0.007905138656497002 0.47058823704719543 0.4588235318660736 0.4000000059604645
0.11379310488700867 0.20843201875686646 0.00830039568245411 0.6039215922355652 0.5921568870544434 0.5176470875740051
0.004187192302197218 0.30064740777015686 0.05533596873283386 0.658823549747467 0.6549019813537598 0.5843137502670288
0.00911330059170723 0.22611716389656067 0.013438735157251358 0.2862745225429535 0.26274511218070984 0.21568627655506134
0.009852216579020023 0.20053687691688538 0.9881423115730286 0.239215686917305 0.2235294133424759 0.1882352977991104
0.002463054144755006 0.29717352986335754 0.507905125617981 0.6627451181411743 0.6745098233222961 0.6470588445663452
0.24064038693904877 0.206695094704628 0.0071146246045827866 0.47058823704719543 0.48235294222831726 0.4000000059604645
0.07832512259483337 0.24869729578495026 0.9885375499725342 0.41960784792900085 0.3921568691730499 0.3529411852359772
0.001231527072377503 0.18016737699508667 0.834782600402832 0.5960784554481506 0.6039215922355652 0.5529412031173706
0.0014778325567021966 0.22974893450737 0.8806324005126953 0.5882353186607361 0.6000000238418579 0.5647059082984924
0.06059113144874573 0.3132796585559845 0.9893280863761902 0.43529412150382996 0.42352941632270813 0.3490196168422699
0.12906403839588165 0.2269066721200943 0.007905138656497002 0.5058823823928833 0.5098039507865906 0.47843137383461
0.13399015367031097 0.17464077472686768 0.007905138656497002 0.5607843399047852 0.545098066329956 0.4470588266849518
0.0032019703648984432 0.2790146768093109 0.27430829405784607 0.6823529601097107 0.6901960968971252 0.6392157077789307
0.22783251106739044 0.17890414595603943 0.9964426755905151 0.9725490212440491 0.9882352948188782 1.0
0.16083744168281555 0.1871151179075241 0.992094874382019 0.7490196228027344 0.7921568751335144 0.800000011920929
0.000985221704468131 0.1634296476840973 0.8379446864128113 0.5490196347236633 0.5568627715110779 0.5372549295425415
0.002955665113404393 0.2213800698518753 0.28774702548980713 0.686274528503418 0.6941176652908325 0.6509804129600525
0.016009852290153503 0.26243487000465393 0.9877470135688782 0.364705890417099 0.33725491166114807 0.30588236451148987
0.001231527072377503 0.17353545129299164 0.7011857628822327 0.6666666865348816 0.6705882549285889 0.6078431606292725
0.033497538417577744 0.23338070511817932 0.9881423115730286 0.3921568691730499 0.3764705955982208 0.3333333432674408
0.0017241379246115685 0.16769303381443024 0.613043487071991 0.6745098233222961 0.6823529601097107 0.6392157077789307
0.0017241379246115685 0.26527711749076843 0.8276680111885071 0.6392157077789307 0.6470588445663452 0.6352941393852234
0.07044334709644318 0.22753828763961792 0.9885375499725342 0.4117647111415863 0.4000000059604645 0.34117648005485535
0.001970443408936262 0.3049107789993286 0.7375494241714478 0.6901960968971252 0.6901960968971252 0.6823529601097107
0.1463054120540619 0.23148587346076965 0.007905138656497002 0.5490196347236633 0.5372549295425415 0.47843137383461
0.001231527072377503 0.18269382417201996 0.8446640372276306 0.5960784554481506 0.6000000238418579 0.5686274766921997
0.1623152643442154 0.15900836884975433 0.9932806491851807 0.6078431606292725 0.6431372761726379 0.6313725709915161
0.0017241379246115685 0.25185537338256836 0.8110671639442444 0.6627451181411743 0.6705882549285889 0.6509804129600525
0.09630541503429413 0.18790462613105774 0.9893280863761902 0.3843137323856354 0.3686274588108063 0.32156863808631897
0.16083744168281555 0.1754302829504013 0.0071146246045827866 0.501960813999176 0.49803921580314636 0.3803921639919281
0.22364531457424164 0.2065371870994568 0.9936758875846863 0.9686274528503418 0.9803921580314636 1.0
0.002463054144755006 0.17969366908073425 0.46007904410362244 0.658823549747467 0.6823529601097107 0.6352941393852234
0.004187192302197218 0.18443076312541962 0.19920948147773743 0.6784313917160034 0.6980392336845398 0.6196078658103943
0.17118225991725922 0.23953892290592194 0.007509881630539894 0.5372549295425415 0.5215686559677124 0.4745098054409027
0.21182265877723694 0.16437707841396332 0.9972332119941711 0.9490196108818054 0.9725490212440491 0.9725490212440491
0.1192118227481842 0.17274592816829681 0.9901185631752014 0.3529411852359772 0.34117648005485535 0.30588236451148987
0.01822660118341446 0.21648508310317993 0.9881423115730286 0.2980392277240753 0.2862745225429535 0.250980406999588
0.001970443408936262 0.1635875552892685 0.5561264753341675 0.6549019813537598 0.6784313917160034 0.6235294342041016
0.002216748660430312 0.17700931429862976 0.49802371859550476 0.6549019813537598 0.6784313917160034 0.6313725709915161
0.1504926085472107 0.2671719491481781 0.007509881630539894 0.5098039507865906 0.48627451062202454 0.43921568989753723
0.001970443408936262 0.2990683615207672 0.9490118622779846 0.45098039507865906 0.45490196347236633 0.3921568691730499
0.001970443408936262 0.27427759766578674 0.6505928635597229 0.7098039388656616 0.7098039388656616 0.6784313917160034
0.0032019703648984432 0.21964314579963684 0.21660079061985016 0.6784313917160034 0.6784313917160034 0.6313725709915161
0.0027093596290796995 0.2785409688949585 0.40948617458343506 0.6627451181411743 0.686274528503418 0.6705882549285889
0.018719211220741272 0.24080215394496918 0.00909090880304575 0.3803921639919281 0.37254902720451355 0.32156863808631897
0.1903940886259079 0.22501184046268463 0.991304337978363 0.9607843160629272 0.9725490212440491 0.9921568632125854
0.10147783160209656 0.2878572642803192 0.007905138656497002 0.46666666865348816 0.47058823704719543 0.4000000059604645
0.007881773635745049 0.18474656343460083 0.011067193932831287 0.5764706134796143 0.5490196347236633 0.5098039507865906
0.0027093596290796995 0.2209063619375229 0.4166007936000824 0.6745098233222961 0.6823529601097107 0.6313725709915161
0.0032019703648984432 0.3079109489917755 0.2339920997619629 0.6941176652908325 0.7058823704719543 0.6627451181411743
0.002463054144755006 0.31422707438468933 0.539130449295044 0.6627451181411743 0.6666666865348816 0.6470588445663452
0.08423645049333572 0.18016737699508667 0.9893280863761902 0.38823530077934265 0.364705890417099 0.3176470696926117
0.0014778325567021966 0.21932733058929443 0.8189723491668701 0.6509804129600525 0.658823549747467 0.6470588445663452
0.001231527072377503 0.19043107330799103 0.8094861507415771 0.6196078658103943 0.6274510025978088 0.615686297416687
0.005172413773834705 0.18806253373622894 0.07628458738327026 0.686274528503418 0.6980392336845398 0.6313725709915161
0.0032019703648984432 0.2096952497959137 0.24861660599708557 0.6901960968971252 0.6901960968971252 0.658823549747467
0.004433497320860624 0.3019106388092041 0.046640317887067795 0.6705882549285889 0.6784313917160034 0.5960784554481506
0.0014778325567021966 0.2125374972820282 0.8308300375938416 0.6392157077789307 0.6470588445663452 0.6274510025978088
0.001970443408936262 0.19690510630607605 0.9513834118843079 0.4156862795352936 0.40784314274787903 0.3490196168422699
0.001231527072377503 0.16564029455184937 0.7735177874565125 0.6196078658103943 0.6235294342041016 0.5921568870544434
0.17709359526634216 0.15948207676410675 0.006719367578625679 0.6392157077789307 0.6352941393852234 0.5568627715110779
0.2416256219148636 0.3071214258670807 0.9885375499725342 1.0 1.0 1.0
0.0017241379246115685 0.27506712079048157 0.8782608509063721 0.5921568870544434 0.6000000238418579 0.5803921818733215
0.06773398816585541 0.21490605175495148 0.9885375499725342 0.3803921639919281 0.37254902720451355 0.3137255012989044
0.001970443408936262 0.22216959297657013 0.5924901366233826 0.6901960968971252 0.7019608020782471 0.658823549747467
0.01206896547228098 0.2962261140346527 0.9885375499725342 0.3529411852359772 0.3333333432674408 0.30980393290519714
0.0071428571827709675 0.16564029455184937 0.03122529573738575 0.20392157137393951 0.16862745583057404 0.1411764770746231
0.23226600885391235 0.2412758618593216 0.006719367578625679 0.5960784554481506 0.5803921818733215 0.48235294222831726
0.0014778325567021966 0.23969683051109314 0.9335968494415283 0.5058823823928833 0.5098039507865906 0.45490196347236633
0.0017241379246115685 0.24759197235107422 0.9833992123603821 0.3019607961177826 0.29019609093666077 0.2549019753932953
0.002216748660430312 0.31075319647789 0.665217399597168 0.6823529601097107 0.6823529601097107 0.6823529601097107
0.21527093648910522 0.2096952497959137 0.0071146246045827866 0.545098066329956 0.5372549295425415 0.4470588266849518
0.004679802805185318 0.30096322298049927 0.03952569141983986 0.15294118225574493 0.1411764770746231 0.10588235408067703
0.0017241379246115685 0.2613295316696167 0.9754940867424011 0.3450980484485626 0.33725491166114807 0.29019609093666077
0.12266010046005249 0.31185850501060486 0.9897233247756958 0.43921568989753723 0.42352941632270813 0.3803921639919281
0.001231527072377503 0.20258961617946625 0.8300395011901855 0.6274510025978088 0.6392157077789307 0.6039215922355652
0.08940886706113815 0.15995578467845917 0.00830039568245411 0.49803921580314636 0.501960813999176 0.43921568989753723
0.0027093596290796995 0.15885046124458313 0.37154150009155273 0.6745098233222961 0.6901960968971252 0.6313725709915161
0.001970443408936262 0.23764409124851227 0.6090909242630005 0.7058823704719543 0.7137255072593689 0.6627451181411743
0.0017241379246115685 0.21380072832107544 0.6450592875480652 0.6941176652908325 0.7019608020782471 0.6509804129600525
0.0017241379246115685 0.17732512950897217 0.5905138254165649 0.6705882549285889 0.6823529601097107 0.6470588445663452
0.003940886817872524 0.2126954048871994 0.17035573720932007 0.6666666865348816 0.6549019813537598 0.6196078658103943
0.006157635245472193 0.2414337545633316 0.9877470135688782 0.26274511218070984 0.250980406999588 0.21568627655506134
0.15320196747779846 0.2608558237552643 0.007509881630539894 0.501960813999176 0.4901960790157318 0.4313725531101227
0.0027093596290796995 0.26906678080558777 0.39723318815231323 0.6745098233222961 0.686274528503418 0.658823549747467
0.14039409160614014 0.26038211584091187 0.9897233247756958 0.4470588266849518 0.43529412150382996 0.40784314274787903
0.0017241379246115685 0.2619611620903015 0.9007905125617981 0.5764706134796143 0.5882353186607361 0.5529412031173706
0.002955665113404393 0.2783830761909485 0.37272727489471436 0.6509804129600525 0.6784313917160034 0.6509804129600525
0.09211822599172592 0.25359228253364563 0.00830039568245411 0.4627451002597809 0.45490196347236633 0.40784314274787903
0.005665024742484093 0.31422707438468933 0.017391303554177284 0.37254902720451355 0.3607843220233917 0.29411765933036804
0.11871921271085739 0.3039633631706238 0.9897233247756958 0.4901960790157318 0.4627451002597809 0.42352941632270813
0.11477832496166229 0.24269698560237885 0.9889327883720398 0.43529412150382996 0.41960784792900085 0.37254902720451355
0.001970443408936262 0.25122374296188354 0.6407114863395691 0.7137255072593689 0.7215686440467834 0.6705882549285889
0.0014778325567021966 0.2098531574010849 0.6960474252700806 0.7058823704719543 0.7137255072593689 0.6627451181411743
0.20960591733455658 0.28280436992645264 0.0071146246045827866 0.6078431606292725 0.6039215922355652 0.5333333611488342
0.13325123488903046 0.1640612632036209 0.007509881630539894 0.529411792755127 0.5254902243614197 0.4470588266849518
0.13990147411823273 0.28927838802337646 0.9897233247756958 0.47843137383461 0.4627451002597809 0.45098039507865906
0.034729063510894775 0.2095373421907425 0.009486165829002857 0.5372549295425415 0.545098066329956 0.501960813999176
0.003940886817872524 0.16532449424266815 0.1818181872367859 0.6823529601097107 0.6941176652908325 0.6117647290229797
0.002463054144755006 0.2785409688949585 0.4849802255630493 0.6784313917160034 0.6901960968971252 0.6627451181411743
0.0014778325567021966 0.17921996116638184 0.6770750880241394 0.6823529601097107 0.6941176652908325 0.6196078658103943
0.16724137961864471 0.2966998219490051 0.007509881630539894 0.6941176652908325 0.6470588445663452 0.5921568870544434
0.001970443408936262 0.31470078229904175 0.821739137172699 0.6078431606292725 0.6078431606292725 0.6000000238418579
0.002955665113404393 0.1781146377325058 0.2968379557132721 0.6901960968971252 0.7058823704719543 0.6509804129600525
0.002955665113404393 0.31075319647789 0.3019762933254242 0.6745098233222961 0.6784313917160034 0.6470588445663452
0.0027093596290796995 0.30333176255226135 0.42490118741989136 0.6745098233222961 0.6784313917160034 0.686274528503418
0.001231527072377503 0.17779883742332458 0.7731225490570068 0.6235294342041016 0.6352941393852234 0.6000000238418579
0.1307881772518158 0.2924364507198334 0.007509881630539894 0.6196078658103943 0.6274510025978088 0.5333333611488342
0.20935960114002228 0.16421917080879211 0.9972332119941711 0.9490196108818054 0.9725490212440491 0.9725490212440491
0.15640394389629364 0.25090792775154114 0.9897233247756958 0.7607843279838562 0.7764706015586853 0.8117647171020508
0.18152709305286407 0.1984841376543045 0.9932806491851807 0.9764705896377563 0.9921568632125854 1.0
0.002955665113404393 0.3075951337814331 0.3339920938014984 0.6627451181411743 0.6705882549285889 0.6274510025978088
0.002216748660430312 0.25753986835479736 0.5343873500823975 0.686274528503418 0.6980392336845398 0.6549019813537598
0.002216748660430312 0.30854254961013794 0.6490118503570557 0.686274528503418 0.6823529601097107 0.7019608020782471
0.23497536778450012 0.24506552517414093 0.006719367578625679 0.47058823704719543 0.4627451002597809 0.364705890417099
0.2263546735048294 0.23669667541980743 0.991304337978363 0.9803921580314636 0.9843137264251709 1.0
0.06428571790456772 0.25753986835479736 0.9885375499725342 0.4274509847164154 0.41960784792900085 0.3607843220233917
0.18399015069007874 0.16437707841396332 0.006719367578625679 0.47843137383461 0.4901960790157318 0.4156862795352936
0.08940886706113815 0.24064424633979797 0.9885375499725342 0.4313725531101227 0.4156862795352936 0.37254902720451355
0.001970443408936262 0.31059530377388 0.852173924446106 0.5882353186607361 0.5921568870544434 0.572549045085907
0.07438423484563828 0.20227380096912384 0.00909090880304575 0.5490196347236633 0.5372549295425415 0.47058823704719543
0.002955665113404393 0.19595767557621002 0.3375494182109833 0.6705882549285889 0.686274528503418 0.6313725709915161
0.004926108289510012 0.16295593976974487 0.10118576884269714 0.6705882549285889 0.6823529601097107 0.6078431606292725
0.0027093596290796995 0.3023843467235565 0.4205533564090729 0.6784313917160034 0.6705882549285889 0.6745098233222961
0.2460591197013855 0.27680402994155884 0.29841896891593933 0.19607843458652496 0.20392157137393951 0.250980406999588
0.0014778325567021966 0.21948523819446564 0.8679841756820679 0.6000000238418579 0.6039215922355652 0.5803921818733215
0.001231527072377503 0.1605874001979828 0.9011857509613037 0.4941176474094391 0.49803921580314636 0.43529412150382996
0.0027093596290796995 0.21127428114414215 0.3905138373374939 0.6745098233222961 0.6823529601097107 0.6392157077789307
0.16009852290153503 0.2846992015838623 0.9897233247756958 0.8784313797950745 0.8980392217636108 0.9098039269447327
0.002463054144755006 0.26306647062301636 0.4830039441585541 0.6745098233222961 0.6980392336845398 0.658823549747467
0.001231527072377503 0.19374704360961914 0.7932806611061096 0.6274510025978088 0.6431372761726379 0.6392157077789307
0.004187192302197218 0.21790620684623718 0.15415020287036896 0.6823529601097107 0.686274528503418 0.6235294342041016
0.06034482643008232 0.270330011844635 0.00830039568245411 0.4156862795352936 0.45490196347236633 0.4117647111415863
0.19384236633777618 0.1637454628944397 0.006719367578625679 0.4627451002597809 0.4588235318660736 0.38823530077934265
0.002216748660430312 0.2839096784591675 0.6126482486724854 0.6980392336845398 0.7019608020782471 0.6705882549285889
0.057389162480831146 0.2753829061985016 0.00830039568245411 0.43529412150382996 0.4117647111415863 0.3490196168422699
0.0032019703648984432 0.286751925945282 0.22687746584415436 0.686274528503418 0.6980392336845398 0.6549019813537598
0.0017241379246115685 0.22327491641044617 0.9545454382896423 0.42352941632270813 0.4117647111415863 0.3450980484485626
0.07093595713376999 0.3017527163028717 0.9893280863761902 0.4627451002597809 0.45098039507865906 0.3921568691730499
0.2376847267150879 0.1984841376543045 0.006719367578625679 0.48627451062202454 0.5058823823928833 0.4274509847164154
0.21231527626514435 0.18553608655929565 0.9952569007873535 0.9686274528503418 0.9843137264251709 0.9960784316062927
0.001231527072377503 0.15916627645492554 0.7430830001831055 0.6274510025978088 0.6392157077789307 0.6039215922355652
0.002463054144755006 0.18600979447364807 0.46561264991760254 0.6666666865348816 0.6784313917160034 0.6352941393852234
0.06428571790456772 0.2095373421907425 0.9885375499725342 0.4117647111415863 0.4000000059604645 0.34117648005485535
0.000985221704468131 0.15916627645492554 0.873913049697876 0.5098039507865906 0.5098039507865906 0.47058823704719543
0.09433497488498688 0.17906205356121063 0.9893280863761902 0.35686275362968445 0.3490196168422699 0.2980392277240753
0.002216748660430312 0.3042791783809662 0.9822134375572205 0.33725491166114807 0.32156863808631897 0.27843138575553894
0.23546798527240753 0.2588030993938446 0.0071146246045827866 0.4941176474094391 0.48627451062202454 0.38823530077934265
0.0514778308570385 0.3129638433456421 0.008695651777088642 0.5176470875740051 0.545098066329956 0.4745098054409027
0.002463054144755006 0.21080057322978973 0.499604731798172 0.6745098233222961 0.686274528503418 0.6509804129600525
0.0017241379246115685 0.19327333569526672 0.6217391490936279 0.6823529601097107 0.6980392336845398 0.6431372761726379
0.002955665113404393 0.292278528213501 0.3272727131843567 0.6705882549285889 0.6784313917160034 0.6352941393852234
0.0027093596290796995 0.3128059506416321 0.5169960260391235 0.6509804129600525 0.6705882549285889 0.6470588445663452
0.002216748660430312 0.19485236704349518 0.9826086759567261 0.2823529541492462 0.2666666805744171 0.23137255012989044
0.001970443408936262 0.1981683224439621 0.9474308490753174 0.4313725531101227 0.4274509847164154 0.35686275362968445
0.002463054144755006 0.2987525761127472 0.5328063368797302 0.6627451181411743 0.6705882549285889 0.6509804129600525
0.0032019703648984432 0.23480182886123657 0.23083004355430603 0.686274528503418 0.6941176652908325 0.6392157077789307
0.003448275849223137 0.1669035255908966 0.26798418164253235 0.6745098233222961 0.7019608020782471 0.6392157077789307
0.08571428805589676 0.27411970496177673 0.00830039568245411 0.4117647111415863 0.4431372582912445 0.4000000059604645
0.0017241379246115685 0.22201168537139893 0.6446640491485596 0.7058823704719543 0.7137255072593689 0.658823549747467
0.004433497320860624 0.2846992015838623 0.06324110925197601 0.6274510025978088 0.6392157077789307 0.5568627715110779
0.0027093596290796995 0.2666982412338257 0.4272727370262146 0.6823529601097107 0.6901960968971252 0.6470588445663452
0.0711822658777237 0.23495973646640778 0.008695651777088642 0.5176470875740051 0.5176470875740051 0.47843137383461
0.001231527072377503 0.18316753208637238 0.7802371382713318 0.6313725709915161 0.6352941393852234 0.6117647290229797
0.0014778325567021966 0.23890730738639832 0.864426851272583 0.6235294342041016 0.6274510025978088 0.5960784554481506
0.02142857201397419 0.23464392125606537 0.00909090880304575 0.43921568989753723 0.46666666865348816 0.43921568989753723
0.1780788153409958 0.2070108950138092 0.007509881630539894 0.45098039507865906 0.4431372582912445 0.3607843220233917
0.20886699855327606 0.24269698560237885 0.9905138611793518 0.9725490212440491 0.9882352948188782 1.0
0.0027093596290796995 0.1612190157175064 0.40316206216812134 0.6823529601097107 0.6901960968971252 0.6470588445663452
0.0036945813335478306 0.3075951337814331 0.1355731189250946 0.6705882549285889 0.686274528503418 0.6313725709915161
0.005418719258159399 0.18569397926330566 0.07233201712369919 0.686274528503418 0.6980392336845398 0.6313725709915161
0.0027093596290796995 0.23164376616477966 0.43043479323387146 0.6784313917160034 0.6941176652908325 0.6392157077789307
0.10418719053268433 0.19911573827266693 0.00830039568245411 0.7372549176216125 0.7333333492279053 0.6627451181411743
0.0032019703648984432 0.2561187446117401 0.2766798436641693 0.686274528503418 0.6980392336845398 0.6549019813537598
0.002955665113404393 0.2302226424217224 0.3687747120857239 0.6627451181411743 0.6745098233222961 0.6470588445663452
0.11822660267353058 0.2845412790775299 0.9893280863761902 0.4588235318660736 0.4431372582912445 0.40784314274787903
0.15344826877117157 0.1814306080341339 0.007509881630539894 0.5843137502670288 0.5882353186607361 0.5176470875740051
0.0014778325567021966 0.22248539328575134 0.7375494241714478 0.7137255072593689 0.7137255072593689 0.6745098233222961
0.07783251255750656 0.2300647348165512 0.008695651777088642 0.6196078658103943 0.6078431606292725 0.5411764979362488
0.0990147814154625 0.2355913519859314 0.9889327883720398 0.43529412150382996 0.42352941632270813 0.364705890417099
0.002463054144755006 0.2299068421125412 0.5158102512359619 0.6745098233222961 0.6980392336845398 0.6509804129600525
0.001970443408936262 0.21601137518882751 0.9802371263504028 0.3019607961177826 0.2823529541492462 0.2666666805744171
0.002463054144755006 0.30333176255226135 0.552173912525177 0.6666666865348816 0.6745098233222961 0.6549019813537598
0.0064039407297968864 0.19406284391880035 0.036758892238140106 0.1921568661928177 0.1725490242242813 0.14901961386203766
0.003940886817872524 0.29701563715934753 0.072727270424366 0.6470588445663452 0.658823549747467 0.5921568870544434
0.0017241379246115685 0.2643297016620636 0.9015810489654541 0.572549045085907 0.5960784554481506 0.5568627715110779
0.17142857611179352 0.21901153028011322 0.991304337978363 1.0 1.0 1.0
0.002216748660430312 0.15853466093540192 0.47114625573158264 0.6666666865348816 0.6745098233222961 0.6235294342041016
0.13349753618240356 0.2185378223657608 0.007905138656497002 0.4470588266849518 0.4588235318660736 0.3921568691730499
0.0032019703648984432 0.2708037197589874 0.19169960916042328 0.6784313917160034 0.686274528503418 0.6313725709915161
0.002463054144755006 0.29480499029159546 0.5098814368247986 0.6627451181411743 0.6705882549285889 0.6509804129600525
0.2108374387025833 0.18790462613105774 0.9952569007873535 0.9647058844566345 0.9803921580314636 0.9921568632125854
0.005172413773834705 0.20922154188156128 0.07628458738327026 0.6823529601097107 0.7019608020782471 0.6235294342041016
0.0027093596290796995 0.23732827603816986 0.4375494122505188 0.6823529601097107 0.6980392336845398 0.6431372761726379
0.056896552443504333 0.25706616044044495 0.008695651777088642 0.4745098054409027 0.4627451002597809 0.40392157435417175
0.0027093596290796995 0.2384335994720459 0.4047430753707886 0.6784313917160034 0.686274528503418 0.6431372761726379
0.23891626298427582 0.286751925945282 0.9885375499725342 0.9607843160629272 0.9647058844566345 0.9803921580314636
0.0017241379246115685 0.2761724293231964 0.9735177755355835 0.364705890417099 0.3529411852359772 0.3176470696926117
0.20566502213478088 0.29196274280548096 0.0071146246045827866 0.5647059082984924 0.5607843399047852 0.4901960790157318
0.12586206197738647 0.23669667541980743 0.007905138656497002 0.529411792755127 0.5333333611488342 0.4627451002597809
0.2258620709180832 0.17385125160217285 0.006719367578625679 0.5490196347236633 0.5568627715110779 0.47058823704719543
0.002955665113404393 0.28848886489868164 0.3371541500091553 0.6745098233222961 0.6784313917160034 0.6470588445663452
0.04039409011602402 0.22595925629138947 0.9881423115730286 0.3803921639919281 0.3686274588108063 0.3019607961177826
0.004433497320860624 0.22201168537139893 0.12924900650978088 0.6823529601097107 0.686274528503418 0.6235294342041016
0.09458128362894058 0.29448917508125305 0.007905138656497002 0.42352941632270813 0.4117647111415863 0.3450980484485626
0.003448275849223137 0.28343597054481506 0.18972331285476685 0.6784313917160034 0.686274528503418 0.6352941393852234
0.001231527072377503 0.16548238694667816 0.7043478488922119 0.658823549747467 0.6705882549285889 0.6039215922355652
0.001970443408936262 0.30001577734947205 0.791304349899292 0.658823549747467 0.6627451181411743 0.6431372761726379
0.21650245785713196 0.1755881905555725 0.9964426755905151 0.9686274528503418 0.9843137264251709 0.9960784316062927
0.001231527072377503 0.1984841376543045 0.8292490243911743 0.6235294342041016 0.6352941393852234 0.5921568870544434
0.005172413773834705 0.18348334729671478 0.07984189689159393 0.686274528503418 0.6980392336845398 0.6313725709915161
0.015517241321504116 0.29717352986335754 0.009881422854959965 0.46666666865348816 0.43529412150382996 0.3843137323856354
0.12487684935331345 0.18853624165058136 0.007905138656497002 0.5333333611488342 0.5372549295425415 0.46666666865348816
0.004679802805185318 0.23401232063770294 0.09683794528245926 0.6745098233222961 0.6784313917160034 0.615686297416687
0.07339901477098465 0.17290383577346802 0.008695651777088642 0.6117647290229797 0.6235294342041016 0.5411764979362488
0.05123152583837509 0.2965419292449951 0.9893280863761902 0.43921568989753723 0.4274509847164154 0.3529411852359772
0.23596058785915375 0.25153955817222595 0.0071146246045827866 0.5882353186607361 0.5764706134796143 0.501960813999176
0.004926108289510012 0.19437864422798157 0.07667984068393707 0.6784313917160034 0.6901960968971252 0.6235294342041016
0.2376847267150879 0.3072793185710907 0.0071146246045827866 0.5058823823928833 0.49803921580314636 0.4156862795352936
0.12438423931598663 0.2155376672744751 0.9893280863761902 0.40784314274787903 0.40784314274787903 0.3686274588108063
0.002955665113404393 0.224380224943161 0.2968379557132721 0.6941176652908325 0.6980392336845398 0.6666666865348816
0.0871921181678772 0.2936996817588806 0.9893280863761902 0.45490196347236633 0.4313725531101227 0.3843137323856354
0.14926108717918396 0.1981683224439621 0.007509881630539894 0.5058823823928833 0.501960813999176 0.42352941632270813
0.001970443408936262 0.25785568356513977 0.7071146368980408 0.7215686440467834 0.7372549176216125 0.6823529601097107
0.005665024742484093 0.20748460292816162 0.050197627395391464 0.7372549176216125 0.7529411911964417 0.686274528503418
0.22389163076877594 0.2873835563659668 0.9885375499725342 0.9607843160629272 0.9647058844566345 0.9843137264251709
0.24532020092010498 0.31075319647789 0.9885375499725342 0.9960784316062927 0.9960784316062927 0.9960784316062927
0.0032019703648984432 0.25406599044799805 0.2494071125984192 0.6980392336845398 0.7058823704719543 0.6627451181411743
0.20812807977199554 0.20574766397476196 0.0071146246045827866 0.5411764979362488 0.5490196347236633 0.45490196347236633
0.1071428582072258 0.29433128237724304 0.9893280863761902 0.4627451002597809 0.4470588266849518 0.40392157435417175
0.07192118465900421 0.22501184046268463 0.9885375499725342 0.40392157435417175 0.3921568691730499 0.3333333432674408
0.001970443408936262 0.18458865582942963 0.5699604749679565 0.6705882549285889 0.6823529601097107 0.6392157077789307
0.1307881772518158 0.2212221622467041 0.9893280863761902 0.3921568691730499 0.3803921639919281 0.3607843220233917
0.001970443408936262 0.19327333569526672 0.5592885613441467 0.6666666865348816 0.6784313917160034 0.6352941393852234
0.16921181976795197 0.26275068521499634 0.9893280863761902 0.8588235378265381 0.8745098114013672 0.886274516582489
0.023645320907235146 0.27411970496177673 0.008695651777088642 0.47843137383461 0.45490196347236633 0.40784314274787903
0.0017241379246115685 0.2839096784591675 0.9715415239334106 0.3764705955982208 0.364705890417099 0.3294117748737335
0.0032019703648984432 0.2564345598220825 0.19090908765792847 0.6745098233222961 0.6784313917160034 0.6235294342041016
0.0913793072104454 0.24585504829883575 0.00830039568245411 0.501960813999176 0.4901960790157318 0.42352941632270813
0.13300491869449615 0.23653876781463623 0.007905138656497002 0.4941176474094391 0.48627451062202454 0.4274509847164154
0.004926108289510012 0.247276172041893 0.06561265140771866 0.6627451181411743 0.6745098233222961 0.6078431606292725
0.0014778325567021966 0.19706299901008606 0.6976284384727478 0.6901960968971252 0.6901960968971252 0.6431372761726379
0.002216748660430312 0.28564661741256714 0.6474308371543884 0.6941176652908325 0.6980392336845398 0.6745098233222961
0.002955665113404393 0.30301594734191895 0.30395257472991943 0.6745098233222961 0.6784313917160034 0.6470588445663452
0.0017241379246115685 0.24538134038448334 0.9735177755355835 0.3529411852359772 0.3450980484485626 0.29411765933036804
0.08152709156274796 0.23417021334171295 0.008695651777088642 0.48627451062202454 0.48235294222831726 0.40392157435417175
0.005172413773834705 0.2556450366973877 0.037154149264097214 0.20000000298023224 0.18039216101169586 0.16862745583057404
0.21995073556900024 0.29780516028404236 0.0071146246045827866 0.5176470875740051 0.4941176474094391 0.40784314274787903
0.2216748744249344 0.2955945134162903 0.0071146246045827866 0.7137255072593689 0.6941176652908325 0.6196078658103943
0.0027093596290796995 0.30838465690612793 0.40869563817977905 0.686274528503418 0.6705882549285889 0.6352941393852234
0.11354679614305496 0.2584872841835022 0.9893280863761902 0.4588235318660736 0.4313725531101227 0.3921568691730499
0.2219211757183075 0.31406915187835693 0.9889327883720398 0.9490196108818054 0.9529411792755127 0.9686274528503418
0.002955665113404393 0.26038211584091187 0.3446640372276306 0.6705882549285889 0.6823529601097107 0.6392157077789307
0.002463054144755006 0.30348965525627136 0.469960480928421 0.6549019813537598 0.6705882549285889 0.6745098233222961
0.002955665113404393 0.2780672609806061 0.29920947551727295 0.6784313917160034 0.6941176652908325 0.6392157077789307
0.002463054144755006 0.3075951337814331 0.5387351512908936 0.6666666865348816 0.6784313917160034 0.6431372761726379
0.06970443576574326 0.281225323677063 0.00830039568245411 0.47058823704719543 0.45490196347236633 0.4117647111415863
0.0014778325567021966 0.22927522659301758 0.7873517870903015 0.6705882549285889 0.6705882549285889 0.6627451181411743
0.002955665113404393 0.25975051522254944 0.3482213318347931 0.6705882549285889 0.6823529601097107 0.6392157077789307
0.026847289875149727 0.2070108950138092 0.9881423115730286 0.3450980484485626 0.33725491166114807 0.29019609093666077
0.0017241379246115685 0.25501343607902527 0.8162055611610413 0.658823549747467 0.6627451181411743 0.6431372761726379
0.0027093596290796995 0.17006158828735352 0.35059288144111633 0.6745098233222961 0.6901960968971252 0.6313725709915161
0.0032019703648984432 0.2987525761127472 0.23517785966396332 0.6901960968971252 0.6980392336845398 0.6470588445663452
0.002955665113404393 0.2098531574010849 0.2956521809101105 0.6705882549285889 0.6941176652908325 0.6549019813537598
0.0017241379246115685 0.2553292214870453 0.752173900604248 0.7019608020782471 0.7098039388656616 0.6666666865348816
0.0014778325567021966 0.15885046124458313 0.6418972611427307 0.6784313917160034 0.686274528503418 0.6431372761726379
