0.5891625881195068 0.6393494606018066 0.9924901127815247 0.33725491166114807 0.3333333432674408 0.3176470696926117
0.4120689630508423 0.7279330492019653 0.2964426875114441 0.6352941393852234 0.6666666865348816 0.6745098233222961
0.5571428537368774 0.7359861135482788 0.29525691270828247 0.6196078658103943 0.6431372761726379 0.6352941393852234
0.506157636642456 0.649139404296875 0.30000001192092896 0.1568627506494522 0.15294118225574493 0.13725490868091583
0.37536945939064026 0.6601926684379578 0.007509881630539894 0.29019609093666077 0.2862745225429535 0.21568627655506134
0.373399019241333 0.6415600776672363 0.19090908765792847 0.3137255012989044 0.30980393290519714 0.29411765933036804
0.37857142090797424 0.7756197452545166 0.9905138611793518 0.33725491166114807 0.3333333432674408 0.3176470696926117
0.4012315273284912 0.751934289932251 0.9905138611793518 0.32156863808631897 0.32156863808631897 0.29019609093666077
0.5009852051734924 0.7786199450492859 0.2956521809101105 0.5490196347236633 0.572549045085907 0.5647059082984924
0.5421182513237 0.7331438660621643 0.2960474193096161 0.6980392336845398 0.7019608020782471 0.7098039388656616
0.42586207389831543 0.7697773575782776 0.9905138611793518 0.3333333432674408 0.3294117748737335 0.30980393290519714
0.4849753677845001 0.7615664005279541 0.0031620552763342857 0.29019609093666077 0.2980392277240753 0.2549019753932953
0.45886698365211487 0.7844623327255249 0.0063241105526685715 0.24705882370471954 0.2705882489681244 0.2705882489681244
0.515763521194458 0.7531975507736206 0.2960474193096161 0.6431372761726379 0.6666666865348816 0.6509804129600525
0.4554187059402466 0.7642507553100586 0.2960474193096161 0.5411764979362488 0.572549045085907 0.5843137502670288
0.5714285969734192 0.7770408987998962 0.9909090995788574 0.3176470696926117 0.30980393290519714 0.3137255012989044
0.46182265877723694 0.6919311285018921 0.0023715414572507143 0.22745098173618317 0.22745098173618317 0.19607843458652496
0.5433497428894043 0.7336175441741943 0.005928853526711464 0.250980406999588 0.25882354378700256 0.239215686917305
0.49408867955207825 0.6639823317527771 0.991304337978363 0.3137255012989044 0.3176470696926117 0.2862745225429535
0.5113300681114197 0.6690351963043213 0.0031620552763342857 0.43921568989753723 0.43921568989753723 0.3921568691730499
0.4000000059604645 0.7334596514701843 0.9905138611793518 0.32549020648002625 0.3294117748737335 0.2980392277240753
0.4886699616909027 0.7729353904724121 0.9901185631752014 0.30980393290519714 0.3137255012989044 0.29411765933036804
0.5403940677642822 0.7530396580696106 0.007509881630539894 0.1411764770746231 0.15294118225574493 0.125490203499794
0.550000011920929 0.7145112752914429 0.991304337978363 0.3176470696926117 0.3176470696926117 0.30980393290519714
0.4652709364891052 0.6579819917678833 0.0063241105526685715 0.5137255191802979 0.4941176474094391 0.41960784792900085
0.5231527090072632 0.7426180243492126 0.2960474193096161 0.6823529601097107 0.6901960968971252 0.686274528503418
0.3842364549636841 0.6464550495147705 0.991304337978363 0.3137255012989044 0.3137255012989044 0.2823529541492462
0.40665024518966675 0.637770414352417 0.0063241105526685715 0.1568627506494522 0.14509804546833038 0.10980392247438431
0.48596060276031494 0.6458234786987305 0.9916995763778687 0.3019607961177826 0.2980392277240753 0.27843138575553894
0.5716748833656311 0.7546186447143555 0.29486167430877686 0.5372549295425415 0.5607843399047852 0.5607843399047852
0.4721674919128418 0.6704563498497009 0.003952569328248501 0.3137255012989044 0.3176470696926117 0.26274511218070984
0.4197044372558594 0.7370914220809937 0.004347825888544321 0.21568627655506134 0.2235294133424759 0.18039216101169586
0.3854679763317108 0.6859308481216431 0.1762845814228058 0.09019608050584793 0.09019608050584793 0.09019608050584793
0.6044334769248962 0.7809884548187256 0.9916995763778687 0.3450980484485626 0.3450980484485626 0.3529411852359772
0.5559113025665283 0.7059845328330994 0.004347825888544321 0.07058823853731155 0.06666667014360428 0.05098039284348488
0.40615764260292053 0.6575083136558533 0.17588932812213898 0.062745101749897 0.062745101749897 0.062745101749897
0.4009852111339569 0.7614085078239441 0.006719367578625679 0.1882352977991104 0.18039216101169586 0.13333334028720856
0.4416256248950958 0.6412442922592163 0.29841896891593933 0.5372549295425415 0.5372549295425415 0.5686274766921997
0.6083743572235107 0.7454602718353271 0.29486167430877686 0.5333333611488342 0.5490196347236633 0.545098066329956
0.5571428537368774 0.7064582109451294 0.2960474193096161 0.26274511218070984 0.25882354378700256 0.27843138575553894
0.47068965435028076 0.7123006582260132 0.0011857707286253572 0.4588235318660736 0.4470588266849518 0.37254902720451355
0.4514778256416321 0.6410863995552063 0.991304337978363 0.3294117748737335 0.3176470696926117 0.2823529541492462
0.4123152792453766 0.6570345759391785 0.2976284623146057 0.501960813999176 0.5215686559677124 0.5372549295425415
0.5891625881195068 0.6788251996040344 0.2960474193096161 0.5372549295425415 0.5568627715110779 0.5686274766921997
0.47733989357948303 0.7874624729156494 0.2956521809101105 0.47843137383461 0.5176470875740051 0.5137255191802979
0.5605911612510681 0.6957208514213562 0.991304337978363 0.30588236451148987 0.3137255012989044 0.3019607961177826
0.42955663800239563 0.7524080276489258 0.004743082914501429 0.14901961386203766 0.15294118225574493 0.12156862765550613
0.5246305465698242 0.7713564038276672 0.00830039568245411 0.10588235408067703 0.125490203499794 0.10980392247438431
0.4248768389225006 0.6625611782073975 0.005533596966415644 0.23137255012989044 0.23137255012989044 0.18431372940540314
0.4160098433494568 0.6774040460586548 0.9909090995788574 0.30980393290519714 0.3137255012989044 0.2823529541492462
0.39064040780067444 0.6750355362892151 0.2972331941127777 0.4588235318660736 0.47843137383461 0.4901960790157318
0.3815270960330963 0.7039318084716797 0.2960474193096161 0.0784313753247261 0.0784313753247261 0.07058823853731155
0.5847290754318237 0.7850939631462097 0.29407113790512085 0.48235294222831726 0.5058823823928833 0.49803921580314636
0.5310344696044922 0.7880941033363342 0.00830039568245411 0.3803921639919281 0.3764705955982208 0.35686275362968445
0.4923645257949829 0.6415600776672363 0.006719367578625679 0.11372549086809158 0.09803921729326248 0.08627451211214066
0.5928571224212646 0.6352439522743225 0.9924901127815247 0.3686274588108063 0.35686275362968445 0.33725491166114807
0.5788177251815796 0.7869887948036194 0.007509881630539894 0.30980393290519714 0.2980392277240753 0.26274511218070984
0.6135467886924744 0.6870361566543579 0.992094874382019 0.8352941274642944 0.8666666746139526 0.9176470637321472
0.46206897497177124 0.6734564900398254 0.003952569328248501 0.29019609093666077 0.29019609093666077 0.24313725531101227
0.5610837340354919 0.6843518018722534 0.9916995763778687 0.3333333432674408 0.32549020648002625 0.3294117748737335
0.4756157696247101 0.6906679272651672 0.9909090995788574 0.3333333432674408 0.3333333432674408 0.2862745225429535
0.6064039468765259 0.6761408448219299 0.992094874382019 0.30588236451148987 0.30588236451148987 0.30588236451148987
0.4194581210613251 0.6530870199203491 0.29802370071411133 0.5098039507865906 0.529411792755127 0.5529412031173706
0.5583744049072266 0.7531975507736206 0.29486167430877686 0.5882353186607361 0.6117647290229797 0.5960784554481506
0.39876848459243774 0.654508113861084 0.991304337978363 0.30980393290519714 0.30980393290519714 0.27843138575553894
0.5995073914527893 0.6410863995552063 0.2964426875114441 0.5098039507865906 0.5176470875740051 0.5137255191802979
0.507881760597229 0.7303016185760498 0.2960474193096161 0.5882353186607361 0.6039215922355652 0.615686297416687
0.37906405329704285 0.654034435749054 0.17075099050998688 0.1411764770746231 0.1411764770746231 0.1411764770746231
0.5603448152542114 0.7339333891868591 0.9909090995788574 0.3450980484485626 0.34117648005485535 0.32549020648002625
0.6009852290153503 0.6414021849632263 0.003952569328248501 0.1568627506494522 0.15294118225574493 0.13725490868091583
0.5726600885391235 0.740249514579773 0.29525691270828247 0.5686274766921997 0.5921568870544434 0.5843137502670288
0.38251230120658875 0.7857255935668945 0.9905138611793518 0.32549020648002625 0.32156863808631897 0.3137255012989044
0.48620688915252686 0.6530870199203491 0.005928853526711464 0.6392157077789307 0.6196078658103943 0.545098066329956
0.4320197105407715 0.7478288412094116 0.9905138611793518 0.3137255012989044 0.3176470696926117 0.29411765933036804
0.5103448033332825 0.7877783179283142 0.19407114386558533 0.07450980693101883 0.07450980693101883 0.06666667014360428
0.48546797037124634 0.7396178841590881 0.0035573123022913933 0.24705882370471954 0.250980406999588 0.1882352977991104
0.4566502571105957 0.7708826661109924 0.9901185631752014 0.2980392277240753 0.3019607961177826 0.2823529541492462
0.4216748774051666 0.7010895013809204 0.2960474193096161 0.5372549295425415 0.5568627715110779 0.572549045085907
0.37167486548423767 0.7475130558013916 0.007509881630539894 0.11764705926179886 0.125490203499794 0.11372549086809158
0.5009852051734924 0.6965103149414062 0.0 0.4745098054409027 0.4470588266849518 0.3843137323856354
0.47315269708633423 0.7741986513137817 0.2960474193096161 0.5058823823928833 0.5372549295425415 0.545098066329956
0.4716748893260956 0.7037738561630249 0.0011857707286253572 0.1411764770746231 0.1411764770746231 0.10980392247438431
0.6071428656578064 0.7670930027961731 0.007509881630539894 0.24705882370471954 0.23529411852359772 0.20000000298023224
0.4655172526836395 0.7623559236526489 0.2960474193096161 0.5058823823928833 0.545098066329956 0.5411764979362488
0.5374384522438049 0.6404547691345215 0.0031620552763342857 0.4431372582912445 0.43921568989753723 0.3607843220233917
0.567241370677948 0.7640928626060486 0.29446640610694885 0.545098066329956 0.5607843399047852 0.572549045085907
0.39187192916870117 0.6856150031089783 0.007905138656497002 0.18039216101169586 0.18431372940540314 0.12941177189350128
0.557635486125946 0.7596715688705444 0.00830039568245411 0.2980392277240753 0.2823529541492462 0.23529411852359772
0.3773398995399475 0.6750355362892151 0.17391304671764374 0.07058823853731155 0.07058823853731155 0.07058823853731155
0.43374383449554443 0.6871940493583679 0.1822134405374527 0.08627451211214066 0.09019608050584793 0.09803921729326248
0.5800492763519287 0.7858834862709045 0.007509881630539894 0.239215686917305 0.22745098173618317 0.1921568661928177
0.435960590839386 0.7568293213844299 0.2964426875114441 0.6313725709915161 0.6549019813537598 0.6470588445663452
0.5630542039871216 0.7678825259208679 0.29446640610694885 0.5568627715110779 0.572549045085907 0.5843137502670288
0.4046798050403595 0.7200378775596619 0.9909090995788574 0.29019609093666077 0.2980392277240753 0.2549019753932953
0.47463053464889526 0.7383546233177185 0.2960474193096161 0.48627451062202454 0.5098039507865906 0.501960813999176
0.39950740337371826 0.6786673069000244 0.9909090995788574 0.3294117748737335 0.3294117748737335 0.2980392277240753
0.4091132879257202 0.6522974967956543 0.2976284623146057 0.5098039507865906 0.5254902243614197 0.529411792755127
0.44950738549232483 0.7688299417495728 0.2960474193096161 0.5686274766921997 0.6078431606292725 0.6117647290229797
0.41551724076271057 0.6418758630752563 0.17944663763046265 0.062745101749897 0.062745101749897 0.062745101749897
0.3857142925262451 0.7325122356414795 0.9905138611793518 0.33725491166114807 0.3333333432674408 0.3137255012989044
0.38374385237693787 0.7603031992912292 0.0071146246045827866 0.16078431904315948 0.16078431904315948 0.12156862765550613
0.45935961604118347 0.7099320888519287 0.9909090995788574 0.2980392277240753 0.2980392277240753 0.2666666805744171
0.5238916277885437 0.7710405588150024 0.00830039568245411 0.09019608050584793 0.10980392247438431 0.08627451211214066
0.6076354384422302 0.6772461533546448 0.2960474193096161 0.529411792755127 0.5333333611488342 0.5411764979362488
0.4293103516101837 0.6478762030601501 0.29802370071411133 0.5215686559677124 0.5411764979362488 0.5647059082984924
0.5051724314689636 0.6342965364456177 0.29960474371910095 0.3019607961177826 0.29411765933036804 0.3137255012989044
0.5980295538902283 0.7473551034927368 0.007905138656497002 0.24313725531101227 0.22745098173618317 0.1921568661928177
0.5566502213478088 0.718458890914917 0.2960474193096161 0.6000000238418579 0.6196078658103943 0.6313725709915161
0.5416256189346313 0.6925627589225769 0.0023715414572507143 0.06666667014360428 0.07058823853731155 0.05098039284348488
0.4554187059402466 0.7767251133918762 0.1762845814228058 0.03921568766236305 0.03921568766236305 0.03921568766236305
0.5879310369491577 0.6448760628700256 0.0031620552763342857 0.11764705926179886 0.11372549086809158 0.09803921729326248
0.4524630606174469 0.7339333891868591 0.002766798483207822 0.18431372940540314 0.18431372940540314 0.14509804546833038
0.3928571343421936 0.6714037656784058 0.9909090995788574 0.32549020648002625 0.32549020648002625 0.27843138575553894
0.5160098671913147 0.7833570241928101 0.008695651777088642 0.3529411852359772 0.34117648005485535 0.2823529541492462
0.40985220670700073 0.6758250594139099 0.9909090995788574 0.30588236451148987 0.30980393290519714 0.27843138575553894
0.4485221803188324 0.6502447724342346 0.991304337978363 0.27450981736183167 0.27843138575553894 0.2549019753932953
0.475862056016922 0.7160903215408325 0.0015810276381671429 0.34117648005485535 0.35686275362968445 0.3019607961177826
0.5701970458030701 0.7336175441741943 0.0071146246045827866 0.1725490242242813 0.1725490242242813 0.1411764770746231
0.5586206912994385 0.7625138163566589 0.29446640610694885 0.5921568870544434 0.6078431606292725 0.6117647290229797
0.38620689511299133 0.6840360164642334 0.00830039568245411 0.30980393290519714 0.3019607961177826 0.250980406999588
0.379802942276001 0.718932569026947 0.2964426875114441 0.545098066329956 0.5843137502670288 0.5921568870544434
0.5357142686843872 0.6800884008407593 0.002766798483207822 0.4745098054409027 0.4745098054409027 0.4274509847164154
0.5 0.7874624729156494 0.29525691270828247 0.545098066329956 0.5803921818733215 0.5764706134796143
0.37561577558517456 0.7552502751350403 0.9905138611793518 0.34117648005485535 0.3450980484485626 0.32156863808631897
0.46256157755851746 0.7227222323417664 0.9905138611793518 0.30588236451148987 0.30980393290519714 0.27843138575553894
0.48251232504844666 0.6935101747512817 0.3011857569217682 0.501960813999176 0.5098039507865906 0.5058823823928833
0.4923645257949829 0.7533554434776306 0.003952569328248501 0.26274511218070984 0.2705882489681244 0.22745098173618317
0.44999998807907104 0.7604610919952393 0.004347825888544321 0.32156863808631897 0.30980393290519714 0.2823529541492462
0.47832512855529785 0.6755092144012451 0.0035573123022913933 0.34117648005485535 0.3333333432674408 0.2823529541492462
0.5859605669975281 0.6628770232200623 0.28339922428131104 0.11764705926179886 0.13333334028720856 0.14509804546833038
0.5155172348022461 0.7310910820960999 0.004743082914501429 0.23137255012989044 0.23529411852359772 0.21176470816135406
0.5209359526634216 0.75714510679245 0.0071146246045827866 0.2549019753932953 0.26274511218070984 0.21960784494876862
0.5376847386360168 0.6609821319580078 0.9916995763778687 0.3686274588108063 0.3529411852359772 0.3490196168422699
0.5384236574172974 0.7784620523452759 0.00830039568245411 0.38823530077934265 0.3803921639919281 0.3333333432674408
0.5283251404762268 0.6974577903747559 0.0019762846641242504 0.3137255012989044 0.3294117748737335 0.32549020648002625
0.6054187417030334 0.729354202747345 0.9916995763778687 0.3019607961177826 0.29411765933036804 0.3137255012989044
0.512561559677124 0.6368229985237122 0.2972331941127777 0.12156862765550613 0.125490203499794 0.1411764770746231
0.6086207032203674 0.6905100345611572 0.2960474193096161 0.572549045085907 0.5764706134796143 0.5960784554481506
0.5497536659240723 0.7097741961479187 0.2960474193096161 0.5764706134796143 0.5882353186607361 0.6078431606292725
0.42610836029052734 0.7588820457458496 0.2964426875114441 0.6352941393852234 0.6509804129600525 0.6470588445663452
0.503201961517334 0.6807200312614441 0.3015810251235962 0.5803921818733215 0.6039215922355652 0.6039215922355652
0.4913793206214905 0.6810358166694641 0.9909090995788574 0.3333333432674408 0.3294117748737335 0.30980393290519714
0.5600985288619995 0.7173535227775574 0.005533596966415644 0.2666666805744171 0.2549019753932953 0.21960784494876862
0.4997536838054657 0.6829307079315186 0.9909090995788574 0.3294117748737335 0.3294117748737335 0.2980392277240753
0.43793103098869324 0.6559292674064636 0.18102766573429108 0.0470588244497776 0.0470588244497776 0.0470588244497776
0.4965517222881317 0.6952471137046814 0.9909090995788574 0.3137255012989044 0.3137255012989044 0.2823529541492462
0.381280779838562 0.6349281668663025 0.991304337978363 0.30588236451148987 0.3019607961177826 0.2823529541492462
0.5317733883857727 0.7618821859359741 0.9905138611793518 0.2980392277240753 0.2980392277240753 0.29019609093666077
0.5105911493301392 0.7798831462860107 0.29525691270828247 0.5921568870544434 0.6235294342041016 0.6313725709915161
0.512561559677124 0.7787778377532959 0.00830039568245411 0.41960784792900085 0.3960784375667572 0.34117648005485535
0.43103447556495667 0.654034435749054 0.0063241105526685715 0.40784314274787903 0.3960784375667572 0.32156863808631897
0.3849753737449646 0.6492973566055298 0.0071146246045827866 0.2862745225429535 0.2705882489681244 0.22745098173618317
0.37142857909202576 0.648665726184845 0.18577075004577637 0.12156862765550613 0.12156862765550613 0.12156862765550613
0.46945813298225403 0.6919311285018921 0.9909090995788574 0.3333333432674408 0.3333333432674408 0.29411765933036804
0.5795566439628601 0.70235276222229 0.004743082914501429 0.21568627655506134 0.1882352977991104 0.14901961386203766
0.5490148067474365 0.7699352502822876 0.9905138611793518 0.3019607961177826 0.2980392277240753 0.29019609093666077
0.4881773293018341 0.718774676322937 0.0023715414572507143 0.40784314274787903 0.3921568691730499 0.3490196168422699
0.5428571701049805 0.7693036198616028 0.9905138611793518 0.29411765933036804 0.29411765933036804 0.2862745225429535
0.5103448033332825 0.7713564038276672 0.2956521809101105 0.6039215922355652 0.6235294342041016 0.6352941393852234
0.45517241954803467 0.7779883146286011 0.0063241105526685715 0.2823529541492462 0.3176470696926117 0.30588236451148987
0.39039409160614014 0.724617063999176 0.0071146246045827866 0.2980392277240753 0.2980392277240753 0.25882354378700256
0.48990148305892944 0.6665087342262268 0.004347825888544321 0.5568627715110779 0.545098066329956 0.47058823704719543
0.5756157636642456 0.7085109949111938 0.005138339940458536 0.062745101749897 0.07058823853731155 0.06666667014360428
0.5128079056739807 0.7756197452545166 0.9901185631752014 0.3137255012989044 0.3137255012989044 0.30588236451148987
0.45812806487083435 0.7370914220809937 0.002766798483207822 0.239215686917305 0.24313725531101227 0.21176470816135406
0.47881773114204407 0.7303016185760498 0.9905138611793518 0.32156863808631897 0.32156863808631897 0.29019609093666077
0.47733989357948303 0.648823618888855 0.30000001192092896 0.5215686559677124 0.5176470875740051 0.5411764979362488
0.41871920228004456 0.6706142425537109 0.17905138432979584 0.05882352963089943 0.05882352963089943 0.05882352963089943
0.3815270960330963 0.6810358166694641 0.9909090995788574 0.34117648005485535 0.33725491166114807 0.3176470696926117
0.4477832615375519 0.7596715688705444 0.004347825888544321 0.24313725531101227 0.23137255012989044 0.19607843458652496
0.5165024399757385 0.7331438660621643 0.9905138611793518 0.30980393290519714 0.30588236451148987 0.2862745225429535
0.3997536897659302 0.7419863939285278 0.9905138611793518 0.3176470696926117 0.32156863808631897 0.2980392277240753
0.6044334769248962 0.6835622787475586 0.992094874382019 0.3294117748737335 0.3333333432674408 0.3529411852359772
0.47389161586761475 0.6887730956077576 0.3007905185222626 0.48235294222831726 0.4941176474094391 0.5137255191802979
0.45443350076675415 0.7806726694107056 0.2960474193096161 0.5254902243614197 0.5647059082984924 0.5686274766921997
0.47093597054481506 0.6974577903747559 0.9909090995788574 0.32156863808631897 0.30980393290519714 0.2823529541492462
0.4642857015132904 0.788725733757019 0.2960474193096161 0.501960813999176 0.5411764979362488 0.545098066329956
0.5886699557304382 0.7028264403343201 0.9916995763778687 0.3450980484485626 0.3450980484485626 0.3529411852359772
0.520443320274353 0.6317700743675232 0.0031620552763342857 0.615686297416687 0.5921568870544434 0.529411792755127
0.43423646688461304 0.6616137623786926 0.29881423711776733 0.501960813999176 0.5137255191802979 0.5333333611488342
0.45517241954803467 0.7765671610832214 0.1762845814228058 0.03921568766236305 0.03921568766236305 0.03921568766236305
0.5150246024131775 0.7674087882041931 0.9905138611793518 0.32156863808631897 0.30980393290519714 0.29019609093666077
0.5921182036399841 0.6939839124679565 0.2960474193096161 0.5843137502670288 0.5882353186607361 0.6039215922355652
0.38201969861984253 0.6451918482780457 0.17826086282730103 0.125490203499794 0.125490203499794 0.125490203499794
0.5935960412025452 0.7399336695671082 0.29525691270828247 0.5411764979362488 0.5568627715110779 0.5607843399047852
0.5928571224212646 0.7424601316452026 0.29486167430877686 0.5411764979362488 0.5568627715110779 0.5607843399047852
0.38275861740112305 0.6492973566055298 0.0071146246045827866 0.1764705926179886 0.16470588743686676 0.10588235408067703
0.5862069129943848 0.6504026651382446 0.0031620552763342857 0.13333334028720856 0.11764705926179886 0.10588235408067703
0.5842364430427551 0.6575083136558533 0.992094874382019 0.3843137323856354 0.3803921639919281 0.37254902720451355
0.6017241477966309 0.6587715148925781 0.004347825888544321 0.18431372940540314 0.16862745583057404 0.1568627506494522
0.5556650161743164 0.7590399384498596 0.00830039568245411 0.3294117748737335 0.30588236451148987 0.25882354378700256
0.49014776945114136 0.7884098887443542 0.18023715913295746 0.05098039284348488 0.05098039284348488 0.05098039284348488
0.4997536838054657 0.6884573101997375 0.0011857707286253572 0.3921568691730499 0.38823530077934265 0.3176470696926117
0.4123152792453766 0.7748302817344666 0.9901185631752014 0.33725491166114807 0.3333333432674408 0.3137255012989044
0.5933497548103333 0.7201957702636719 0.2956521809101105 0.572549045085907 0.5960784554481506 0.5960784554481506
0.4443349838256836 0.7014053463935852 0.002766798483207822 0.239215686917305 0.239215686917305 0.2078431397676468
0.4009852111339569 0.6338228583335876 0.0063241105526685715 0.18039216101169586 0.16862745583057404 0.1411764770746231
0.46256157755851746 0.6404547691345215 0.991304337978363 0.3333333432674408 0.3294117748737335 0.30980393290519714
0.6000000238418579 0.7366177439689636 0.991304337978363 0.3450980484485626 0.33725491166114807 0.35686275362968445
0.5374384522438049 0.6504026651382446 0.9916995763778687 0.3333333432674408 0.3294117748737335 0.32156863808631897
0.44655171036720276 0.7738828063011169 0.2960474193096161 0.5607843399047852 0.6000000238418579 0.6039215922355652
0.39088669419288635 0.7760934829711914 0.007905138656497002 0.2235294133424759 0.21176470816135406 0.1764705926179886
0.4559113383293152 0.6519817113876343 0.991304337978363 0.3137255012989044 0.30980393290519714 0.29019609093666077
0.378078818321228 0.7639349699020386 0.2968379557132721 0.5568627715110779 0.5843137502670288 0.6078431606292725
0.437438428401947 0.6568766832351685 0.29881423711776733 0.5137255191802979 0.5176470875740051 0.5372549295425415
0.38201969861984253 0.6799305081367493 0.2968379557132721 0.4431372582912445 0.46666666865348816 0.4588235318660736
0.3844827711582184 0.7876204252243042 0.2968379557132721 0.47058823704719543 0.501960813999176 0.5098039507865906
0.4642857015132904 0.7582504153251648 0.0035573123022913933 0.2235294133424759 0.23137255012989044 0.1882352977991104
0.3997536897659302 0.7314069271087646 0.2968379557132721 0.5607843399047852 0.5921568870544434 0.6039215922355652
0.4167487621307373 0.7693036198616028 0.006719367578625679 0.10196078568696976 0.10588235408067703 0.08235294371843338
0.43817734718322754 0.7787778377532959 0.9901185631752014 0.2823529541492462 0.27843138575553894 0.26274511218070984
0.38275861740112305 0.6807200312614441 0.9909090995788574 0.32549020648002625 0.32549020648002625 0.29411765933036804
0.496798038482666 0.7669351100921631 0.9901185631752014 0.3019607961177826 0.30588236451148987 0.2823529541492462
0.5963054299354553 0.7686720490455627 0.991304337978363 0.3450980484485626 0.3450980484485626 0.33725491166114807
0.46280789375305176 0.6524553894996643 0.0071146246045827866 0.545098066329956 0.5176470875740051 0.4470588266849518
0.5921182036399841 0.730143666267395 0.29525691270828247 0.5686274766921997 0.5843137502670288 0.5882353186607361
0.5344827771186829 0.70235276222229 0.991304337978363 0.29411765933036804 0.29019609093666077 0.27450981736183167
0.39605912566185 0.7539870738983154 0.2968379557132721 0.5568627715110779 0.5921568870544434 0.6117647290229797
0.413300484418869 0.6418758630752563 0.2972331941127777 0.529411792755127 0.545098066329956 0.5568627715110779
0.47044333815574646 0.7770408987998962 0.2960474193096161 0.48627451062202454 0.5254902243614197 0.529411792755127
0.45049262046813965 0.740407407283783 0.0031620552763342857 0.22745098173618317 0.21176470816135406 0.16862745583057404
0.5197044610977173 0.729985773563385 0.2960474193096161 0.658823549747467 0.6784313917160034 0.6627451181411743
0.5660098791122437 0.7260382175445557 0.2956521809101105 0.6078431606292725 0.6274510025978088 0.6431372761726379
0.47364532947540283 0.6617716550827026 0.005533596966415644 0.5764706134796143 0.5921568870544434 0.5333333611488342
0.3975369334220886 0.7399336695671082 0.005138339940458536 0.2078431397676468 0.19607843458652496 0.16078431904315948
0.5536946058273315 0.7806726694107056 0.007905138656497002 0.2705882489681244 0.2705882489681244 0.23137255012989044
0.5426108241081238 0.7012474536895752 0.2960474193096161 0.07450980693101883 0.07450980693101883 0.07450980693101883
0.5206896662712097 0.6789830923080444 0.0023715414572507143 0.4156862795352936 0.41960784792900085 0.3960784375667572
0.44999998807907104 0.6875098943710327 0.30000001192092896 0.4941176474094391 0.49803921580314636 0.5137255191802979
0.4487684667110443 0.6341386437416077 0.9916995763778687 0.33725491166114807 0.3333333432674408 0.3137255012989044
0.45911329984664917 0.7366177439689636 0.2960474193096161 0.5176470875740051 0.5372549295425415 0.5529412031173706
0.4078817665576935 0.7361440062522888 0.004743082914501429 0.18039216101169586 0.1882352977991104 0.14509804546833038
0.5214285850524902 0.7746723294258118 0.29525691270828247 0.6549019813537598 0.6705882549285889 0.6745098233222961
0.5539408922195435 0.7483025193214417 0.29486167430877686 0.658823549747467 0.6627451181411743 0.6705882549285889
0.6059113144874573 0.6584557294845581 0.2960474193096161 0.5176470875740051 0.5176470875740051 0.5254902243614197
0.5445812940597534 0.7255644798278809 0.2960474193096161 0.7058823704719543 0.7137255072593689 0.7098039388656616
0.4834975302219391 0.7178272604942322 0.2960474193096161 0.5411764979362488 0.5529412031173706 0.572549045085907
0.5783251523971558 0.6466130018234253 0.992094874382019 0.3450980484485626 0.34117648005485535 0.3333333432674408
0.503201961517334 0.6807200312614441 0.3015810251235962 0.5803921818733215 0.6039215922355652 0.6039215922355652
0.6024630665779114 0.6931943893432617 0.9916995763778687 0.35686275362968445 0.3490196168422699 0.3607843220233917
0.39926108717918396 0.6890888810157776 0.9909090995788574 0.32549020648002625 0.3137255012989044 0.27843138575553894
0.46600985527038574 0.7841465473175049 0.17391304671764374 0.054901961237192154 0.054901961237192154 0.0470588244497776
0.3931034505367279 0.6845096945762634 0.17588932812213898 0.07450980693101883 0.07450980693101883 0.07450980693101883
0.4766009747982025 0.7727774977684021 0.005928853526711464 0.3019607961177826 0.32156863808631897 0.2980392277240753
0.39482757449150085 0.6797726154327393 0.2976284623146057 0.4470588266849518 0.48235294222831726 0.47843137383461
0.5859605669975281 0.7689878344535828 0.29446640610694885 0.501960813999176 0.501960813999176 0.4941176474094391
0.579802930355072 0.6510342359542847 0.992094874382019 0.3490196168422699 0.3490196168422699 0.3490196168422699
0.37487685680389404 0.6748776435852051 0.008695651777088642 0.23137255012989044 0.23529411852359772 0.18039216101169586
0.4325123131275177 0.7170377373695374 0.0023715414572507143 0.062745101749897 0.062745101749897 0.054901961237192154
0.5362069010734558 0.6783515214920044 0.991304337978363 0.35686275362968445 0.3529411852359772 0.3450980484485626
0.4285714328289032 0.6647718548774719 0.9909090995788574 0.3137255012989044 0.3137255012989044 0.27450981736183167
0.44187191128730774 0.6390336155891418 0.991304337978363 0.3333333432674408 0.3333333432674408 0.29411765933036804
0.5785714387893677 0.6346123218536377 0.9924901127815247 0.3490196168422699 0.3450980484485626 0.32549020648002625
0.48965516686439514 0.6676141023635864 0.3007905185222626 0.5176470875740051 0.5254902243614197 0.5058823823928833
0.4559113383293152 0.7505131959915161 0.9905138611793518 0.29411765933036804 0.29019609093666077 0.2705882489681244
0.4332512319087982 0.6987209916114807 0.0035573123022913933 0.16862745583057404 0.1725490242242813 0.15294118225574493
0.43103447556495667 0.7558819055557251 0.2964426875114441 0.6352941393852234 0.658823549747467 0.6509804129600525
0.3997536897659302 0.6507184505462646 0.2972331941127777 0.5176470875740051 0.5333333611488342 0.545098066329956
0.5568965673446655 0.6747197508811951 0.9916995763778687 0.34117648005485535 0.34117648005485535 0.34117648005485535
0.5298029780387878 0.7508289813995361 0.9905138611793518 0.3019607961177826 0.30588236451148987 0.2862745225429535
0.4357142746448517 0.6507184505462646 0.29841896891593933 0.5137255191802979 0.529411792755127 0.5333333611488342
0.4093596041202545 0.6868782639503479 0.9909090995788574 0.3294117748737335 0.3294117748737335 0.2823529541492462
0.41527092456817627 0.6875098943710327 0.17905138432979584 0.06666667014360428 0.06666667014360428 0.06666667014360428
0.38325121998786926 0.6919311285018921 0.2972331941127777 0.43921568989753723 0.4745098054409027 0.45490196347236633
0.5849753618240356 0.6712458729743958 0.992094874382019 0.3803921639919281 0.3803921639919281 0.3803921639919281
0.4763546884059906 0.6712458729743958 0.003952569328248501 0.32549020648002625 0.3294117748737335 0.27450981736183167
0.4610837399959564 0.7328280210494995 0.9905138611793518 0.2823529541492462 0.2823529541492462 0.250980406999588
0.4674876928329468 0.7230380773544312 0.0019762846641242504 0.21960784494876862 0.2078431397676468 0.1882352977991104
0.5985221862792969 0.7483025193214417 0.007905138656497002 0.2235294133424759 0.2078431397676468 0.1725490242242813
0.4078817665576935 0.719090461730957 0.9909090995788574 0.30980393290519714 0.3176470696926117 0.27450981736183167
0.47733989357948303 0.6557713747024536 0.005928853526711464 0.529411792755127 0.501960813999176 0.4274509847164154
0.43152710795402527 0.6729828119277954 0.004347825888544321 0.23137255012989044 0.23137255012989044 0.1921568661928177
0.504679799079895 0.6650876402854919 0.3007905185222626 0.30980393290519714 0.30588236451148987 0.2862745225429535
0.4763546884059906 0.6420338153839111 0.9916995763778687 0.3294117748737335 0.30980393290519714 0.29411765933036804
0.5091133117675781 0.7841465473175049 0.9901185631752014 0.30588236451148987 0.3019607961177826 0.2862745225429535
0.47438424825668335 0.7582504153251648 0.0035573123022913933 0.21176470816135406 0.21568627655506134 0.18431372940540314
0.5307881832122803 0.7419863939285278 0.2960474193096161 0.7058823704719543 0.7137255072593689 0.7098039388656616
0.4216748774051666 0.7010895013809204 0.2960474193096161 0.5372549295425415 0.5568627715110779 0.572549045085907
0.584482729434967 0.7751460671424866 0.007509881630539894 0.22745098173618317 0.21568627655506134 0.18039216101169586
0.5386699438095093 0.7688299417495728 0.00830039568245411 0.250980406999588 0.250980406999588 0.250980406999588
0.4396551847457886 0.7582504153251648 0.2960474193096161 0.6196078658103943 0.6352941393852234 0.6313725709915161
0.5231527090072632 0.708037257194519 0.2960474193096161 0.5568627715110779 0.5607843399047852 0.5764706134796143
0.43472906947135925 0.6717195510864258 0.004347825888544321 0.239215686917305 0.239215686917305 0.20000000298023224
0.579802930355072 0.7339333891868591 0.007509881630539894 0.18039216101169586 0.18039216101169586 0.1411764770746231
0.4197044372558594 0.7890415191650391 0.9901185631752014 0.30980393290519714 0.30588236451148987 0.2862745225429535
0.47733989357948303 0.6901942491531372 0.0019762846641242504 0.3450980484485626 0.3490196168422699 0.29411765933036804
0.49827587604522705 0.6818253397941589 0.0019762846641242504 0.3843137323856354 0.3764705955982208 0.3176470696926117
0.4330049157142639 0.691141664981842 0.9909090995788574 0.32156863808631897 0.32156863808631897 0.2823529541492462
0.5982758402824402 0.7541449666023254 0.991304337978363 0.34117648005485535 0.34117648005485535 0.3490196168422699
0.5091133117675781 0.7127743363380432 0.002766798483207822 0.32549020648002625 0.33725491166114807 0.2705882489681244
0.5935960412025452 0.7385125756263733 0.991304337978363 0.3333333432674408 0.3333333432674408 0.34117648005485535
0.550000011920929 0.7419863939285278 0.9909090995788574 0.239215686917305 0.239215686917305 0.23137255012989044
0.567241370677948 0.6972998380661011 0.991304337978363 0.29411765933036804 0.29411765933036804 0.2862745225429535
0.41822659969329834 0.6859308481216431 0.004347825888544321 0.20000000298023224 0.20392157137393951 0.14901961386203766
0.5059113502502441 0.7525659203529358 0.2960474193096161 0.5764706134796143 0.5960784554481506 0.6078431606292725
0.5231527090072632 0.6691930890083313 0.991304337978363 0.34117648005485535 0.33725491166114807 0.32156863808631897
0.5421182513237 0.7702510952949524 0.9905138611793518 0.29411765933036804 0.29411765933036804 0.2862745225429535
0.5677340030670166 0.7737249135971069 0.29407113790512085 0.5254902243614197 0.5411764979362488 0.545098066329956
0.584482729434967 0.638244092464447 0.002766798483207822 0.12941177189350128 0.125490203499794 0.10980392247438431
0.5669950842857361 0.7658298015594482 0.007905138656497002 0.2235294133424759 0.22745098173618317 0.1725490242242813
0.4290640354156494 0.6496131420135498 0.29802370071411133 0.5137255191802979 0.5254902243614197 0.5529412031173706
0.3926108479499817 0.7890415191650391 0.9905138611793518 0.3294117748737335 0.3333333432674408 0.30980393290519714
0.550000011920929 0.7647244334220886 0.9909090995788574 0.29019609093666077 0.29019609093666077 0.29019609093666077
0.568965494632721 0.6564029455184937 0.002766798483207822 0.23137255012989044 0.22745098173618317 0.2078431397676468
0.4837438464164734 0.6961945295333862 0.0007905138190835714 0.43921568989753723 0.4431372582912445 0.37254902720451355
0.5295566320419312 0.6352439522743225 0.0031620552763342857 0.48235294222831726 0.4470588266849518 0.41960784792900085
0.559359610080719 0.6594031453132629 0.002766798483207822 0.33725491166114807 0.3333333432674408 0.3137255012989044
0.42266011238098145 0.7693036198616028 0.1711462438106537 0.05098039284348488 0.05098039284348488 0.05098039284348488
0.579802930355072 0.6767724752426147 0.0035573123022913933 0.20000000298023224 0.1882352977991104 0.16078431904315948
0.48226600885391235 0.7640928626060486 0.2960474193096161 0.4901960790157318 0.5254902243614197 0.5137255191802979
0.5036945939064026 0.7306174039840698 0.004347825888544321 0.19607843458652496 0.20000000298023224 0.1764705926179886
0.5465517044067383 0.7138797044754028 0.004347825888544321 0.3921568691730499 0.3960784375667572 0.364705890417099
0.4571428596973419 0.7685141563415527 0.9901185631752014 0.2980392277240753 0.29411765933036804 0.27843138575553894
0.6051723957061768 0.6619295477867126 0.992094874382019 0.3529411852359772 0.3529411852359772 0.3607843220233917
0.40270936489105225 0.6669824719429016 0.0071146246045827866 0.16862745583057404 0.16862745583057404 0.12941177189350128
0.5426108241081238 0.6775619983673096 0.0023715414572507143 0.35686275362968445 0.3529411852359772 0.2823529541492462
0.5901477932929993 0.6660350561141968 0.992094874382019 0.3803921639919281 0.3803921639919281 0.38823530077934265
0.6086207032203674 0.6589294075965881 0.004743082914501429 0.23137255012989044 0.21960784494876862 0.1921568661928177
0.615517258644104 0.660034716129303 0.004743082914501429 0.3294117748737335 0.3294117748737335 0.29019609093666077
0.5571428537368774 0.7205116152763367 0.005533596966415644 0.3176470696926117 0.3019607961177826 0.25882354378700256
0.41822659969329834 0.659718930721283 0.17865613102912903 0.05882352963089943 0.05882352963089943 0.05882352963089943
0.37044334411621094 0.6756671667098999 0.2964426875114441 0.43921568989753723 0.45490196347236633 0.45098039507865906
0.5884236693382263 0.7563555836677551 0.007905138656497002 0.2823529541492462 0.2823529541492462 0.24313725531101227
0.3839901387691498 0.649139404296875 0.0071146246045827866 0.1882352977991104 0.1725490242242813 0.12941177189350128
0.3761083781719208 0.6884573101997375 0.9909090995788574 0.30588236451148987 0.30588236451148987 0.27450981736183167
0.4002462923526764 0.6559292674064636 0.0071146246045827866 0.21960784494876862 0.20392157137393951 0.16078431904315948
0.5694581270217896 0.7214590311050415 0.2956521809101105 0.5921568870544434 0.6117647290229797 0.6235294342041016
0.467980295419693 0.7467235326766968 0.2960474193096161 0.49803921580314636 0.5215686559677124 0.5215686559677124
0.45812806487083435 0.7453023791313171 0.2960474193096161 0.5176470875740051 0.5568627715110779 0.5607843399047852
0.44975370168685913 0.6358755826950073 0.29841896891593933 0.5333333611488342 0.5333333611488342 0.572549045085907
0.378078818321228 0.7222485542297363 0.9909090995788574 0.3137255012989044 0.3137255012989044 0.2823529541492462
0.4485221803188324 0.6559292674064636 0.29920947551727295 0.5098039507865906 0.5098039507865906 0.5411764979362488
0.45098522305488586 0.6480340957641602 0.29881423711776733 0.5215686559677124 0.5254902243614197 0.545098066329956
0.6007389426231384 0.75730299949646 0.29446640610694885 0.501960813999176 0.5254902243614197 0.5254902243614197
0.4278325140476227 0.7555660605430603 0.9905138611793518 0.3294117748737335 0.3333333432674408 0.3019607961177826
0.3933497667312622 0.7637770175933838 0.0071146246045827866 0.24313725531101227 0.23529411852359772 0.18431372940540314
0.5849753618240356 0.6938260197639465 0.9916995763778687 0.3176470696926117 0.3176470696926117 0.32549020648002625
0.5620689392089844 0.7644086480140686 0.29446640610694885 0.5686274766921997 0.5843137502670288 0.5882353186607361
0.4477832615375519 0.7768830060958862 0.9901185631752014 0.3333333432674408 0.3294117748737335 0.30980393290519714
0.4364531934261322 0.6717195510864258 0.004347825888544321 0.239215686917305 0.239215686917305 0.20000000298023224
0.4684728980064392 0.7421443462371826 0.002766798483207822 0.24313725531101227 0.24313725531101227 0.19607843458652496
0.5194581151008606 0.7093005180358887 0.0031620552763342857 0.3686274588108063 0.35686275362968445 0.29019609093666077
0.4931034445762634 0.7610926628112793 0.9905138611793518 0.3137255012989044 0.30980393290519714 0.29019609093666077
0.48300492763519287 0.7200378775596619 0.2960474193096161 0.5411764979362488 0.5529412031173706 0.5803921818733215
0.5059113502502441 0.7009316086769104 0.0011857707286253572 0.48627451062202454 0.5058823823928833 0.4274509847164154
0.6046798229217529 0.6440865397453308 0.2964426875114441 0.5098039507865906 0.5098039507865906 0.5098039507865906
0.43546798825263977 0.7760934829711914 0.9901185631752014 0.32549020648002625 0.32156863808631897 0.3019607961177826
0.5554187297821045 0.734880805015564 0.006719367578625679 0.21568627655506134 0.2235294133424759 0.18039216101169586
0.4770936071872711 0.6800884008407593 0.9909090995788574 0.3294117748737335 0.3333333432674408 0.30980393290519714
0.45467981696128845 0.6674562096595764 0.005138339940458536 0.6274510025978088 0.4941176474094391 0.38823530077934265
0.6009852290153503 0.6900362968444824 0.004743082914501429 0.20392157137393951 0.1921568661928177 0.1725490242242813
0.5411329865455627 0.6552976369857788 0.0031620552763342857 0.42352941632270813 0.41960784792900085 0.33725491166114807
0.5758620500564575 0.6363492608070374 0.002766798483207822 0.16862745583057404 0.16470588743686676 0.14901961386203766
0.432758629322052 0.6437707543373108 0.991304337978363 0.3490196168422699 0.33725491166114807 0.30980393290519714
0.39408865571022034 0.6797726154327393 0.9909090995788574 0.32549020648002625 0.32549020648002625 0.2862745225429535
0.3741379380226135 0.7380388379096985 0.007905138656497002 0.19607843458652496 0.1882352977991104 0.1411764770746231
0.37832513451576233 0.6818253397941589 0.9909090995788574 0.3019607961177826 0.30980393290519714 0.2666666805744171
0.552955687046051 0.7547765374183655 0.00830039568245411 0.21960784494876862 0.2078431397676468 0.1725490242242813
0.43891626596450806 0.6990367770195007 0.2960474193096161 0.5921568870544434 0.6313725709915161 0.6784313917160034
0.4805418848991394 0.7648823857307434 0.9901185631752014 0.3450980484485626 0.3294117748737335 0.3176470696926117
0.6024630665779114 0.6461392641067505 0.9924901127815247 0.3019607961177826 0.29411765933036804 0.2980392277240753
0.5362069010734558 0.7836728096008301 0.00830039568245411 0.3960784375667572 0.3960784375667572 0.364705890417099
0.5869458317756653 0.6919311285018921 0.9916995763778687 0.3333333432674408 0.3333333432674408 0.34117648005485535
0.5049260854721069 0.7576188445091248 0.2960474193096161 0.5607843399047852 0.5843137502670288 0.5843137502670288
0.4916256070137024 0.6702984571456909 0.0035573123022913933 0.3607843220233917 0.3529411852359772 0.29411765933036804
0.4448275864124298 0.7031422853469849 0.2960474193096161 0.05882352963089943 0.062745101749897 0.07058823853731155
0.4332512319087982 0.7595136761665344 0.9905138611793518 0.32156863808631897 0.32549020648002625 0.29411765933036804
0.6115763783454895 0.7198799848556519 0.9916995763778687 0.3529411852359772 0.3686274588108063 0.40392157435417175
0.4714285731315613 0.7721459269523621 0.17509882152080536 0.04313725605607033 0.04313725605607033 0.03529411926865578
0.584482729434967 0.7550923824310303 0.991304337978363 0.35686275362968445 0.35686275362968445 0.35686275362968445
0.39507389068603516 0.7473551034927368 0.2968379557132721 0.5647059082984924 0.6000000238418579 0.6196078658103943
0.5359606146812439 0.7538291215896606 0.9905138611793518 0.250980406999588 0.250980406999588 0.24313725531101227
0.6147783398628235 0.7061424255371094 0.9916995763778687 0.8705882430076599 0.9176470637321472 0.9803921580314636
0.556157648563385 0.7775145769119263 0.9905138611793518 0.2980392277240753 0.2980392277240753 0.29019609093666077
0.376600980758667 0.6642981171607971 0.9909090995788574 0.32549020648002625 0.3294117748737335 0.30588236451148987
0.47807881236076355 0.6906679272651672 0.0015810276381671429 0.3529411852359772 0.35686275362968445 0.3019607961177826
0.5600985288619995 0.7282488346099854 0.2956521809101105 0.615686297416687 0.6352941393852234 0.6509804129600525
0.4408867061138153 0.7549344897270203 0.004347825888544321 0.24313725531101227 0.23529411852359772 0.1882352977991104
0.42561575770378113 0.7484604716300964 0.004743082914501429 0.16078431904315948 0.15294118225574493 0.10196078568696976
0.4128078818321228 0.6698247194290161 0.29802370071411133 0.48627451062202454 0.501960813999176 0.5137255191802979
0.6110837459564209 0.7347228527069092 0.007905138656497002 0.20000000298023224 0.1921568661928177 0.14509804546833038
0.46650245785713196 0.7530396580696106 0.0031620552763342857 0.34117648005485535 0.3529411852359772 0.2862745225429535
0.56083744764328 0.708037257194519 0.004743082914501429 0.06666667014360428 0.062745101749897 0.04313725605607033
0.4123152792453766 0.67645663022995 0.17865613102912903 0.062745101749897 0.062745101749897 0.062745101749897
0.5775862336158752 0.724301278591156 0.991304337978363 0.3294117748737335 0.3294117748737335 0.32156863808631897
0.4236453175544739 0.6570345759391785 0.005928853526711464 0.239215686917305 0.23137255012989044 0.18039216101169586
0.6066502332687378 0.7233538627624512 0.2956521809101105 0.5607843399047852 0.5960784554481506 0.5764706134796143
0.614039421081543 0.6676141023635864 0.992094874382019 0.7137255072593689 0.7490196228027344 0.7843137383460999
0.3921182155609131 0.6444023251533508 0.991304337978363 0.3450980484485626 0.3333333432674408 0.3137255012989044
0.5987684726715088 0.7621980309486389 0.007509881630539894 0.18431372940540314 0.1725490242242813 0.13725490868091583
0.3741379380226135 0.6333491206169128 0.0071146246045827866 0.250980406999588 0.250980406999588 0.20392157137393951
0.5549260973930359 0.7675667405128479 0.00830039568245411 0.4274509847164154 0.3803921639919281 0.3333333432674408
0.5492610931396484 0.7552502751350403 0.29486167430877686 0.6549019813537598 0.6705882549285889 0.6745098233222961
0.5394088625907898 0.6775619983673096 0.002766798483207822 0.3960784375667572 0.3921568691730499 0.3137255012989044
0.3926108479499817 0.6704563498497009 0.9909090995788574 0.3294117748737335 0.3176470696926117 0.29019609093666077
0.5581280589103699 0.7111953496932983 0.004743082914501429 0.34117648005485535 0.34117648005485535 0.3019607961177826
0.4364531934261322 0.7050371170043945 0.2960474193096161 0.05882352963089943 0.07450980693101883 0.07058823853731155
0.47044333815574646 0.7601452469825745 0.0035573123022913933 0.239215686917305 0.24313725531101227 0.21176470816135406
0.49704432487487793 0.6492973566055298 0.005928853526711464 0.5098039507865906 0.49803921580314636 0.43921568989753723
0.5800492763519287 0.7039318084716797 0.005138339940458536 0.26274511218070984 0.24705882370471954 0.21176470816135406
0.5115763545036316 0.7284067869186401 0.2960474193096161 0.6000000238418579 0.615686297416687 0.6274510025978088
0.4719211757183075 0.6586136221885681 0.991304337978363 0.3333333432674408 0.3333333432674408 0.3019607961177826
0.4913793206214905 0.6399810314178467 0.9916995763778687 0.3294117748737335 0.32549020648002625 0.30588236451148987
0.45517241954803467 0.7004579305648804 0.0023715414572507143 0.14509804546833038 0.14901961386203766 0.12941177189350128
0.5036945939064026 0.6665087342262268 0.0035573123022913933 0.48627451062202454 0.47843137383461 0.4313725531101227
0.5911329984664917 0.6601926684379578 0.003952569328248501 0.16078431904315948 0.14509804546833038 0.13333334028720856
0.4881773293018341 0.6462971568107605 0.0063241105526685715 0.6313725709915161 0.6117647290229797 0.5372549295425415
0.5068965554237366 0.7584083080291748 0.2960474193096161 0.5843137502670288 0.6039215922355652 0.615686297416687
0.56083744764328 0.7306174039840698 0.29525691270828247 0.6078431606292725 0.6313725709915161 0.6313725709915161
0.435960590839386 0.718932569026947 0.9909090995788574 0.3176470696926117 0.3176470696926117 0.2862745225429535
0.5894088745117188 0.7884098887443542 0.007905138656497002 0.25882354378700256 0.250980406999588 0.20392157137393951
