0.4275861978530884 0.9388915300369263 0.007905138656497002 0.4627451002597809 0.4431372582912445 0.3686274588108063
0.3970443308353424 0.9060477018356323 0.9897233247756958 0.4313725531101227 0.4274509847164154 0.40784314274787903
0.31600984930992126 0.8386231064796448 0.00830039568245411 0.4901960790157318 0.48627451062202454 0.40392157435417175
0.3280788064002991 0.8997315764427185 0.008695651777088642 0.6470588445663452 0.6235294342041016 0.5686274766921997
0.3009852170944214 0.8833096623420715 0.9901185631752014 0.4117647111415863 0.40784314274787903 0.38823530077934265
0.3012315332889557 0.83783358335495 0.9909090995788574 0.4000000059604645 0.4000000059604645 0.3686274588108063
0.25172412395477295 0.7963050603866577 0.008695651777088642 0.545098066329956 0.5411764979362488 0.4588235318660736
0.38669949769973755 0.9161534905433655 0.9897233247756958 0.3921568691730499 0.37254902720451355 0.35686275362968445
0.435960590839386 0.9262592792510986 0.9893280863761902 0.42352941632270813 0.4274509847164154 0.40784314274787903
0.37512314319610596 0.9069951176643372 0.007509881630539894 0.6392157077789307 0.6274510025978088 0.5607843399047852
0.3327586352825165 0.9351018667221069 0.008695651777088642 0.545098066329956 0.529411792755127 0.48235294222831726
0.4766009747982025 0.8128848671913147 0.9897233247756958 0.3176470696926117 0.3294117748737335 0.3019607961177826
0.2495073825120926 0.9109426736831665 0.9897233247756958 0.42352941632270813 0.4156862795352936 0.3686274588108063
0.25615763664245605 0.9180483222007751 0.3588932752609253 0.18431372940540314 0.18431372940540314 0.1764705926179886
0.3342364430427551 0.7907784581184387 0.29486167430877686 0.5490196347236633 0.5803921818733215 0.5921568870544434
0.317241370677948 0.9369966983795166 0.9893280863761902 0.4470588266849518 0.4313725531101227 0.41960784792900085
0.445320188999176 0.897047221660614 0.008695651777088642 0.47843137383461 0.4745098054409027 0.3960784375667572
0.29630541801452637 0.9142586588859558 0.9897233247756958 0.4431372582912445 0.43921568989753723 0.41960784792900085
0.3854679763317108 0.9295752644538879 0.007509881630539894 0.46666666865348816 0.48235294222831726 0.4156862795352936
0.4334975481033325 0.8900994658470154 0.9897233247756958 0.40392157435417175 0.4117647111415863 0.3607843220233917
0.4605911374092102 0.8362545371055603 0.005928853526711464 0.4274509847164154 0.42352941632270813 0.34117648005485535
0.28374382853507996 0.8364124298095703 0.00909090880304575 0.6431372761726379 0.6470588445663452 0.5764706134796143
0.4248768389225006 0.7920416593551636 0.9901185631752014 0.3490196168422699 0.3450980484485626 0.32549020648002625
0.29532018303871155 0.9202589392662048 0.9897233247756958 0.47843137383461 0.4745098054409027 0.4588235318660736
0.45443350076675415 0.8179377913475037 0.005138339940458536 0.3490196168422699 0.3450980484485626 0.23529411852359772
0.2731527090072632 0.9212063550949097 0.9897233247756958 0.4588235318660736 0.4470588266849518 0.4274509847164154
0.4448275864124298 0.8116216659545898 0.2857707440853119 0.12156862765550613 0.12156862765550613 0.11372549086809158
0.29507389664649963 0.7899889349937439 0.009486165829002857 0.4941176474094391 0.48235294222831726 0.40784314274787903
0.47906404733657837 0.805621325969696 0.23320157825946808 0.1882352977991104 0.1921568661928177 0.16862745583057404
0.24704433977603912 0.8889941573143005 0.9901185631752014 0.41960784792900085 0.40784314274787903 0.37254902720451355
0.30369457602500916 0.8233065009117126 0.991304337978363 0.41960784792900085 0.4156862795352936 0.40784314274787903
0.46995073556900024 0.8079898953437805 0.18656127154827118 0.10980392247438431 0.10980392247438431 0.10980392247438431
0.2571428716182709 0.8460445404052734 0.008695651777088642 0.686274528503418 0.6901960968971252 0.6196078658103943
0.2509852349758148 0.9336807131767273 0.00909090880304575 0.6941176652908325 0.686274528503418 0.6352941393852234
0.39088669419288635 0.8425706624984741 0.9905138611793518 0.3803921639919281 0.38823530077934265 0.33725491166114807
0.33891624212265015 0.8983104228973389 0.9901185631752014 0.45490196347236633 0.4431372582912445 0.42352941632270813
0.26724138855934143 0.8792041540145874 0.9905138611793518 0.40392157435417175 0.40392157435417175 0.364705890417099
0.38275861740112305 0.8553608059883118 0.008695651777088642 0.5686274766921997 0.5647059082984924 0.4941176474094391
0.32019704580307007 0.8210958242416382 0.991304337978363 0.3686274588108063 0.364705890417099 0.35686275362968445
0.34655171632766724 0.8739933967590332 0.9905138611793518 0.33725491166114807 0.32549020648002625 0.30588236451148987
0.3098522126674652 0.9074687957763672 0.00909090880304575 0.6078431606292725 0.5960784554481506 0.5372549295425415
0.4433497488498688 0.9175745844841003 0.9893280863761902 0.38823530077934265 0.3960784375667572 0.3529411852359772
0.35566502809524536 0.8094110488891602 0.009486165829002857 0.3960784375667572 0.38823530077934265 0.30588236451148987
0.39605912566185 0.9033633470535278 0.007905138656497002 0.4941176474094391 0.49803921580314636 0.4274509847164154
0.25935959815979004 0.9461550712585449 0.00909090880304575 0.658823549747467 0.6549019813537598 0.5843137502670288
0.4322659969329834 0.8828359246253967 0.00830039568245411 0.5098039507865906 0.529411792755127 0.45098039507865906
0.3290640413761139 0.8588346838951111 0.00909090880304575 0.658823549747467 0.6549019813537598 0.572549045085907
0.3645320236682892 0.8856781721115112 0.9901185631752014 0.43529412150382996 0.43529412150382996 0.40392157435417175
0.4334975481033325 0.8793620467185974 0.9897233247756958 0.3921568691730499 0.4000000059604645 0.3490196168422699
0.27955666184425354 0.810674250125885 0.992094874382019 0.9176470637321472 0.9333333373069763 0.9372549057006836
0.32364532351493835 0.799936830997467 0.991304337978363 0.4431372582912445 0.4274509847164154 0.42352941632270813
0.3334975242614746 0.9420495629310608 0.9893280863761902 0.4627451002597809 0.45490196347236633 0.4588235318660736
0.403940886259079 0.8867835402488708 0.007905138656497002 0.4901960790157318 0.501960813999176 0.43529412150382996
0.31995072960853577 0.849044680595398 0.9909090995788574 0.3686274588108063 0.3686274588108063 0.33725491166114807
0.48177340626716614 0.8097268342971802 0.2707509994506836 0.14901961386203766 0.15294118225574493 0.13333334028720856
0.44999998807907104 0.8116216659545898 0.30395257472991943 0.6431372761726379 0.686274528503418 0.6627451181411743
0.4637930989265442 0.804831862449646 0.9901185631752014 0.3019607961177826 0.30588236451148987 0.2823529541492462
0.254679799079895 0.8619927167892456 0.9905138611793518 0.4000000059604645 0.3921568691730499 0.34117648005485535
0.4834975302219391 0.9099952578544617 0.009486165829002857 0.47058823704719543 0.4901960790157318 0.4000000059604645
0.3652709424495697 0.9272066950798035 0.0071146246045827866 0.4470588266849518 0.45098039507865906 0.38823530077934265
0.3448275923728943 0.8536238670349121 0.9905138611793518 0.3607843220233917 0.364705890417099 0.34117648005485535
0.29211822152137756 0.7985157370567322 0.2873517870903015 0.572549045085907 0.6196078658103943 0.6196078658103943
0.4455665051937103 0.8555186986923218 0.008695651777088642 0.6352941393852234 0.6470588445663452 0.5647059082984924
0.4364531934261322 0.9093636274337769 0.9893280863761902 0.4274509847164154 0.4274509847164154 0.3960784375667572
0.3568965494632721 0.8308858275413513 0.9909090995788574 0.3764705955982208 0.3803921639919281 0.35686275362968445
0.4197044372558594 0.804831862449646 0.25889328122138977 0.10980392247438431 0.10588235408067703 0.09803921729326248
0.277339905500412 0.8708353042602539 0.00909090880304575 0.6235294342041016 0.6078431606292725 0.5607843399047852
0.45837438106536865 0.8409916162490845 0.9897233247756958 0.32549020648002625 0.32156863808631897 0.3019607961177826
0.43103447556495667 0.9049423933029175 0.9893280863761902 0.41960784792900085 0.4313725531101227 0.38823530077934265
0.3179802894592285 0.8842570781707764 0.9901185631752014 0.4117647111415863 0.4117647111415863 0.3803921639919281
0.32413792610168457 0.8938891291618347 0.00909090880304575 0.529411792755127 0.5333333611488342 0.47843137383461
0.3327586352825165 0.9180483222007751 0.008695651777088642 0.6274510025978088 0.6117647290229797 0.5686274766921997
0.4847290515899658 0.8940470814704895 0.009486165829002857 0.5137255191802979 0.5176470875740051 0.4470588266849518
0.32684728503227234 0.8517290353775024 0.008695651777088642 0.529411792755127 0.5215686559677124 0.4627451002597809
0.27906402945518494 0.935733437538147 0.9893280863761902 0.41960784792900085 0.4156862795352936 0.3960784375667572
0.3362068831920624 0.9455234408378601 0.00830039568245411 0.45098039507865906 0.43921568989753723 0.40392157435417175
0.411822646856308 0.8698878884315491 0.9901185631752014 0.3843137323856354 0.3921568691730499 0.34117648005485535
0.4514778256416321 0.793936550617218 0.2960474193096161 0.5372549295425415 0.5803921818733215 0.5647059082984924
0.3098522126674652 0.8782567381858826 0.00909090880304575 0.6274510025978088 0.615686297416687 0.5882353186607361
0.309359610080719 0.7909363508224487 0.2924901247024536 0.6352941393852234 0.6784313917160034 0.686274528503418
0.4729064106941223 0.7967787981033325 0.2956521809101105 0.49803921580314636 0.5333333611488342 0.5215686559677124
0.2975369393825531 0.8196747303009033 0.991304337978363 0.43529412150382996 0.45098039507865906 0.45490196347236633
0.381280779838562 0.891362726688385 0.9901185631752014 0.4117647111415863 0.42352941632270813 0.3803921639919281
0.4332512319087982 0.8046739101409912 0.21027667820453644 0.2235294133424759 0.23137255012989044 0.21960784494876862
0.4371921122074127 0.8196747303009033 0.005928853526711464 0.4156862795352936 0.4117647111415863 0.29411765933036804
0.3963054120540619 0.9384177923202515 0.007509881630539894 0.5529412031173706 0.5607843399047852 0.47843137383461
0.253201961517334 0.8073582649230957 0.9924901127815247 0.9019607901573181 0.9058823585510254 0.9137254953384399
0.3682265877723694 0.8766776919364929 0.9901185631752014 0.41960784792900085 0.41960784792900085 0.38823530077934265
0.4413793087005615 0.8120953440666199 0.29288536310195923 0.11372549086809158 0.11372549086809158 0.10588235408067703
0.26798030734062195 0.9328911900520325 0.00909090880304575 0.6392157077789307 0.6313725709915161 0.572549045085907
0.45418718457221985 0.9327332973480225 0.008695651777088642 0.47058823704719543 0.48235294222831726 0.3686274588108063
0.4083743989467621 0.8143060207366943 0.9905138611793518 0.3490196168422699 0.3450980484485626 0.3294117748737335
0.42980295419692993 0.9317858815193176 0.9893280863761902 0.4117647111415863 0.4156862795352936 0.3921568691730499
0.42290639877319336 0.8673614263534546 0.9897233247756958 0.3764705955982208 0.3843137323856354 0.3333333432674408
0.3881773352622986 0.8018316626548767 0.28893280029296875 0.10196078568696976 0.10196078568696976 0.10196078568696976
0.2618226706981659 0.8979946374893188 0.9901185631752014 0.42352941632270813 0.4117647111415863 0.3843137323856354
0.4366995096206665 0.8084636330604553 0.29960474371910095 0.24313725531101227 0.29411765933036804 0.2666666805744171
0.2588669955730438 0.8397284150123596 0.9909090995788574 0.40392157435417175 0.3921568691730499 0.35686275362968445
0.4000000059604645 0.8711510896682739 0.9901185631752014 0.3960784375667572 0.3960784375667572 0.35686275362968445
0.4364531934261322 0.8577293753623962 0.008695651777088642 0.4901960790157318 0.49803921580314636 0.4431372582912445
0.3339901566505432 0.8575714230537415 0.9909090995788574 0.3607843220233917 0.3686274588108063 0.32549020648002625
0.2576354742050171 0.8116216659545898 0.008695651777088642 0.5529412031173706 0.5490196347236633 0.47058823704719543
0.31502464413642883 0.8144639134407043 0.991304337978363 0.43529412150382996 0.4313725531101227 0.4156862795352936
0.4325123131275177 0.8531501889228821 0.9901185631752014 0.3529411852359772 0.35686275362968445 0.32549020648002625
0.4916256070137024 0.8457286953926086 0.9897233247756958 0.3450980484485626 0.3450980484485626 0.30588236451148987
0.282019704580307 0.9319437742233276 0.00909090880304575 0.6000000238418579 0.6000000238418579 0.5529412031173706
0.25517240166664124 0.9009947776794434 0.9901185631752014 0.4313725531101227 0.41960784792900085 0.3921568691730499
0.4243842363357544 0.8540976047515869 0.9901185631752014 0.3843137323856354 0.3843137323856354 0.3529411852359772
0.31625616550445557 0.9388915300369263 0.008695651777088642 0.501960813999176 0.4941176474094391 0.4470588266849518
0.30763545632362366 0.843360185623169 0.00830039568245411 0.5254902243614197 0.5176470875740051 0.4588235318660736
0.2536945939064026 0.8450971245765686 0.9909090995788574 0.3803921639919281 0.3843137323856354 0.3294117748737335
0.4852216839790344 0.8676772713661194 0.9893280863761902 0.3803921639919281 0.3803921639919281 0.3333333432674408
0.3896551728248596 0.9292594194412231 0.007509881630539894 0.5411764979362488 0.545098066329956 0.4745098054409027
0.3817734122276306 0.8885204195976257 0.9901185631752014 0.3960784375667572 0.4000000059604645 0.3686274588108063
0.44261083006858826 0.897520899772644 0.008695651777088642 0.5686274766921997 0.545098066329956 0.45098039507865906
0.3891625702381134 0.8856781721115112 0.9901185631752014 0.4000000059604645 0.4000000059604645 0.3686274588108063
0.46625617146492004 0.8100426197052002 0.26798418164253235 0.14509804546833038 0.14509804546833038 0.13725490868091583
0.403940886259079 0.8867835402488708 0.007905138656497002 0.4901960790157318 0.501960813999176 0.43529412150382996
0.47463053464889526 0.8065687417984009 0.20118577778339386 0.14509804546833038 0.14509804546833038 0.13725490868091583
0.40640392899513245 0.8184114694595337 0.006719367578625679 0.3921568691730499 0.37254902720451355 0.2862745225429535
0.4364531934261322 0.8577293753623962 0.008695651777088642 0.4901960790157318 0.49803921580314636 0.4431372582912445
0.4923645257949829 0.9046265482902527 0.009486165829002857 0.4117647111415863 0.4431372582912445 0.3607843220233917
0.4564039409160614 0.8065687417984009 0.005533596966415644 0.3294117748737335 0.32156863808631897 0.27450981736183167
0.33916255831718445 0.8067266941070557 0.9909090995788574 0.3960784375667572 0.3803921639919281 0.3764705955982208
0.4317733943462372 0.804831862449646 0.2185770720243454 0.12941177189350128 0.13333334028720856 0.11372549086809158
0.4322659969329834 0.8124111890792847 0.9901185631752014 0.3294117748737335 0.3294117748737335 0.2980392277240753
0.24753694236278534 0.8144639134407043 0.991304337978363 0.9098039269447327 0.9137254953384399 0.929411768913269
0.43103447556495667 0.9254697561264038 0.9893280863761902 0.45098039507865906 0.45490196347236633 0.4313725531101227
0.3642857074737549 0.8517290353775024 0.008695651777088642 0.5215686559677124 0.5176470875740051 0.43921568989753723
0.3839901387691498 0.8035686016082764 0.9905138611793518 0.3529411852359772 0.35686275362968445 0.33725491166114807
0.4908866882324219 0.8075161576271057 0.197628453373909 0.0784313753247261 0.0784313753247261 0.0784313753247261
0.4881773293018341 0.8457286953926086 0.9897233247756958 0.3764705955982208 0.364705890417099 0.3294117748737335
0.48965516686439514 0.7956734299659729 0.9901185631752014 0.30980393290519714 0.3137255012989044 0.29411765933036804
0.31083744764328003 0.8984683156013489 0.00909090880304575 0.5960784554481506 0.5843137502670288 0.5254902243614197
0.38300493359565735 0.8537817597389221 0.008695651777088642 0.5098039507865906 0.5058823823928833 0.4274509847164154
0.3655172288417816 0.9398389458656311 0.9893280863761902 0.4627451002597809 0.4470588266849518 0.4431372582912445
0.4044334888458252 0.8264645338058472 0.9905138611793518 0.364705890417099 0.364705890417099 0.3176470696926117
0.4201970398426056 0.804831862449646 0.25770750641822815 0.0941176488995552 0.09019608050584793 0.07450980693101883
0.46256157755851746 0.8098847270011902 0.17272727191448212 0.14901961386203766 0.14901961386203766 0.1411764770746231
0.4891625642776489 0.8065687417984009 0.00830039568245411 0.05098039284348488 0.05098039284348488 0.04313725605607033
0.2536945939064026 0.7951997518539429 0.9928853511810303 0.9176470637321472 0.9333333373069763 0.9450980424880981
0.2465517222881317 0.8277277946472168 0.9909090995788574 0.41960784792900085 0.41960784792900085 0.3803921639919281
0.4433497488498688 0.7970945835113525 0.005928853526711464 0.21960784494876862 0.21960784494876862 0.1882352977991104
0.40541872382164 0.9019421935081482 0.007905138656497002 0.5607843399047852 0.5568627715110779 0.47843137383461
0.29630541801452637 0.8585188984870911 0.008695651777088642 0.7254902124404907 0.7176470756530762 0.6666666865348816
0.35049259662628174 0.9321016669273376 0.007905138656497002 0.4901960790157318 0.4745098054409027 0.4274509847164154
0.3177340030670166 0.8626243472099304 0.00909090880304575 0.48627451062202454 0.4745098054409027 0.43921568989753723
0.4598522186279297 0.9005210995674133 0.00909090880304575 0.5098039507865906 0.501960813999176 0.4117647111415863
0.44950738549232483 0.9011526703834534 0.008695651777088642 0.4745098054409027 0.47058823704719543 0.3921568691730499
0.4275861978530884 0.9420495629310608 0.9893280863761902 0.4274509847164154 0.42352941632270813 0.40392157435417175
0.4879310429096222 0.9317858815193176 0.9889327883720398 0.40392157435417175 0.40392157435417175 0.37254902720451355
0.381280779838562 0.8585188984870911 0.9905138611793518 0.3764705955982208 0.3764705955982208 0.3294117748737335
0.37142857909202576 0.7926732897758484 0.009486165829002857 0.22745098173618317 0.21568627655506134 0.19607843458652496
0.37463054060935974 0.8457286953926086 0.008695651777088642 0.41960784792900085 0.41960784792900085 0.32549020648002625
0.34655171632766724 0.8951523900032043 0.008695651777088642 0.6627451181411743 0.6509804129600525 0.5843137502670288
0.28842365741729736 0.8951523900032043 0.00909090880304575 0.545098066329956 0.529411792755127 0.48235294222831726
0.4810344874858856 0.8010421395301819 0.007905138656497002 0.08627451211214066 0.09019608050584793 0.06666667014360428
0.376600980758667 0.9431549310684204 0.9893280863761902 0.4470588266849518 0.4431372582912445 0.43529412150382996
0.4357142746448517 0.8733617663383484 0.008695651777088642 0.5176470875740051 0.5254902243614197 0.4431372582912445
0.4174876809120178 0.8615190386772156 0.00830039568245411 0.47843137383461 0.5098039507865906 0.4156862795352936
0.31847289204597473 0.8612031936645508 0.9905138611793518 0.3764705955982208 0.37254902720451355 0.3529411852359772
0.3339901566505432 0.7948839664459229 0.29288536310195923 0.4588235318660736 0.47843137383461 0.4627451002597809
0.45886698365211487 0.8727301359176636 0.9897233247756958 0.3490196168422699 0.3607843220233917 0.32549020648002625
0.28719210624694824 0.9035212397575378 0.00909090880304575 0.5764706134796143 0.5568627715110779 0.5333333611488342
0.40763548016548157 0.9453655481338501 0.9893280863761902 0.4431372582912445 0.43921568989753723 0.42352941632270813
0.2945812940597534 0.9054160714149475 0.00909090880304575 0.5764706134796143 0.5568627715110779 0.5333333611488342
0.28374382853507996 0.810990035533905 0.00909090880304575 0.6000000238418579 0.5960784554481506 0.5176470875740051
0.44236454367637634 0.9197852611541748 0.9893280863761902 0.40784314274787903 0.4117647111415863 0.3803921639919281
0.28743842244148254 0.9461550712585449 0.9893280863761902 0.4470588266849518 0.43529412150382996 0.4156862795352936
0.37931033968925476 0.9032054543495178 0.007509881630539894 0.529411792755127 0.5372549295425415 0.48235294222831726
0.41108375787734985 0.9122059345245361 0.9893280863761902 0.4117647111415863 0.4156862795352936 0.3960784375667572
0.3965517282485962 0.8929417133331299 0.9897233247756958 0.3921568691730499 0.4000000059604645 0.35686275362968445
0.35073891282081604 0.7958313822746277 0.29367589950561523 0.5098039507865906 0.5333333611488342 0.5254902243614197
0.25566503405570984 0.8019895553588867 0.008695651777088642 0.572549045085907 0.5529412031173706 0.47843137383461
0.35985222458839417 0.8548871278762817 0.008695651777088642 0.545098066329956 0.5411764979362488 0.4627451002597809
0.4608374238014221 0.9415758848190308 0.9889327883720398 0.42352941632270813 0.41960784792900085 0.4000000059604645
0.42315271496772766 0.8531501889228821 0.00830039568245411 0.41960784792900085 0.4274509847164154 0.3333333432674408
0.4556650221347809 0.9096794724464417 0.9893280863761902 0.3843137323856354 0.38823530077934265 0.35686275362968445
0.2463054209947586 0.8152534365653992 0.008695651777088642 0.45098039507865906 0.45490196347236633 0.3843137323856354
0.3103448152542114 0.8394126296043396 0.9909090995788574 0.38823530077934265 0.38823530077934265 0.3490196168422699
0.35886698961257935 0.8359387516975403 0.9909090995788574 0.3607843220233917 0.364705890417099 0.34117648005485535
0.37857142090797424 0.9262592792510986 0.007509881630539894 0.5607843399047852 0.5529412031173706 0.4941176474094391
0.3642857074737549 0.8008842468261719 0.9909090995788574 0.3490196168422699 0.3529411852359772 0.3333333432674408
0.24753694236278534 0.9425233006477356 0.35770750045776367 0.15294118225574493 0.15294118225574493 0.14509804546833038
0.4891625642776489 0.8057792782783508 0.22252964973449707 0.1882352977991104 0.1921568661928177 0.1725490242242813
0.3482758700847626 0.7964629530906677 0.29328063130378723 0.4941176474094391 0.5176470875740051 0.501960813999176
0.3499999940395355 0.9038370251655579 0.9901185631752014 0.4431372582912445 0.43921568989753723 0.42352941632270813
0.4842364490032196 0.8945207595825195 0.009486165829002857 0.4941176474094391 0.49803921580314636 0.43529412150382996
0.2507389187812805 0.8498342037200928 0.9909090995788574 0.3960784375667572 0.38823530077934265 0.33725491166114807
0.471182256937027 0.9117321968078613 0.9893280863761902 0.3803921639919281 0.3803921639919281 0.3490196168422699
0.2967980206012726 0.8596242070198059 0.9905138611793518 0.40392157435417175 0.40392157435417175 0.364705890417099
0.3958128094673157 0.8987841606140137 0.007905138656497002 0.49803921580314636 0.5176470875740051 0.43921568989753723
0.2650246322154999 0.9324175119400024 0.00909090880304575 0.6000000238418579 0.5843137502670288 0.5372549295425415
0.41157636046409607 0.811147928237915 0.9905138611793518 0.364705890417099 0.3607843220233917 0.3450980484485626
0.46600985527038574 0.8840991854667664 0.9893280863761902 0.3764705955982208 0.3803921639919281 0.3490196168422699
0.41034483909606934 0.7925153970718384 0.9901185631752014 0.3333333432674408 0.33725491166114807 0.3137255012989044
0.42660099267959595 0.9360492825508118 0.9893280863761902 0.4274509847164154 0.4313725531101227 0.4117647111415863
0.31133005023002625 0.8342018127441406 0.008695651777088642 0.4941176474094391 0.48235294222831726 0.40784314274787903
0.26453202962875366 0.8563082218170166 0.9909090995788574 0.3921568691730499 0.3843137323856354 0.3333333432674408
0.3652709424495697 0.8935733437538147 0.9901185631752014 0.4274509847164154 0.4274509847164154 0.3803921639919281
0.2689655125141144 0.8585188984870911 0.9905138611793518 0.3843137323856354 0.3764705955982208 0.32549020648002625
0.2815271019935608 0.8510974049568176 0.9909090995788574 0.3764705955982208 0.3764705955982208 0.33725491166114807
0.34802955389022827 0.7928311824798584 0.010276679880917072 0.30588236451148987 0.30588236451148987 0.2666666805744171
0.4046798050403595 0.8345175981521606 0.0071146246045827866 0.48627451062202454 0.4745098054409027 0.4000000059604645
0.33128079771995544 0.8927838206291199 0.008695651777088642 0.5372549295425415 0.5372549295425415 0.4901960790157318
0.3928571343421936 0.8825201392173767 0.007905138656497002 0.5803921818733215 0.5921568870544434 0.5176470875740051
0.25517240166664124 0.8552029132843018 0.008695651777088642 0.6549019813537598 0.6431372761726379 0.5764706134796143
0.400738924741745 0.8733617663383484 0.9901185631752014 0.4117647111415863 0.4117647111415863 0.37254902720451355
0.37512314319610596 0.9003631472587585 0.9897233247756958 0.4431372582912445 0.4431372582912445 0.40392157435417175
0.3174876868724823 0.8168324828147888 0.991304337978363 0.4313725531101227 0.4274509847164154 0.40784314274787903
0.2938423752784729 0.8762040138244629 0.00909090880304575 0.6235294342041016 0.615686297416687 0.5686274766921997
0.3657635450363159 0.9442602396011353 0.9893280863761902 0.42352941632270813 0.40784314274787903 0.40392157435417175
0.378078818321228 0.8240960240364075 0.9909090995788574 0.3294117748737335 0.3294117748737335 0.32156863808631897
0.45418718457221985 0.8081477880477905 0.9901185631752014 0.2980392277240753 0.29411765933036804 0.27450981736183167
0.42635467648506165 0.8034107089042664 0.1932806372642517 0.0941176488995552 0.0941176488995552 0.08627451211214066
0.428078830242157 0.8515711426734924 0.008695651777088642 0.48627451062202454 0.48627451062202454 0.3843137323856354
0.33940887451171875 0.7912521958351135 0.9909090995788574 0.3921568691730499 0.3921568691730499 0.3843137323856354
0.4364531934261322 0.8375177383422852 0.0063241105526685715 0.4000000059604645 0.38823530077934265 0.32156863808631897
0.3290640413761139 0.8155692219734192 0.991304337978363 0.40784314274787903 0.40392157435417175 0.3843137323856354
0.3371921181678772 0.9215222001075745 0.9897233247756958 0.46666666865348816 0.45098039507865906 0.43921568989753723
0.2615763545036316 0.8375177383422852 0.008695651777088642 0.5882353186607361 0.5803921818733215 0.529411792755127
0.2586206793785095 0.9021000862121582 0.00909090880304575 0.6823529601097107 0.6705882549285889 0.6039215922355652
0.44679802656173706 0.8078320026397705 0.18379446864128113 0.12941177189350128 0.12941177189350128 0.12156862765550613
0.3778325021266937 0.8067266941070557 0.9905138611793518 0.3294117748737335 0.33725491166114807 0.3176470696926117
0.4216748774051666 0.8499920964241028 0.9901185631752014 0.3960784375667572 0.3960784375667572 0.35686275362968445
0.41847291588783264 0.8045160174369812 0.28774702548980713 0.11764705926179886 0.12156862765550613 0.09803921729326248
0.47807881236076355 0.8722564578056335 0.9893280863761902 0.3764705955982208 0.3764705955982208 0.3450980484485626
0.33916255831718445 0.8462024331092834 0.00830039568245411 0.5058823823928833 0.4941176474094391 0.41960784792900085
0.37857142090797424 0.9428390860557556 0.9893280863761902 0.45490196347236633 0.45098039507865906 0.4431372582912445
0.35467979311943054 0.8866255879402161 0.9901185631752014 0.4470588266849518 0.43529412150382996 0.4156862795352936
0.35394087433815 0.9088899493217468 0.9897233247756958 0.40784314274787903 0.40784314274787903 0.3764705955982208
0.4194581210613251 0.8954681754112244 0.00830039568245411 0.4588235318660736 0.46666666865348816 0.4117647111415863
0.27487683296203613 0.8899415731430054 0.00909090880304575 0.686274528503418 0.6823529601097107 0.6039215922355652
0.2536945939064026 0.91946941614151 0.3592885434627533 0.09019608050584793 0.09019608050584793 0.09019608050584793
0.39187192916870117 0.9232591390609741 0.007509881630539894 0.5843137502670288 0.5882353186607361 0.5254902243614197
0.32389163970947266 0.8343597054481506 0.00830039568245411 0.43921568989753723 0.4274509847164154 0.3529411852359772
0.400738924741745 0.7904626727104187 0.00830039568245411 0.21176470816135406 0.20000000298023224 0.16470588743686676
0.25591132044792175 0.8514132499694824 0.9909090995788574 0.40392157435417175 0.3960784375667572 0.3450980484485626
0.27167487144470215 0.8848886489868164 0.00909090880304575 0.6509804129600525 0.6431372761726379 0.5843137502670288
0.3970443308353424 0.9062055945396423 0.9897233247756958 0.42352941632270813 0.41960784792900085 0.4000000059604645
0.437438428401947 0.8081477880477905 0.2762845754623413 0.12156862765550613 0.12156862765550613 0.11372549086809158
0.3418719172477722 0.8594663143157959 0.9905138611793518 0.3490196168422699 0.3529411852359772 0.3294117748737335
0.27906402945518494 0.9144165515899658 0.9897233247756958 0.4470588266849518 0.4431372582912445 0.42352941632270813
0.27192118763923645 0.8392546772956848 0.9909090995788574 0.3843137323856354 0.3764705955982208 0.3294117748737335
0.47512316703796387 0.9406284689903259 0.00909090880304575 0.5764706134796143 0.5843137502670288 0.501960813999176
0.4514778256416321 0.8416232466697693 0.9901185631752014 0.3607843220233917 0.3607843220233917 0.3294117748737335
0.44261083006858826 0.8120953440666199 0.28893280029296875 0.11764705926179886 0.11764705926179886 0.10980392247438431
0.45492610335350037 0.7964629530906677 0.9901185631752014 0.3137255012989044 0.30980393290519714 0.29411765933036804
0.44975370168685913 0.8600978851318359 0.9897233247756958 0.35686275362968445 0.364705890417099 0.3137255012989044
0.43842363357543945 0.8015158772468567 0.9901185631752014 0.3450980484485626 0.34117648005485535 0.3333333432674408
0.4177339971065521 0.9464708566665649 0.007905138656497002 0.3960784375667572 0.38823530077934265 0.3294117748737335
0.46650245785713196 0.7934628129005432 0.9901185631752014 0.3176470696926117 0.3137255012989044 0.30588236451148987
0.35492610931396484 0.8375177383422852 0.9909090995788574 0.3450980484485626 0.34117648005485535 0.32156863808631897
0.42610836029052734 0.913469135761261 0.00830039568245411 0.47058823704719543 0.4901960790157318 0.40392157435417175
0.3371921181678772 0.8485710024833679 0.9909090995788574 0.3607843220233917 0.364705890417099 0.34117648005485535
0.46231526136398315 0.8413074612617493 0.0071146246045827866 0.47058823704719543 0.46666666865348816 0.3960784375667572
0.3022167384624481 0.821727454662323 0.991304337978363 0.4000000059604645 0.3843137323856354 0.3803921639919281
0.4492610692977905 0.8645191788673401 0.9897233247756958 0.3764705955982208 0.3764705955982208 0.33725491166114807
0.460098534822464 0.8572556376457214 0.00830039568245411 0.5764706134796143 0.5921568870544434 0.5372549295425415
0.3815270960330963 0.9381020069122314 0.9893280863761902 0.43529412150382996 0.4313725531101227 0.4156862795352936
0.35073891282081604 0.8222011923789978 0.9909090995788574 0.34117648005485535 0.33725491166114807 0.3176470696926117
0.2938423752784729 0.9204168915748596 0.9897233247756958 0.40784314274787903 0.40392157435417175 0.38823530077934265
0.4923645257949829 0.9046265482902527 0.009486165829002857 0.4117647111415863 0.4431372582912445 0.3607843220233917
0.3810344934463501 0.799463152885437 0.9905138611793518 0.3803921639919281 0.3843137323856354 0.3607843220233917
0.4689655303955078 0.8798357844352722 0.00909090880304575 0.545098066329956 0.5372549295425415 0.48627451062202454
0.26724138855934143 0.9332070350646973 0.9893280863761902 0.45490196347236633 0.4431372582912445 0.4156862795352936
0.2746305465698242 0.8090952038764954 0.992094874382019 0.9058823585510254 0.9215686321258545 0.9254902005195618
0.46970441937446594 0.8387809991836548 0.006719367578625679 0.4745098054409027 0.47058823704719543 0.38823530077934265
0.36699506640434265 0.8463603258132935 0.9905138611793518 0.3294117748737335 0.3333333432674408 0.30980393290519714
0.4802955687046051 0.8068845868110657 0.3110671937465668 0.5098039507865906 0.5568627715110779 0.5411764979362488
0.2544334828853607 0.9447339177131653 0.35691699385643005 0.13333334028720856 0.13333334028720856 0.13333334028720856
0.4763546884059906 0.886467695236206 0.009486165829002857 0.501960813999176 0.5215686559677124 0.43529412150382996
0.4610837399959564 0.8398863077163696 0.0071146246045827866 0.5333333611488342 0.5372549295425415 0.46666666865348816
0.3657635450363159 0.9156797528266907 0.9897233247756958 0.45098039507865906 0.4470588266849518 0.4313725531101227
0.24753694236278534 0.9425233006477356 0.35770750045776367 0.15294118225574493 0.15294118225574493 0.14509804546833038
0.341379314661026 0.8550450205802917 0.9905138611793518 0.30588236451148987 0.30980393290519714 0.2862745225429535
0.30812808871269226 0.9122059345245361 0.9897233247756958 0.45098039507865906 0.43529412150382996 0.42352941632270813
0.2825123071670532 0.8779409527778625 0.00909090880304575 0.6039215922355652 0.5960784554481506 0.5372549295425415
0.3455665111541748 0.8059371709823608 0.010276679880917072 0.4588235318660736 0.43921568989753723 0.364705890417099
0.4529556632041931 0.816358745098114 0.9901185631752014 0.30588236451148987 0.3019607961177826 0.2823529541492462
0.3049260973930359 0.8752565979957581 0.00909090880304575 0.6392157077789307 0.6313725709915161 0.572549045085907
0.31970444321632385 0.8446233868598938 0.9909090995788574 0.3764705955982208 0.37254902720451355 0.3529411852359772
0.2502463161945343 0.9092057347297668 0.00909090880304575 0.5490196347236633 0.5411764979362488 0.4588235318660736
0.3694581389427185 0.8293067812919617 0.9909090995788574 0.3176470696926117 0.32156863808631897 0.2980392277240753
0.2605911195278168 0.8867835402488708 0.9901185631752014 0.40784314274787903 0.3960784375667572 0.3686274588108063
0.33201971650123596 0.8032528162002563 0.9909090995788574 0.41960784792900085 0.4156862795352936 0.40784314274787903
0.4635468125343323 0.7921996116638184 0.005928853526711464 0.0235294122248888 0.027450980618596077 0.003921568859368563
0.3054187297821045 0.8360966444015503 0.008695651777088642 0.6117647290229797 0.6000000238418579 0.5254902243614197
0.48571428656578064 0.8084636330604553 0.1513833999633789 0.1568627506494522 0.1568627506494522 0.1568627506494522
0.47881773114204407 0.9085741639137268 0.9893280863761902 0.40784314274787903 0.40784314274787903 0.3686274588108063
0.41551724076271057 0.907784640789032 0.007905138656497002 0.4000000059604645 0.41960784792900085 0.34117648005485535
0.3290640413761139 0.9393652081489563 0.008695651777088642 0.5607843399047852 0.545098066329956 0.49803921580314636
0.25 0.804831862449646 0.008695651777088642 0.658823549747467 0.6549019813537598 0.545098066329956
0.26428571343421936 0.9349439740180969 0.00909090880304575 0.5921568870544434 0.5764706134796143 0.529411792755127
0.3209359645843506 0.8422548770904541 0.9909090995788574 0.3803921639919281 0.3843137323856354 0.3607843220233917
0.4598522186279297 0.8831517696380615 0.9893280863761902 0.364705890417099 0.364705890417099 0.32549020648002625
0.36379310488700867 0.7909363508224487 0.9905138611793518 0.364705890417099 0.3607843220233917 0.3450980484485626
0.4729064106941223 0.8462024331092834 0.0071146246045827866 0.5254902243614197 0.5333333611488342 0.45098039507865906
0.25295567512512207 0.91915363073349 0.00909090880304575 0.5764706134796143 0.5647059082984924 0.49803921580314636
0.3935960531234741 0.8166745901107788 0.9905138611793518 0.364705890417099 0.3607843220233917 0.3529411852359772
0.39433497190475464 0.9232591390609741 0.9893280863761902 0.45098039507865906 0.45490196347236633 0.4313725531101227
0.254679799079895 0.913153350353241 0.9897233247756958 0.4274509847164154 0.4156862795352936 0.38823530077934265
0.4770936071872711 0.8057792782783508 0.2245059311389923 0.1921568661928177 0.19607843458652496 0.1725490242242813
0.2822660207748413 0.8545712828636169 0.008695651777088642 0.6235294342041016 0.6274510025978088 0.5568627715110779
0.4450739026069641 0.8654665946960449 0.008695651777088642 0.545098066329956 0.5254902243614197 0.43921568989753723
0.29901477694511414 0.8266224265098572 0.991304337978363 0.40784314274787903 0.40392157435417175 0.38823530077934265
0.46576353907585144 0.8090952038764954 0.17984189093112946 0.14901961386203766 0.14901961386203766 0.14901961386203766
0.31133005023002625 0.8226748704910278 0.009486165829002857 0.5647059082984924 0.5686274766921997 0.49803921580314636
0.33940887451171875 0.8395705223083496 0.007509881630539894 0.529411792755127 0.5176470875740051 0.4431372582912445
0.3256157636642456 0.8719406127929688 0.9905138611793518 0.3921568691730499 0.3921568691730499 0.3607843220233917
0.39014777541160583 0.804989755153656 0.00830039568245411 0.3019607961177826 0.29411765933036804 0.24705882370471954
0.25665023922920227 0.8820464015007019 0.009486165829002857 0.49803921580314636 0.48627451062202454 0.4117647111415863
0.4756157696247101 0.908100426197052 0.00909090880304575 0.4941176474094391 0.5254902243614197 0.4313725531101227
0.47093597054481506 0.8207800388336182 0.9897233247756958 0.34117648005485535 0.34117648005485535 0.30980393290519714
0.4603448212146759 0.924838125705719 0.008695651777088642 0.46666666865348816 0.4941176474094391 0.4313725531101227
0.39827585220336914 0.8818885087966919 0.9897233247756958 0.33725491166114807 0.33725491166114807 0.2980392277240753
0.34704434871673584 0.8057792782783508 0.9909090995788574 0.35686275362968445 0.3529411852359772 0.33725491166114807
0.4445812702178955 0.9153639674186707 0.9893280863761902 0.43529412150382996 0.43921568989753723 0.40784314274787903
0.4416256248950958 0.8600978851318359 0.008695651777088642 0.4941176474094391 0.5058823823928833 0.4000000059604645
0.3770935833454132 0.9128375053405762 0.9897233247756958 0.4156862795352936 0.42352941632270813 0.40392157435417175
0.3815270960330963 0.8823622465133667 0.00830039568245411 0.5882353186607361 0.5607843399047852 0.4901960790157318
0.26871922612190247 0.8023054003715515 0.00909090880304575 0.6431372761726379 0.6352941393852234 0.5529412031173706
0.3566502332687378 0.8539396524429321 0.008695651777088642 0.5921568870544434 0.6000000238418579 0.5176470875740051
0.4477832615375519 0.8057792782783508 0.19960474967956543 0.07058823853731155 0.07450980693101883 0.05098039284348488
0.25566503405570984 0.8607295155525208 0.008695651777088642 0.6039215922355652 0.5960784554481506 0.5137255191802979
0.4490147829055786 0.8068845868110657 0.9901185631752014 0.32156863808631897 0.32156863808631897 0.29019609093666077
0.42733991146087646 0.8683088421821594 0.00830039568245411 0.545098066329956 0.5607843399047852 0.47058823704719543
0.4088670015335083 0.8700457811355591 0.9901185631752014 0.40392157435417175 0.40392157435417175 0.35686275362968445
0.37093594670295715 0.9182062149047852 0.007509881630539894 0.5490196347236633 0.5411764979362488 0.48235294222831726
0.4568965435028076 0.8098847270011902 0.3173913061618805 0.5176470875740051 0.5607843399047852 0.545098066329956
0.4036945700645447 0.9232591390609741 0.9893280863761902 0.4274509847164154 0.4274509847164154 0.3960784375667572
0.4433497488498688 0.7970945835113525 0.005928853526711464 0.21960784494876862 0.21960784494876862 0.1882352977991104
0.2495073825120926 0.8724143505096436 0.9905138611793518 0.37254902720451355 0.37254902720451355 0.32549020648002625
0.29482758045196533 0.9251539707183838 0.00909090880304575 0.5882353186607361 0.572549045085907 0.5372549295425415
0.3805418610572815 0.8139902353286743 0.9905138611793518 0.3490196168422699 0.3450980484485626 0.3294117748737335
0.2495073825120926 0.8921521902084351 0.9901185631752014 0.4117647111415863 0.4000000059604645 0.37254902720451355
0.2591133117675781 0.8877309560775757 0.009486165829002857 0.7215686440467834 0.7176470756530762 0.6470588445663452
0.4798029661178589 0.9062055945396423 0.009486165829002857 0.4627451002597809 0.4941176474094391 0.40392157435417175
0.3285714387893677 0.9319437742233276 0.9893280863761902 0.43529412150382996 0.4313725531101227 0.4156862795352936
0.4714285731315613 0.9309963583946228 0.9889327883720398 0.4156862795352936 0.4117647111415863 0.3921568691730499
0.48546797037124634 0.8599399924278259 0.007509881630539894 0.3764705955982208 0.3843137323856354 0.29019609093666077
0.3655172288417816 0.8289909958839417 0.9909090995788574 0.32156863808631897 0.32549020648002625 0.3019607961177826
0.48251232504844666 0.8335701823234558 0.9897233247756958 0.34117648005485535 0.34117648005485535 0.30980393290519714
0.3266009986400604 0.91883784532547 0.9897233247756958 0.4745098054409027 0.4588235318660736 0.45490196347236633
0.35886698961257935 0.8409916162490845 0.9909090995788574 0.3607843220233917 0.35686275362968445 0.33725491166114807
0.27660098671913147 0.902731716632843 0.9901185631752014 0.4117647111415863 0.4000000059604645 0.3803921639919281
0.4561576247215271 0.9283120036125183 0.008695651777088642 0.43529412150382996 0.4431372582912445 0.3921568691730499
0.4322659969329834 0.8545712828636169 0.9901185631752014 0.34117648005485535 0.3450980484485626 0.3137255012989044
0.4290640354156494 0.805621325969696 0.25138339400291443 0.1411764770746231 0.14509804546833038 0.125490203499794
0.277339905500412 0.8990999460220337 0.9901185631752014 0.4470588266849518 0.4313725531101227 0.41960784792900085
0.4169950783252716 0.8589925765991211 0.00830039568245411 0.5215686559677124 0.5215686559677124 0.4274509847164154
0.3655172288417816 0.8089373111724854 0.9909090995788574 0.3333333432674408 0.33725491166114807 0.3176470696926117
0.4241379201412201 0.8840991854667664 0.9897233247756958 0.38823530077934265 0.38823530077934265 0.3490196168422699
0.3332512378692627 0.8817306160926819 0.00909090880304575 0.5490196347236633 0.5568627715110779 0.5058823823928833
0.3332512378692627 0.8596242070198059 0.9909090995788574 0.3450980484485626 0.3529411852359772 0.3019607961177826
0.37955665588378906 0.8340439200401306 0.006719367578625679 0.4000000059604645 0.40392157435417175 0.3333333432674408
0.2699507474899292 0.8732038736343384 0.00909090880304575 0.529411792755127 0.5333333611488342 0.47058823704719543
0.43128079175949097 0.827411949634552 0.9901185631752014 0.33725491166114807 0.3450980484485626 0.29411765933036804
0.47758620977401733 0.821569561958313 0.9897233247756958 0.3176470696926117 0.32156863808631897 0.2980392277240753
0.34236451983451843 0.8398863077163696 0.9909090995788574 0.3450980484485626 0.3490196168422699 0.32549020648002625
0.43497535586357117 0.849044680595398 0.008695651777088642 0.5960784554481506 0.5803921818733215 0.4745098054409027
0.4366995096206665 0.8015158772468567 0.0063241105526685715 0.25882354378700256 0.26274511218070984 0.1921568661928177
0.3738916218280792 0.7933049201965332 0.009486165829002857 0.29019609093666077 0.2666666805744171 0.21960784494876862
0.35566502809524536 0.8094110488891602 0.009486165829002857 0.3960784375667572 0.38823530077934265 0.30588236451148987
0.47906404733657837 0.9439443945884705 0.9889327883720398 0.40784314274787903 0.40392157435417175 0.3843137323856354
0.4216748774051666 0.8499920964241028 0.9901185631752014 0.3960784375667572 0.3960784375667572 0.35686275362968445
0.4455665051937103 0.9444181323051453 0.00830039568245411 0.4627451002597809 0.46666666865348816 0.4117647111415863
0.49014776945114136 0.8177798986434937 0.005928853526711464 0.5058823823928833 0.501960813999176 0.42352941632270813
0.3524630665779114 0.9063634872436523 0.9897233247756958 0.4431372582912445 0.43921568989753723 0.41960784792900085
0.4325123131275177 0.8836254477500916 0.00830039568245411 0.4901960790157318 0.5058823823928833 0.4156862795352936
0.3921182155609131 0.8182535767555237 0.9905138611793518 0.3333333432674408 0.32549020648002625 0.3294117748737335
0.3889162540435791 0.8247275948524475 0.9905138611793518 0.3490196168422699 0.3490196168422699 0.34117648005485535
0.3135468065738678 0.9033633470535278 0.9901185631752014 0.40784314274787903 0.40392157435417175 0.38823530077934265
0.4837438464164734 0.8062529563903809 0.20909090340137482 0.2666666805744171 0.2666666805744171 0.25882354378700256
0.28004926443099976 0.8837833404541016 0.9901185631752014 0.4000000059604645 0.4000000059604645 0.3686274588108063
0.4475369453430176 0.8013579845428467 0.9901185631752014 0.30588236451148987 0.3019607961177826 0.2862745225429535
0.4396551847457886 0.7989894151687622 0.0063241105526685715 0.21568627655506134 0.21568627655506134 0.16862745583057404
0.3411329984664917 0.9032054543495178 0.008695651777088642 0.6745098233222961 0.6666666865348816 0.6078431606292725
0.2618226706981659 0.9365229606628418 0.9893280863761902 0.43921568989753723 0.41960784792900085 0.3960784375667572
0.45073890686035156 0.8240960240364075 0.9901185631752014 0.34117648005485535 0.3450980484485626 0.3137255012989044
0.314039409160614 0.8023054003715515 0.009881422854959965 0.48235294222831726 0.4745098054409027 0.3921568691730499
0.4041872024536133 0.8136743903160095 0.9905138611793518 0.29411765933036804 0.29019609093666077 0.27450981736183167
0.37118226289749146 0.9036791324615479 0.9897233247756958 0.43921568989753723 0.43921568989753723 0.40784314274787903
0.45049262046813965 0.7915679812431335 0.005928853526711464 0.2705882489681244 0.2705882489681244 0.23137255012989044
0.3657635450363159 0.8242539167404175 0.007905138656497002 0.41960784792900085 0.40784314274787903 0.3333333432674408
0.4729064106941223 0.8757302761077881 0.9893280863761902 0.3803921639919281 0.37254902720451355 0.32549020648002625
0.26847290992736816 0.9267329573631287 0.00909090880304575 0.658823549747467 0.658823549747467 0.6196078658103943
0.3182266056537628 0.8337280750274658 0.008695651777088642 0.4313725531101227 0.42352941632270813 0.364705890417099
0.4674876928329468 0.8076741099357605 0.25770750641822815 0.15294118225574493 0.15294118225574493 0.14509804546833038
0.4440886676311493 0.8300963044166565 0.9901185631752014 0.3607843220233917 0.364705890417099 0.3333333432674408
0.3403940796852112 0.8097268342971802 0.009881422854959965 0.3333333432674408 0.32549020648002625 0.2666666805744171
0.4714285731315613 0.8062529563903809 0.2501976191997528 0.16470588743686676 0.16862745583057404 0.14901961386203766
0.4206896424293518 0.8079898953437805 0.17430830001831055 0.16078431904315948 0.1764705926179886 0.18039216101169586
0.48990148305892944 0.8621506690979004 0.9897233247756958 0.3686274588108063 0.3686274588108063 0.32156863808631897
0.4083743989467621 0.9036791324615479 0.007905138656497002 0.658823549747467 0.6549019813537598 0.572549045085907
0.26748767495155334 0.9224696159362793 0.00909090880304575 0.6980392336845398 0.6980392336845398 0.658823549747467
0.24679802358150482 0.9047844409942627 0.9897233247756958 0.43529412150382996 0.42352941632270813 0.40392157435417175
0.4844827651977539 0.8728880286216736 0.9893280863761902 0.3686274588108063 0.3686274588108063 0.33725491166114807
0.43866994976997375 0.8539396524429321 0.9897233247756958 0.3764705955982208 0.3764705955982208 0.3450980484485626
0.3775862157344818 0.8945207595825195 0.007905138656497002 0.6039215922355652 0.615686297416687 0.5490196347236633
0.4413793087005615 0.9265750646591187 0.9893280863761902 0.41960784792900085 0.41960784792900085 0.38823530077934265
0.30394089221954346 0.8424127697944641 0.00830039568245411 0.5490196347236633 0.5372549295425415 0.47843137383461
0.4049261212348938 0.8029369711875916 0.007509881630539894 0.24705882370471954 0.239215686917305 0.1921568661928177
0.38669949769973755 0.8083056807518005 0.00830039568245411 0.24705882370471954 0.239215686917305 0.1921568661928177
0.35073891282081604 0.891836404800415 0.008695651777088642 0.5137255191802979 0.5176470875740051 0.4627451002597809
0.4049261212348938 0.8836254477500916 0.007905138656497002 0.7137255072593689 0.7058823704719543 0.658823549747467
0.41133004426956177 0.8531501889228821 0.9901185631752014 0.3686274588108063 0.3686274588108063 0.33725491166114807
0.4886699616909027 0.9414179921150208 0.00909090880304575 0.6431372761726379 0.6470588445663452 0.5764706134796143
0.4334975481033325 0.9267329573631287 0.9893280863761902 0.4156862795352936 0.41960784792900085 0.4000000059604645
0.3182266056537628 0.9216800928115845 0.9897233247756958 0.47058823704719543 0.46666666865348816 0.45098039507865906
0.2943349778652191 0.8654665946960449 0.00909090880304575 0.6431372761726379 0.6470588445663452 0.5921568870544434
