0.9847290515899658 0.6925627589225769 0.8482213616371155 0.5960784554481506 0.5843137502670288 0.5254902243614197
0.9758620858192444 0.5728722810745239 0.47747036814689636 0.6705882549285889 0.6941176652908325 0.686274528503418
0.9810344576835632 0.6875098943710327 0.7881422638893127 0.6117647290229797 0.6235294342041016 0.6431372761726379
0.940640389919281 0.6372966766357422 0.005928853526711464 0.46666666865348816 0.45490196347236633 0.3960784375667572
0.9859606027603149 0.6867203712463379 0.9118577241897583 0.5333333611488342 0.5098039507865906 0.40784314274787903
0.9758620858192444 0.5960839986801147 0.5280632376670837 0.6705882549285889 0.686274528503418 0.6823529601097107
0.9416255950927734 0.6418758630752563 0.9905138611793518 0.43921568989753723 0.42352941632270813 0.3803921639919281
0.9810344576835632 0.6500868201255798 0.791304349899292 0.5843137502670288 0.6000000238418579 0.6039215922355652
0.9862068891525269 0.6556134819984436 0.968774676322937 0.4313725531101227 0.40784314274787903 0.3450980484485626
0.9775862097740173 0.5910311341285706 0.365612655878067 0.6901960968971252 0.7215686440467834 0.7333333492279053
0.9783251285552979 0.5930838584899902 0.7245059013366699 0.5803921818733215 0.6000000238418579 0.5843137502670288
0.9748768210411072 0.7039318084716797 0.33636364340782166 0.5490196347236633 0.6196078658103943 0.6274510025978088
0.9783251285552979 0.6938260197639465 0.6470355987548828 0.6509804129600525 0.6705882549285889 0.6823529601097107
0.9820197224617004 0.5662403106689453 0.20632411539554596 0.6627451181411743 0.6745098233222961 0.5921568870544434
0.9034482836723328 0.7055107951164246 0.005928853526711464 0.43921568989753723 0.4313725531101227 0.34117648005485535
0.9817733764648438 0.5603979229927063 0.2241106778383255 0.6627451181411743 0.6745098233222961 0.5921568870544434
0.9820197224617004 0.6181904077529907 0.8047431111335754 0.5568627715110779 0.5647059082984924 0.5137255191802979
0.9475369453430176 0.5941891670227051 0.9905138611793518 0.4156862795352936 0.4117647111415863 0.34117648005485535
0.9807881712913513 0.6257697939872742 0.01976284570991993 0.23529411852359772 0.20000000298023224 0.16470588743686676
0.9825122952461243 0.7070898413658142 0.24822133779525757 0.6901960968971252 0.7019608020782471 0.6352941393852234
0.9214285612106323 0.5836096405982971 0.9901185631752014 0.3921568691730499 0.3764705955982208 0.3333333432674408
0.9394088387489319 0.5843991637229919 0.0063241105526685715 0.4313725531101227 0.4313725531101227 0.33725491166114807
0.9758620858192444 0.615821897983551 0.5276679992675781 0.6823529601097107 0.686274528503418 0.6941176652908325
0.9857142567634583 0.6142428517341614 0.9671936631202698 0.40392157435417175 0.3686274588108063 0.3019607961177826
0.9768472909927368 0.6396652460098267 0.44545453786849976 0.6901960968971252 0.7098039388656616 0.7333333492279053
0.9837438464164734 0.6444023251533508 0.8173912763595581 0.5803921818733215 0.5843137502670288 0.5529412031173706
0.9825122952461243 0.5956103205680847 0.17944663763046265 0.6549019813537598 0.6666666865348816 0.5843137502670288
0.8635467886924744 0.6734564900398254 0.005533596966415644 0.4313725531101227 0.4431372582912445 0.33725491166114807
0.9756157398223877 0.5690825581550598 0.48260870575904846 0.6705882549285889 0.686274528503418 0.6901960968971252
0.9817733764648438 0.5577135682106018 0.26245060563087463 0.6352941393852234 0.6627451181411743 0.5921568870544434
0.9822660088539124 0.6658771634101868 0.07944664359092712 0.7098039388656616 0.7058823704719543 0.6352941393852234
0.8699507117271423 0.6194536685943604 0.005928853526711464 0.4901960790157318 0.48235294222831726 0.3843137323856354
0.9687191843986511 0.5806095004081726 0.9901185631752014 0.35686275362968445 0.3450980484485626 0.2862745225429535
0.926600992679596 0.6357176899909973 0.9905138611793518 0.46666666865348816 0.4588235318660736 0.4117647111415863
0.9844827651977539 0.5581872463226318 0.9071146249771118 0.4901960790157318 0.46666666865348816 0.364705890417099
0.9820197224617004 0.610611081123352 0.05375494062900543 0.6666666865348816 0.6745098233222961 0.5803921818733215
0.8854680061340332 0.5668719410896301 0.0063241105526685715 0.5098039507865906 0.4901960790157318 0.40392157435417175
0.8963054418563843 0.6982472538948059 0.9893280863761902 0.4431372582912445 0.4274509847164154 0.3843137323856354
0.9778324961662292 0.5987683534622192 0.3490118682384491 0.7490196228027344 0.7686274647712708 0.7843137383460999
0.9790640473365784 0.654034435749054 0.01462450623512268 0.25882354378700256 0.22745098173618317 0.18431372940540314
0.9773399233818054 0.6834043860435486 0.5924901366233826 0.6901960968971252 0.7058823704719543 0.7176470756530762
0.8694581389427185 0.6014527082443237 0.9901185631752014 0.3764705955982208 0.3686274588108063 0.32156863808631897
0.979556679725647 0.5932417511940002 0.979051411151886 0.38823530077934265 0.364705890417099 0.3019607961177826
0.9815270900726318 0.604768693447113 0.2861660122871399 0.5921568870544434 0.5921568870544434 0.49803921580314636
0.9778324961662292 0.6605084538459778 0.6648221611976624 0.6823529601097107 0.686274528503418 0.7058823704719543
0.9455664753913879 0.6631928086280823 0.005533596966415644 0.5333333611488342 0.47058823704719543 0.41960784792900085
0.9820197224617004 0.6579819917678833 0.17944663763046265 0.7215686440467834 0.7254902124404907 0.6549019813537598
0.9768472909927368 0.62119060754776 0.34505927562713623 0.7686274647712708 0.7843137383460999 0.7960784435272217
0.8706896305084229 0.6464550495147705 0.005928853526711464 0.43529412150382996 0.43529412150382996 0.32549020648002625
0.9578817486763 0.615979790687561 0.005928853526711464 0.4588235318660736 0.45098039507865906 0.3607843220233917
0.9307881593704224 0.5591346621513367 0.0063241105526685715 0.5921568870544434 0.5921568870544434 0.4901960790157318
0.9800492525100708 0.557239830493927 0.9569169878959656 0.3764705955982208 0.3607843220233917 0.3137255012989044
0.9105911254882812 0.649139404296875 0.9901185631752014 0.45098039507865906 0.43529412150382996 0.4000000059604645
0.9761083722114563 0.6527711749076843 0.5138339996337891 0.6823529601097107 0.7098039388656616 0.7411764860153198
0.9536945819854736 0.6639823317527771 0.005533596966415644 0.5960784554481506 0.5960784554481506 0.5647059082984924
0.9073891639709473 0.6372966766357422 0.9905138611793518 0.40784314274787903 0.3921568691730499 0.35686275362968445
0.9788177609443665 0.6647718548774719 0.7486165761947632 0.6274510025978088 0.6313725709915161 0.6392157077789307
0.9817733764648438 0.6257697939872742 0.24229249358177185 0.6745098233222961 0.686274528503418 0.6117647290229797
0.9788177609443665 0.6908258199691772 0.695652186870575 0.6274510025978088 0.6431372761726379 0.6470588445663452
0.9820197224617004 0.6704563498497009 0.19644269347190857 0.729411780834198 0.7411764860153198 0.6666666865348816
0.9689655303955078 0.691299557685852 0.321739137172699 0.38823530077934265 0.4000000059604645 0.37254902720451355
0.9566502571105957 0.5542396903038025 0.0063241105526685715 0.3803921639919281 0.3843137323856354 0.32156863808631897
0.8731527328491211 0.6331912279129028 0.005928853526711464 0.47058823704719543 0.47058823704719543 0.3764705955982208
0.9830049276351929 0.7044054865837097 0.813834011554718 0.615686297416687 0.6235294342041016 0.5686274766921997
0.932758629322052 0.5866098403930664 0.9901185631752014 0.40784314274787903 0.3921568691730499 0.3490196168422699
0.9783251285552979 0.6876677870750427 0.6466403007507324 0.6705882549285889 0.6745098233222961 0.6901960968971252
0.9714285731315613 0.5765040516853333 0.9901185631752014 0.3450980484485626 0.3333333432674408 0.2666666805744171
0.8677340149879456 0.6412442922592163 0.9901185631752014 0.45490196347236633 0.43921568989753723 0.40392157435417175
0.9783251285552979 0.6535606980323792 0.7071146368980408 0.6431372761726379 0.6549019813537598 0.6823529601097107
0.9665024876594543 0.6590873003005981 0.005533596966415644 0.3607843220233917 0.364705890417099 0.30980393290519714
0.931280791759491 0.5744512677192688 0.9901185631752014 0.3803921639919281 0.37254902720451355 0.32549020648002625
0.9761083722114563 0.649139404296875 0.5063241124153137 0.686274528503418 0.7137255072593689 0.7372549176216125
0.9785714149475098 0.5891362428665161 0.024110671132802963 0.24705882370471954 0.2078431397676468 0.16078431904315948
0.8977832794189453 0.7009316086769104 0.005928853526711464 0.4313725531101227 0.4274509847164154 0.3176470696926117
0.9780788421630859 0.6684036254882812 0.6786561012268066 0.658823549747467 0.6784313917160034 0.6901960968971252
0.9852216839790344 0.6398231387138367 0.9102766513824463 0.5215686559677124 0.4941176474094391 0.41960784792900085
0.9817733764648438 0.6384020447731018 0.2660079002380371 0.6823529601097107 0.686274528503418 0.615686297416687
0.9822660088539124 0.5812411308288574 0.13636364042758942 0.6509804129600525 0.6666666865348816 0.5764706134796143
0.9773399233818054 0.6003473997116089 0.3798418939113617 0.6901960968971252 0.7098039388656616 0.7215686440467834
0.9798029661178589 0.5556608438491821 0.0415019765496254 0.25882354378700256 0.24705882370471954 0.18039216101169586
0.984236478805542 0.5995578765869141 0.8679841756820679 0.529411792755127 0.5098039507865906 0.3960784375667572
0.9645320177078247 0.5806095004081726 0.0063241105526685715 0.43529412150382996 0.43921568989753723 0.3843137323856354
0.984236478805542 0.6218221783638 0.8418972492218018 0.5568627715110779 0.5411764979362488 0.4431372582912445
0.9770935773849487 0.6470866799354553 0.6162055134773254 0.658823549747467 0.6901960968971252 0.6980392336845398
0.9820197224617004 0.6714037656784058 0.26758894324302673 0.6901960968971252 0.7019608020782471 0.6352941393852234
0.8815270662307739 0.632559597492218 0.005928853526711464 0.41960784792900085 0.41960784792900085 0.32549020648002625
0.9768472909927368 0.6281383037567139 0.595652163028717 0.6784313917160034 0.7098039388656616 0.7176470756530762
0.9793103337287903 0.6734564900398254 0.7719367742538452 0.6078431606292725 0.6274510025978088 0.6392157077789307
0.9758620858192444 0.6357176899909973 0.4988142251968384 0.6901960968971252 0.7019608020782471 0.729411780834198
0.9790640473365784 0.7099320888519287 0.7126482129096985 0.615686297416687 0.6392157077789307 0.6313725709915161
0.879802942276001 0.6682456731796265 0.9897233247756958 0.4431372582912445 0.4431372582912445 0.3960784375667572
0.9830049276351929 0.6744039058685303 0.04624506086111069 0.7215686440467834 0.7019608020782471 0.615686297416687
0.9615763425827026 0.6996684074401855 0.9901185631752014 0.32156863808631897 0.3019607961177826 0.27843138575553894
0.9815270900726318 0.5597662925720215 0.8031620383262634 0.5882353186607361 0.5882353186607361 0.5411764979362488
0.9044334888458252 0.6755092144012451 0.005533596966415644 0.5098039507865906 0.47843137383461 0.3960784375667572
0.9128078818321228 0.6936680674552917 0.005533596966415644 0.4588235318660736 0.46666666865348816 0.3843137323856354
0.9766010046005249 0.6445602178573608 0.4679841995239258 0.6901960968971252 0.7019608020782471 0.729411780834198
0.982758641242981 0.6780356764793396 0.06403162330389023 0.6941176652908325 0.7019608020782471 0.6078431606292725
0.9788177609443665 0.5611874461174011 0.7770751118659973 0.5254902243614197 0.5372549295425415 0.4941176474094391
0.9780788421630859 0.6849834322929382 0.6553359627723694 0.658823549747467 0.6745098233222961 0.686274528503418
0.9847290515899658 0.5856624245643616 0.9205533862113953 0.45490196347236633 0.4313725531101227 0.33725491166114807
0.9830049276351929 0.6865624785423279 0.11699604988098145 0.7215686440467834 0.7215686440467834 0.6274510025978088
0.9766010046005249 0.6774040460586548 0.531225323677063 0.6941176652908325 0.7137255072593689 0.7254902124404907
0.9820197224617004 0.5763460993766785 0.09169960767030716 0.6313725709915161 0.6549019813537598 0.5529412031173706
0.9761083722114563 0.6349281668663025 0.5320158004760742 0.6823529601097107 0.7019608020782471 0.7137255072593689
0.9746305346488953 0.6181904077529907 0.313043475151062 0.545098066329956 0.5529412031173706 0.46666666865348816
0.9770935773849487 0.6098215579986572 0.6173912882804871 0.6313725709915161 0.6352941393852234 0.6431372761726379
0.9825122952461243 0.6696668267250061 0.06482213735580444 0.7215686440467834 0.729411780834198 0.6352941393852234
0.8620689511299133 0.6698247194290161 0.9893280863761902 0.4313725531101227 0.43529412150382996 0.3803921639919281
0.9825122952461243 0.5585030913352966 0.8106719255447388 0.5215686559677124 0.5137255191802979 0.42352941632270813
0.9820197224617004 0.627190887928009 0.04940711334347725 0.686274528503418 0.6745098233222961 0.6000000238418579
0.9788177609443665 0.562766432762146 0.7810276746749878 0.5176470875740051 0.529411792755127 0.501960813999176
0.8807882070541382 0.6338228583335876 0.005928853526711464 0.5098039507865906 0.5098039507865906 0.4156862795352936
0.9857142567634583 0.6979314684867859 0.9098814129829407 0.529411792755127 0.501960813999176 0.4000000059604645
0.9775862097740173 0.6107689738273621 0.34624505043029785 0.7529411911964417 0.7843137383460999 0.7960784435272217
0.9783251285552979 0.7072477340698242 0.6245059370994568 0.6745098233222961 0.6901960968971252 0.7019608020782471
0.8746305704116821 0.5763460993766785 0.005928853526711464 0.501960813999176 0.4941176474094391 0.3960784375667572
0.9775862097740173 0.5534501671791077 0.695652186870575 0.572549045085907 0.6000000238418579 0.572549045085907
0.8758620619773865 0.562608540058136 0.0063241105526685715 0.5333333611488342 0.5411764979362488 0.4470588266849518
0.9766010046005249 0.6824569702148438 0.5083004236221313 0.6980392336845398 0.7176470756530762 0.7333333492279053
0.9802955389022827 0.6098215579986572 0.30513834953308105 0.5333333611488342 0.5372549295425415 0.46666666865348816
0.9775862097740173 0.5709774494171143 0.35217392444610596 0.7529411911964417 0.7647058963775635 0.7843137383460999
0.8896551728248596 0.7094584107398987 0.005928853526711464 0.3803921639919281 0.38823530077934265 0.3019607961177826
0.9822660088539124 0.648665726184845 0.10316205769777298 0.6980392336845398 0.6941176652908325 0.6235294342041016
0.9798029661178589 0.5899257659912109 0.7869565486907959 0.5254902243614197 0.5411764979362488 0.5372549295425415
0.9763546586036682 0.6232433319091797 0.5446640253067017 0.6745098233222961 0.6901960968971252 0.7019608020782471
0.9761083722114563 0.6036633253097534 0.47628459334373474 0.6901960968971252 0.6941176652908325 0.7137255072593689
0.9837438464164734 0.5550292134284973 0.821739137172699 0.5372549295425415 0.5098039507865906 0.40784314274787903
0.9773399233818054 0.6041370630264282 0.38774704933166504 0.686274528503418 0.7098039388656616 0.7098039388656616
0.8689655065536499 0.5596083998680115 0.0063241105526685715 0.45490196347236633 0.45490196347236633 0.3450980484485626
0.9593595862388611 0.5700299739837646 0.9901185631752014 0.35686275362968445 0.3450980484485626 0.2862745225429535
0.9822660088539124 0.579030454158783 0.21976284682750702 0.6627451181411743 0.6823529601097107 0.6039215922355652
0.953201949596405 0.573345959186554 0.0063241105526685715 0.40392157435417175 0.40392157435417175 0.30980393290519714
0.8645319938659668 0.6139270663261414 0.9901185631752014 0.4117647111415863 0.4000000059604645 0.364705890417099
0.9832512140274048 0.6867203712463379 0.813834011554718 0.615686297416687 0.615686297416687 0.5764706134796143
0.8758620619773865 0.6439286470413208 0.005928853526711464 0.3529411852359772 0.37254902720451355 0.2862745225429535
0.9785714149475098 0.5957682132720947 0.7454545497894287 0.5607843399047852 0.5843137502670288 0.5686274766921997
0.9763546586036682 0.6564029455184937 0.5146244764328003 0.686274528503418 0.7137255072593689 0.7529411911964417
0.9433497786521912 0.5843991637229919 0.0063241105526685715 0.4313725531101227 0.42352941632270813 0.3333333432674408
0.9822660088539124 0.7083530426025391 0.2814229130744934 0.6352941393852234 0.6549019813537598 0.5764706134796143
0.9660098552703857 0.5618190169334412 0.0063241105526685715 0.5529412031173706 0.5372549295425415 0.43921568989753723
0.9817733764648438 0.6358755826950073 0.2703557312488556 0.6745098233222961 0.6666666865348816 0.615686297416687
0.9261083602905273 0.6453497409820557 0.005928853526711464 0.5372549295425415 0.5176470875740051 0.4431372582912445
0.9844827651977539 0.5919785499572754 0.9067193865776062 0.47058823704719543 0.45490196347236633 0.35686275362968445
0.9817733764648438 0.6568766832351685 0.25889328122138977 0.6901960968971252 0.7019608020782471 0.6274510025978088
0.9130541682243347 0.6859308481216431 0.9897233247756958 0.43529412150382996 0.41960784792900085 0.3764705955982208
0.9820197224617004 0.6740881204605103 0.24782608449459076 0.686274528503418 0.6980392336845398 0.6235294342041016
0.9770935773849487 0.6860887408256531 0.5245059132575989 0.6941176652908325 0.7137255072593689 0.7254902124404907
0.9770935773849487 0.6901942491531372 0.5375494360923767 0.686274528503418 0.7176470756530762 0.7254902124404907
0.8660098314285278 0.6876677870750427 0.9889327883720398 0.4431372582912445 0.43529412150382996 0.3764705955982208
0.9657635688781738 0.5746091604232788 0.9901185631752014 0.34117648005485535 0.3294117748737335 0.26274511218070984
0.9770935773849487 0.6204010844230652 0.6083003878593445 0.6509804129600525 0.6627451181411743 0.6823529601097107
0.889162540435791 0.7004579305648804 0.005928853526711464 0.4156862795352936 0.4117647111415863 0.3019607961177826
0.9743842482566833 0.7012474536895752 0.9885375499725342 0.3294117748737335 0.3137255012989044 0.27843138575553894
0.9862068891525269 0.6649297475814819 0.9679841995239258 0.4431372582912445 0.40392157435417175 0.35686275362968445
0.9770935773849487 0.6668245792388916 0.44584980607032776 0.6941176652908325 0.729411780834198 0.7647058963775635
0.9775862097740173 0.6941418051719666 0.5636363625526428 0.6941176652908325 0.7137255072593689 0.7254902124404907
0.881280779838562 0.6920890808105469 0.9889327883720398 0.4431372582912445 0.4470588266849518 0.3921568691730499
0.9817733764648438 0.6799305081367493 0.018972331658005714 0.250980406999588 0.21960784494876862 0.1764705926179886
0.9544335007667542 0.6927206516265869 0.005533596966415644 0.4588235318660736 0.4470588266849518 0.3803921639919281
0.9807881712913513 0.6241907477378845 0.791304349899292 0.5647059082984924 0.5686274766921997 0.5843137502670288
0.9859606027603149 0.6924048662185669 0.9083003997802734 0.5333333611488342 0.5058823823928833 0.40392157435417175
0.9805418848991394 0.6466130018234253 0.01660079136490822 0.23529411852359772 0.19607843458652496 0.1568627506494522
0.9825122952461243 0.6617716550827026 0.036363635212183 0.24313725531101227 0.20392157137393951 0.1568627506494522
0.9820197224617004 0.6642981171607971 0.2027667909860611 0.729411780834198 0.7333333492279053 0.6705882549285889
0.9839901328086853 0.6666666865348816 0.821739137172699 0.5960784554481506 0.6000000238418579 0.5764706134796143
0.9763546586036682 0.6510342359542847 0.54347825050354 0.6823529601097107 0.7098039388656616 0.7333333492279053
0.9773399233818054 0.6560871601104736 0.625296413898468 0.6745098233222961 0.686274528503418 0.7137255072593689
0.9778324961662292 0.5719248652458191 0.7043478488922119 0.615686297416687 0.6392157077789307 0.6313725709915161
0.9455664753913879 0.7053529024124146 0.005533596966415644 0.6352941393852234 0.6274510025978088 0.5764706134796143
0.9839901328086853 0.5589767694473267 0.856521725654602 0.5137255191802979 0.4941176474094391 0.3764705955982208
0.9832512140274048 0.6925627589225769 0.11106719076633453 0.7058823704719543 0.7058823704719543 0.6117647290229797
0.9780788421630859 0.6221380233764648 0.35059288144111633 0.7490196228027344 0.7647058963775635 0.7764706015586853
0.9785714149475098 0.6751934289932251 0.7339920997619629 0.6196078658103943 0.6431372761726379 0.6431372761726379
0.8684729337692261 0.6180325150489807 0.005928853526711464 0.43921568989753723 0.4313725531101227 0.34117648005485535
0.9780788421630859 0.6856150031089783 0.6245059370994568 0.6784313917160034 0.6941176652908325 0.7058823704719543
0.9719212055206299 0.5706616044044495 0.3284584879875183 0.3450980484485626 0.3764705955982208 0.32549020648002625
0.9751231670379639 0.6854571104049683 0.009486165829002857 0.3764705955982208 0.364705890417099 0.2980392277240753
0.9756157398223877 0.5940312743186951 0.5122529864311218 0.6745098233222961 0.6980392336845398 0.6901960968971252
0.984236478805542 0.6235591173171997 0.8533596992492676 0.545098066329956 0.5215686559677124 0.41960784792900085
0.9822660088539124 0.5892941951751709 0.12687747180461884 0.6352941393852234 0.658823549747467 0.5568627715110779
0.9768472909927368 0.6003473997116089 0.6079051494598389 0.6235294342041016 0.6431372761726379 0.6549019813537598
0.9778324961662292 0.6925627589225769 0.4308300316333771 0.6941176652908325 0.7254902124404907 0.7372549176216125
0.979556679725647 0.5608716011047363 0.7865612506866455 0.5137255191802979 0.5254902243614197 0.49803921580314636
0.9847290515899658 0.5651350021362305 0.948616623878479 0.40784314274787903 0.38823530077934265 0.3137255012989044
0.9770935773849487 0.6687194108963013 0.5873517990112305 0.686274528503418 0.7058823704719543 0.7176470756530762
0.9041872024536133 0.6949313282966614 0.9893280863761902 0.4431372582912445 0.4274509847164154 0.3921568691730499
0.9820197224617004 0.5899257659912109 0.10316205769777298 0.6549019813537598 0.6745098233222961 0.5882353186607361
0.9864531755447388 0.7099320888519287 0.9446640610694885 0.47058823704719543 0.4470588266849518 0.4000000059604645
0.9770935773849487 0.5806095004081726 0.6363636255264282 0.5882353186607361 0.6039215922355652 0.615686297416687
0.8790640234947205 0.6582977771759033 0.9897233247756958 0.45098039507865906 0.4431372582912445 0.3960784375667572
0.9773399233818054 0.6279804110527039 0.34664031863212585 0.7529411911964417 0.7686274647712708 0.7803921699523926
0.8918719291687012 0.5843991637229919 0.9901185631752014 0.4117647111415863 0.3960784375667572 0.3607843220233917
0.9177339673042297 0.7001420855522156 0.9893280863761902 0.4470588266849518 0.43921568989753723 0.38823530077934265
0.8965517282485962 0.6808779239654541 0.9893280863761902 0.4588235318660736 0.45098039507865906 0.40392157435417175
0.9837438464164734 0.7012474536895752 0.08498023450374603 0.7372549176216125 0.7333333492279053 0.6549019813537598
0.9820197224617004 0.6508763432502747 0.2083003968000412 0.7137255072593689 0.7215686440467834 0.6392157077789307
0.9834975600242615 0.6928785443305969 0.09090909361839294 0.7058823704719543 0.7019608020782471 0.6313725709915161
0.9770935773849487 0.5588188767433167 0.3802371621131897 0.6941176652908325 0.7098039388656616 0.7215686440467834
0.9817733764648438 0.5556608438491821 0.18932805955410004 0.6666666865348816 0.6784313917160034 0.5960784554481506
0.9298029541969299 0.5813990235328674 0.9901185631752014 0.37254902720451355 0.35686275362968445 0.3137255012989044
0.9783251285552979 0.6508763432502747 0.7098814249038696 0.6392157077789307 0.6509804129600525 0.686274528503418
0.9822660088539124 0.6319279670715332 0.10750988125801086 0.7019608020782471 0.6980392336845398 0.6196078658103943
0.9817733764648438 0.6148744821548462 0.22529643774032593 0.6705882549285889 0.6901960968971252 0.6117647290229797
0.9864531755447388 0.6955628991127014 0.9407114386558533 0.4901960790157318 0.4627451002597809 0.3921568691730499
0.9682266116142273 0.6786673069000244 0.005533596966415644 0.4313725531101227 0.4000000059604645 0.3490196168422699
0.9825122952461243 0.5949786901473999 0.19565217196941376 0.6666666865348816 0.6823529601097107 0.615686297416687
0.9825122952461243 0.5943470597267151 0.16007904708385468 0.6470588445663452 0.6666666865348816 0.5764706134796143
0.9034482836723328 0.6309805512428284 0.005928853526711464 0.5254902243614197 0.4941176474094391 0.40392157435417175
0.9785714149475098 0.6857729554176331 0.38181817531585693 0.7058823704719543 0.7254902124404907 0.7411764860153198
0.9785714149475098 0.6878256797790527 0.3841897249221802 0.7058823704719543 0.7254902124404907 0.7411764860153198
0.9788177609443665 0.573503851890564 0.7739130258560181 0.5333333611488342 0.5372549295425415 0.5058823823928833
0.928078830242157 0.6205589771270752 0.9905138611793518 0.4431372582912445 0.4274509847164154 0.3921568691730499
0.9817733764648438 0.6235591173171997 0.26719367504119873 0.6705882549285889 0.6745098233222961 0.6196078658103943
0.8704433441162109 0.6371387839317322 0.9901185631752014 0.545098066329956 0.5372549295425415 0.4901960790157318
0.9780788421630859 0.6496131420135498 0.6845849752426147 0.6705882549285889 0.6705882549285889 0.7176470756530762
0.9022167325019836 0.5641875863075256 0.9901185631752014 0.3686274588108063 0.3529411852359772 0.3176470696926117
0.9825122952461243 0.7055107951164246 0.2142292559146881 0.7333333492279053 0.7450980544090271 0.6784313917160034
0.9780788421630859 0.5836096405982971 0.7071146368980408 0.615686297416687 0.6509804129600525 0.6470588445663452
0.9830049276351929 0.6873519420623779 0.10197628289461136 0.7098039388656616 0.7019608020782471 0.6196078658103943
0.9820197224617004 0.6522974967956543 0.1928853690624237 0.7058823704719543 0.7137255072593689 0.6313725709915161
0.9820197224617004 0.5714511275291443 0.07075098901987076 0.7176470756530762 0.7411764860153198 0.6313725709915161
0.8862069249153137 0.6925627589225769 0.9893280863761902 0.42352941632270813 0.40784314274787903 0.364705890417099
0.9761083722114563 0.6346123218536377 0.5272727012634277 0.6705882549285889 0.7019608020782471 0.7098039388656616
0.8684729337692261 0.6840360164642334 0.9893280863761902 0.45490196347236633 0.4470588266849518 0.4000000059604645
0.984236478805542 0.7003000378608704 0.8328063488006592 0.6078431606292725 0.6078431606292725 0.5607843399047852
0.9054186940193176 0.5927680134773254 0.005928853526711464 0.5098039507865906 0.5058823823928833 0.43529412150382996
0.8972906470298767 0.6151902675628662 0.005928853526711464 0.3686274588108063 0.364705890417099 0.2823529541492462
0.9817733764648438 0.562766432762146 0.11146245151758194 0.6509804129600525 0.6705882549285889 0.5803921818733215
0.9766010046005249 0.6251381635665894 0.4422924816608429 0.686274528503418 0.7058823704719543 0.7176470756530762
0.9862068891525269 0.6500868201255798 0.9652174115180969 0.4313725531101227 0.40392157435417175 0.34117648005485535
0.9763546586036682 0.5910311341285706 0.5691699385643005 0.6549019813537598 0.6705882549285889 0.6745098233222961
0.9859606027603149 0.6816674470901489 0.9351778626441956 0.48627451062202454 0.46666666865348816 0.3921568691730499
0.9785714149475098 0.5987683534622192 0.7565217614173889 0.5607843399047852 0.5960784554481506 0.5843137502670288
0.9783251285552979 0.6335070133209229 0.7288537621498108 0.6117647290229797 0.6274510025978088 0.6392157077789307
0.943842351436615 0.6627190709114075 0.9901185631752014 0.43529412150382996 0.4274509847164154 0.3803921639919281
0.9785714149475098 0.7001420855522156 0.35691699385643005 0.7098039388656616 0.7411764860153198 0.7490196228027344
0.9788177609443665 0.5908731818199158 0.02450592815876007 0.24313725531101227 0.20392157137393951 0.16470588743686676
0.9733990430831909 0.5892941951751709 0.9897233247756958 0.32156863808631897 0.30588236451148987 0.25882354378700256
0.88768470287323 0.5979788303375244 0.005928853526711464 0.45490196347236633 0.46666666865348816 0.3607843220233917
0.9822660088539124 0.6840360164642334 0.13675889372825623 0.7176470756530762 0.7254902124404907 0.6392157077789307
0.9298029541969299 0.5583451986312866 0.0063241105526685715 0.43529412150382996 0.43529412150382996 0.3333333432674408
0.9761083722114563 0.5848729014396667 0.5592885613441467 0.6549019813537598 0.6705882549285889 0.6745098233222961
0.9137930870056152 0.5542396903038025 0.0063241105526685715 0.4156862795352936 0.4156862795352936 0.3137255012989044
0.9788177609443665 0.5610295534133911 0.7743083238601685 0.5254902243614197 0.5333333611488342 0.4901960790157318
0.9820197224617004 0.6665087342262268 0.20158103108406067 0.7372549176216125 0.7411764860153198 0.6784313917160034
0.9758620858192444 0.5815569162368774 0.5438734889030457 0.6509804129600525 0.6745098233222961 0.6745098233222961
0.982758641242981 0.6003473997116089 0.19367589056491852 0.6509804129600525 0.6823529601097107 0.5921568870544434
0.9817733764648438 0.7048792243003845 0.3015810251235962 0.529411792755127 0.5333333611488342 0.4627451002597809
0.9788177609443665 0.6668245792388916 0.752964437007904 0.6196078658103943 0.6235294342041016 0.6392157077789307
0.9014778137207031 0.6739302277565002 0.9897233247756958 0.4470588266849518 0.4470588266849518 0.40784314274787903
0.9788177609443665 0.5963997840881348 0.7735177874565125 0.5568627715110779 0.5843137502670288 0.5568627715110779
0.9788177609443665 0.638086199760437 0.7664031386375427 0.5921568870544434 0.6078431606292725 0.6117647290229797
0.9837438464164734 0.5903995037078857 0.8213438987731934 0.5568627715110779 0.5411764979362488 0.43529412150382996
0.8999999761581421 0.637928307056427 0.005928853526711464 0.5529412031173706 0.5333333611488342 0.4470588266849518
0.9763546586036682 0.6567187905311584 0.5316205620765686 0.6901960968971252 0.7058823704719543 0.7411764860153198
0.9773399233818054 0.6041370630264282 0.38774704933166504 0.686274528503418 0.7098039388656616 0.7098039388656616
0.9766010046005249 0.6797726154327393 0.5035573244094849 0.6980392336845398 0.7176470756530762 0.7333333492279053
0.935960590839386 0.5577135682106018 0.0063241105526685715 0.5137255191802979 0.5137255191802979 0.4117647111415863
0.8834975361824036 0.627190887928009 0.9901185631752014 0.4274509847164154 0.4156862795352936 0.35686275362968445
0.9768472909927368 0.5585030913352966 0.6375494003295898 0.6078431606292725 0.6235294342041016 0.6196078658103943
0.9773399233818054 0.5698720812797546 0.6620553135871887 0.6313725709915161 0.6352941393852234 0.6431372761726379
0.9497537016868591 0.5555028915405273 0.9901185631752014 0.3803921639919281 0.35686275362968445 0.30980393290519714
0.9817733764648438 0.6410863995552063 0.30039525032043457 0.5176470875740051 0.5215686559677124 0.4588235318660736
0.9775862097740173 0.6006631851196289 0.35691699385643005 0.7215686440467834 0.7333333492279053 0.7529411911964417
0.9778324961662292 0.6965103149414062 0.4284585118293762 0.6901960968971252 0.7215686440467834 0.729411780834198
0.9788177609443665 0.6811937689781189 0.3079051375389099 0.5098039507865906 0.5058823823928833 0.43529412150382996
0.9766010046005249 0.5783988833427429 0.5960474014282227 0.6196078658103943 0.6431372761726379 0.6352941393852234
0.9822660088539124 0.6971419453620911 0.2600790560245514 0.6784313917160034 0.686274528503418 0.6313725709915161
0.9773399233818054 0.6601926684379578 0.6177865862846375 0.6823529601097107 0.6941176652908325 0.7137255072593689
0.9847290515899658 0.6693510413169861 0.8557312488555908 0.5843137502670288 0.5607843399047852 0.5058823823928833
0.9822660088539124 0.6769303679466248 0.1972332000732422 0.7254902124404907 0.7372549176216125 0.6627451181411743
0.9780788421630859 0.6800884008407593 0.6766798496246338 0.6666666865348816 0.6705882549285889 0.686274528503418
0.8926108479499817 0.6688773036003113 0.005533596966415644 0.43921568989753723 0.4313725531101227 0.34117648005485535
0.9822660088539124 0.6063476800918579 0.13083003461360931 0.6509804129600525 0.6823529601097107 0.5921568870544434
0.9773399233818054 0.5589767694473267 0.6699604988098145 0.7019608020782471 0.7215686440467834 0.7372549176216125
0.9854679703712463 0.6319279670715332 0.9296442866325378 0.4901960790157318 0.4627451002597809 0.3921568691730499
0.982758641242981 0.7040897011756897 0.16007904708385468 0.7215686440467834 0.7254902124404907 0.6549019813537598
0.9837438464164734 0.6846675872802734 0.8221343755722046 0.6078431606292725 0.6078431606292725 0.5686274766921997
0.9820197224617004 0.6148744821548462 0.0624505914747715 0.6745098233222961 0.6823529601097107 0.5882353186607361
0.9770935773849487 0.5910311341285706 0.38814228773117065 0.6901960968971252 0.7137255072593689 0.6980392336845398
0.9820197224617004 0.6354018449783325 0.03913043439388275 0.5176470875740051 0.5058823823928833 0.4313725531101227
0.984236478805542 0.7009316086769104 0.04624506086111069 0.7686274647712708 0.7686274647712708 0.6666666865348816
0.9837438464164734 0.5591346621513367 0.8213438987731934 0.5411764979362488 0.5098039507865906 0.41960784792900085
0.9825122952461243 0.6658771634101868 0.8067193627357483 0.6117647290229797 0.6196078658103943 0.5764706134796143
0.9825122952461243 0.6922469735145569 0.8063241243362427 0.6196078658103943 0.6235294342041016 0.6000000238418579
0.9763546586036682 0.6169272065162659 0.5561264753341675 0.6784313917160034 0.6823529601097107 0.6901960968971252
0.9054186940193176 0.5842412710189819 0.9901185631752014 0.4000000059604645 0.3843137323856354 0.34117648005485535
0.9756157398223877 0.5978209376335144 0.5229249000549316 0.6784313917160034 0.6941176652908325 0.6901960968971252
0.9854679703712463 0.6031896471977234 0.9699604511260986 0.3921568691730499 0.364705890417099 0.29411765933036804
0.9608374238014221 0.6175588369369507 0.005928853526711464 0.4627451002597809 0.45098039507865906 0.3764705955982208
0.9817733764648438 0.6635085940361023 0.3023715317249298 0.5333333611488342 0.5372549295425415 0.4745098054409027
0.9086207151412964 0.5787146687507629 0.9901185631752014 0.3607843220233917 0.3490196168422699 0.3137255012989044
0.9487684965133667 0.6729828119277954 0.005533596966415644 0.4470588266849518 0.4588235318660736 0.3529411852359772
0.9150246381759644 0.627032995223999 0.9905138611793518 0.40784314274787903 0.4000000059604645 0.34117648005485535
0.9815270900726318 0.5967156291007996 0.2644268870353699 0.6705882549285889 0.6823529601097107 0.6078431606292725
0.9857142567634583 0.6082425117492676 0.9652174115180969 0.40392157435417175 0.3764705955982208 0.30588236451148987
0.9820197224617004 0.5798199772834778 0.8063241243362427 0.5372549295425415 0.5490196347236633 0.48235294222831726
0.9763546586036682 0.6726669669151306 0.5051383376121521 0.6980392336845398 0.7176470756530762 0.7411764860153198
0.9785714149475098 0.6347702741622925 0.7442687749862671 0.5960784554481506 0.615686297416687 0.6274510025978088
0.9810344576835632 0.6794568300247192 0.7897233366966248 0.615686297416687 0.6274510025978088 0.6470588445663452
0.9825122952461243 0.6905100345611572 0.02450592815876007 0.24313725531101227 0.21176470816135406 0.16862745583057404
0.9770935773849487 0.6414021849632263 0.42529645562171936 0.6823529601097107 0.6980392336845398 0.7333333492279053
0.9652709364891052 0.5818727016448975 0.9901185631752014 0.3529411852359772 0.33725491166114807 0.29019609093666077
0.9761083722114563 0.6289278268814087 0.520948588848114 0.686274528503418 0.6980392336845398 0.7176470756530762
0.9770935773849487 0.5951365828514099 0.6351778507232666 0.5764706134796143 0.5921568870544434 0.6039215922355652
0.9822660088539124 0.637612521648407 0.09802371263504028 0.7019608020782471 0.7098039388656616 0.6274510025978088
0.9817733764648438 0.649139404296875 0.28458496928215027 0.6235294342041016 0.6196078658103943 0.5098039507865906
0.9704433679580688 0.562608540058136 0.3169960379600525 0.529411792755127 0.5372549295425415 0.45490196347236633
0.9849753975868225 0.6494552493095398 0.8853754997253418 0.5411764979362488 0.5215686559677124 0.4431372582912445
0.9763546586036682 0.6076109409332275 0.5648221373558044 0.6549019813537598 0.6705882549285889 0.6823529601097107
0.9780788421630859 0.7015632390975952 0.3529644310474396 0.7254902124404907 0.7568627595901489 0.7647058963775635
0.9817733764648438 0.5611874461174011 0.09762845933437347 0.6666666865348816 0.686274528503418 0.5960784554481506
0.9783251285552979 0.6246644854545593 0.7205533385276794 0.6196078658103943 0.6235294342041016 0.6431372761726379
0.9775862097740173 0.5990841388702393 0.6541501879692078 0.7647058963775635 0.7686274647712708 0.7843137383460999
0.8802955746650696 0.5526606440544128 0.9897233247756958 0.32549020648002625 0.3137255012989044 0.27843138575553894
0.871921181678772 0.6399810314178467 0.005928853526711464 0.4274509847164154 0.4274509847164154 0.32549020648002625
0.9785714149475098 0.6309805512428284 0.7422924637794495 0.5960784554481506 0.6117647290229797 0.6235294342041016
0.9770935773849487 0.6903521418571472 0.5387351512908936 0.686274528503418 0.7176470756530762 0.7254902124404907
0.9714285731315613 0.5957682132720947 0.9905138611793518 0.3450980484485626 0.3333333432674408 0.27450981736183167
0.984236478805542 0.7096163034439087 0.04743082821369171 0.7098039388656616 0.7058823704719543 0.6274510025978088
0.9147783517837524 0.6246644854545593 0.005928853526711464 0.45098039507865906 0.4313725531101227 0.3450980484485626
0.9270936250686646 0.5545554757118225 0.0063241105526685715 0.43921568989753723 0.4470588266849518 0.364705890417099
0.920197069644928 0.6316121816635132 0.005928853526711464 0.4117647111415863 0.40392157435417175 0.32156863808631897
0.8953201770782471 0.6357176899909973 0.9901185631752014 0.4313725531101227 0.41960784792900085 0.3843137323856354
0.9352216720581055 0.6349281668663025 0.005928853526711464 0.4588235318660736 0.45098039507865906 0.3921568691730499
0.9839901328086853 0.5825043320655823 0.844268798828125 0.5411764979362488 0.5254902243614197 0.4274509847164154
0.9780788421630859 0.5997157692909241 0.6980237364768982 0.6117647290229797 0.6274510025978088 0.6392157077789307
0.9756157398223877 0.5765040516853333 0.5387351512908936 0.658823549747467 0.6745098233222961 0.6705882549285889
0.9773399233818054 0.6308226585388184 0.6415019631385803 0.6509804129600525 0.6745098233222961 0.6666666865348816
0.9859606027603149 0.6507184505462646 0.95652174949646 0.4588235318660736 0.4313725531101227 0.3686274588108063
0.9078817963600159 0.627190887928009 0.005928853526711464 0.4627451002597809 0.4470588266849518 0.34117648005485535
0.8903940916061401 0.6931943893432617 0.005928853526711464 0.47058823704719543 0.47843137383461 0.3921568691730499
0.9027093648910522 0.5809252858161926 0.005928853526711464 0.43921568989753723 0.4431372582912445 0.3803921639919281
0.9817733764648438 0.6301910877227783 0.21778656542301178 0.6745098233222961 0.6784313917160034 0.6078431606292725
0.8657635450363159 0.599242091178894 0.005928853526711464 0.5803921818733215 0.572549045085907 0.4745098054409027
0.9825122952461243 0.6922469735145569 0.1667984127998352 0.729411780834198 0.7411764860153198 0.6666666865348816
0.9770935773849487 0.6169272065162659 0.6158102750778198 0.6470588445663452 0.6627451181411743 0.6745098233222961
0.8716748952865601 0.5529764890670776 0.9897233247756958 0.3764705955982208 0.364705890417099 0.33725491166114807
0.9766010046005249 0.5802937150001526 0.4284585118293762 0.6784313917160034 0.7019608020782471 0.7019608020782471
0.9820197224617004 0.5692405104637146 0.22608695924282074 0.6666666865348816 0.6784313917160034 0.6039215922355652
0.9773399233818054 0.6042949557304382 0.38300395011901855 0.6901960968971252 0.7137255072593689 0.7137255072593689
0.9775862097740173 0.6690351963043213 0.4225296378135681 0.6941176652908325 0.7176470756530762 0.7647058963775635
0.9817733764648438 0.5705037117004395 0.10197628289461136 0.6627451181411743 0.686274528503418 0.5764706134796143
0.9832512140274048 0.5858203172683716 0.8150197863578796 0.5372549295425415 0.5372549295425415 0.43529412150382996
0.8977832794189453 0.6947734355926514 0.9893280863761902 0.4745098054409027 0.4470588266849518 0.40784314274787903
0.9800492525100708 0.5938733816146851 0.9786561131477356 0.3843137323856354 0.35686275362968445 0.2862745225429535
0.9837438464164734 0.5967156291007996 0.8193675875663757 0.5411764979362488 0.5490196347236633 0.45490196347236633
0.879802942276001 0.6042949557304382 0.9901185631752014 0.3450980484485626 0.3450980484485626 0.2980392277240753
0.9802955389022827 0.708195149898529 0.30434781312942505 0.5333333611488342 0.5372549295425415 0.4745098054409027
0.982758641242981 0.7086688876152039 0.1509881466627121 0.7176470756530762 0.7215686440467834 0.6509804129600525
0.9748768210411072 0.6772461533546448 0.9873517751693726 0.3294117748737335 0.3137255012989044 0.2705882489681244
0.9790640473365784 0.5760303139686584 0.03952569141983986 0.27843138575553894 0.25882354378700256 0.18431372940540314
0.8699507117271423 0.6835622787475586 0.005928853526711464 0.5568627715110779 0.5529412031173706 0.47058823704719543
0.9527093768119812 0.6522974967956543 0.005928853526711464 0.501960813999176 0.47843137383461 0.42352941632270813
0.9733990430831909 0.6192957758903503 0.33636364340782166 0.686274528503418 0.7176470756530762 0.7254902124404907
0.9822660088539124 0.6505605578422546 0.02450592815876007 0.22745098173618317 0.1921568661928177 0.1568627506494522
0.9822660088539124 0.5802937150001526 0.17272727191448212 0.6509804129600525 0.6705882549285889 0.5843137502670288
0.926600992679596 0.7094584107398987 0.9893280863761902 0.4431372582912445 0.4274509847164154 0.3803921639919281
0.9778324961662292 0.6805621385574341 0.6490118503570557 0.6666666865348816 0.686274528503418 0.7019608020782471
0.9150246381759644 0.6281383037567139 0.9905138611793518 0.37254902720451355 0.35686275362968445 0.30980393290519714
0.9778324961662292 0.6169272065162659 0.36758893728256226 0.6980392336845398 0.7176470756530762 0.7333333492279053
0.9822660088539124 0.599242091178894 0.13952569663524628 0.6549019813537598 0.6745098233222961 0.5882353186607361
0.9780788421630859 0.6312963962554932 0.35217392444610596 0.729411780834198 0.7490196228027344 0.7607843279838562
0.9529556632041931 0.6238749623298645 0.005928853526711464 0.4431372582912445 0.41960784792900085 0.35686275362968445
0.9817733764648438 0.6240328550338745 0.2592885494232178 0.6745098233222961 0.6784313917160034 0.615686297416687
0.9763546586036682 0.6036633253097534 0.5735177993774414 0.6509804129600525 0.6666666865348816 0.6627451181411743
0.9770935773849487 0.6125059127807617 0.9833992123603821 0.2980392277240753 0.27450981736183167 0.21960784494876862
0.8854680061340332 0.5588188767433167 0.9901185631752014 0.3490196168422699 0.34117648005485535 0.29411765933036804
0.9839901328086853 0.6110848188400269 0.8300395011901855 0.5568627715110779 0.5490196347236633 0.4588235318660736
0.984236478805542 0.6706142425537109 0.8296442627906799 0.6000000238418579 0.6039215922355652 0.5411764979362488
0.8741379380226135 0.6093478798866272 0.9901185631752014 0.42352941632270813 0.4117647111415863 0.3764705955982208
0.9820197224617004 0.6181904077529907 0.8047431111335754 0.5568627715110779 0.5647059082984924 0.5137255191802979
0.9766010046005249 0.5600821375846863 0.6106719374656677 0.615686297416687 0.6313725709915161 0.6352941393852234
0.9820197224617004 0.5959261059761047 0.08142292499542236 0.6705882549285889 0.686274528503418 0.5882353186607361
0.982758641242981 0.5979788303375244 0.1924901157617569 0.6627451181411743 0.6823529601097107 0.6039215922355652
0.9761083722114563 0.6508763432502747 0.49209487438201904 0.6784313917160034 0.7137255072593689 0.7411764860153198
0.9770935773849487 0.6761408448219299 0.45059287548065186 0.7019608020782471 0.7215686440467834 0.7372549176216125
0.9788177609443665 0.5902416110038757 0.7731225490570068 0.5607843399047852 0.5882353186607361 0.5568627715110779
0.9768472909927368 0.5817148089408875 0.4003952443599701 0.686274528503418 0.7098039388656616 0.7098039388656616
0.8657635450363159 0.5779251456260681 0.9897233247756958 0.3960784375667572 0.3843137323856354 0.35686275362968445
0.9214285612106323 0.6860887408256531 0.005533596966415644 0.47843137383461 0.46666666865348816 0.3921568691730499
0.9817733764648438 0.6511921882629395 0.291304349899292 0.5529412031173706 0.5647059082984924 0.4588235318660736
0.984236478805542 0.7036159634590149 0.8324110507965088 0.6117647290229797 0.615686297416687 0.5607843399047852
0.9785714149475098 0.7102479338645935 0.36798417568206787 0.6980392336845398 0.7215686440467834 0.7215686440467834
0.8847290873527527 0.6906679272651672 0.9893280863761902 0.40784314274787903 0.3921568691730499 0.3450980484485626
0.9785714149475098 0.6758250594139099 0.36719366908073425 0.7137255072593689 0.7333333492279053 0.7490196228027344
0.9748768210411072 0.5900837182998657 0.3118577003479004 0.5372549295425415 0.545098066329956 0.45098039507865906
0.9783251285552979 0.6516658663749695 0.7158102989196777 0.6352941393852234 0.6470588445663452 0.6823529601097107
0.9556650519371033 0.6971419453620911 0.9901185631752014 0.4117647111415863 0.3843137323856354 0.3450980484485626
0.9770935773849487 0.5597662925720215 0.6561264991760254 0.6196078658103943 0.6274510025978088 0.6235294342041016
0.9731526970863342 0.6766145825386047 0.31620553135871887 0.4156862795352936 0.4156862795352936 0.3764705955982208
0.982758641242981 0.7085109949111938 0.15928854048252106 0.7215686440467834 0.7333333492279053 0.658823549747467
0.982758641242981 0.6916153430938721 0.13833992183208466 0.7215686440467834 0.7372549176216125 0.6470588445663452
0.9820197224617004 0.573661744594574 0.18932805955410004 0.658823549747467 0.6784313917160034 0.5882353186607361
0.9825122952461243 0.5859782099723816 0.20079050958156586 0.6666666865348816 0.6784313917160034 0.6039215922355652
0.9778324961662292 0.5791884064674377 0.6873517632484436 0.6313725709915161 0.6470588445663452 0.6509804129600525
0.9399014711380005 0.6562450528144836 0.005533596966415644 0.3803921639919281 0.38823530077934265 0.3450980484485626
0.9756157398223877 0.6087162494659424 0.9857707619667053 0.3294117748737335 0.30588236451148987 0.250980406999588
0.9822660088539124 0.6799305081367493 0.1561264842748642 0.7215686440467834 0.7176470756530762 0.6352941393852234
0.9004926085472107 0.6734564900398254 0.9897233247756958 0.4627451002597809 0.4470588266849518 0.4000000059604645
0.9852216839790344 0.6586136221885681 0.896442711353302 0.5333333611488342 0.5098039507865906 0.42352941632270813
0.8761083483695984 0.6058740019798279 0.005928853526711464 0.5333333611488342 0.5254902243614197 0.4274509847164154
0.9839901328086853 0.5602400302886963 0.8458498120307922 0.529411792755127 0.501960813999176 0.38823530077934265
0.9822660088539124 0.5812411308288574 0.13636364042758942 0.6509804129600525 0.6666666865348816 0.5764706134796143
0.9578817486763 0.6897205114364624 0.005533596966415644 0.47843137383461 0.46666666865348816 0.3921568691730499
0.9768472909927368 0.5670298337936401 0.6320158243179321 0.5882353186607361 0.6078431606292725 0.6196078658103943
0.9775862097740173 0.6202431917190552 0.3841897249221802 0.6941176652908325 0.7058823704719543 0.7254902124404907
0.9756157398223877 0.5711353421211243 0.5454545617103577 0.6509804129600525 0.6745098233222961 0.6745098233222961
0.9785714149475098 0.6257697939872742 0.7335968613624573 0.6000000238418579 0.6117647290229797 0.6313725709915161
0.9780788421630859 0.6772461533546448 0.6648221611976624 0.6705882549285889 0.6745098233222961 0.6901960968971252
0.9549261331558228 0.5809252858161926 0.9901185631752014 0.40392157435417175 0.3803921639919281 0.3333333432674408
0.8955665230751038 0.7085109949111938 0.005928853526711464 0.5215686559677124 0.5215686559677124 0.4117647111415863
0.9490147829055786 0.6281383037567139 0.9905138611793518 0.4313725531101227 0.40392157435417175 0.364705890417099
0.9837438464164734 0.5779251456260681 0.822529673576355 0.545098066329956 0.5137255191802979 0.4313725531101227
