0.4529556632041931 0.0011053213384002447 0.05573122575879097 0.6823529601097107 0.5098039507865906 0.2549019753932953
0.3224138021469116 0.024001263082027435 0.06086956337094307 0.2549019753932953 0.1882352977991104 0.10980392247438431
0.38669949769973755 0.0004737091367132962 0.7707509994506836 0.5333333611488342 0.43529412150382996 0.3176470696926117
0.2630541920661926 0.001263224403373897 0.695652186870575 0.3921568691730499 0.2823529541492462 0.12941177189350128
0.4568965435028076 0.05889783799648285 0.005928853526711464 0.6509804129600525 0.6392157077789307 0.5803921818733215
0.4172413647174835 0.04910784959793091 0.008695651777088642 0.47843137383461 0.48235294222831726 0.4274509847164154
0.39433497190475464 0.0014211274683475494 0.1359683722257614 0.3960784375667572 0.2980392277240753 0.1411764770746231
0.35049259662628174 0.11147955060005188 0.006719367578625679 0.7450980544090271 0.7450980544090271 0.6980392336845398
0.257881760597229 0.027475129812955856 0.14822134375572205 0.8745098114013672 0.7411764860153198 0.4901960790157318
0.32709360122680664 0.0516342967748642 0.010276679880917072 0.40392157435417175 0.38823530077934265 0.34117648005485535
0.45763546228408813 0.00031580610084347427 0.6972332000732422 0.6235294342041016 0.5333333611488342 0.4117647111415863
0.3374384343624115 0.060792673379182816 0.9897233247756958 0.2980392277240753 0.26274511218070984 0.23529411852359772
0.3970443308353424 0.05116058886051178 0.03122529573738575 0.6274510025978088 0.4627451002597809 0.16470588743686676
0.46182265877723694 0.15411336719989777 0.9893280863761902 0.3607843220233917 0.3450980484485626 0.2980392277240753
0.38743841648101807 0.001263224403373897 0.24229249358177185 0.7019608020782471 0.5764706134796143 0.3450980484485626
0.47364532947540283 0.0 0.9059288501739502 0.35686275362968445 0.2862745225429535 0.20000000298023224
0.35049259662628174 0.024001263082027435 0.9901185631752014 0.3490196168422699 0.3176470696926117 0.27450981736183167
0.286699503660202 0.0011053213384002447 0.43043479323387146 0.686274528503418 0.545098066329956 0.3490196168422699
0.30049261450767517 0.021159008145332336 0.05573122575879097 0.2549019753932953 0.1921568661928177 0.10196078568696976
0.4916256070137024 0.06458234786987305 0.005533596966415644 0.5215686559677124 0.5333333611488342 0.4588235318660736
0.3524630665779114 0.03126480430364609 0.9897233247756958 0.3490196168422699 0.32549020648002625 0.27843138575553894
0.27980294823646545 0.0017369334818795323 0.16916996240615845 0.6549019813537598 0.49803921580314636 0.22745098173618317
0.4807881712913513 0.10279488563537598 0.9897233247756958 0.4000000059604645 0.3764705955982208 0.32156863808631897
0.4320197105407715 0.047528818249702454 0.007905138656497002 0.6509804129600525 0.6470588445663452 0.5764706134796143
0.37438422441482544 0.01721143163740635 0.1505928784608841 0.8901960849761963 0.7647058963775635 0.5333333611488342
0.44605910778045654 0.07579346001148224 0.9893280863761902 0.3686274588108063 0.35686275362968445 0.2980392277240753
0.25172412395477295 0.0037896730937063694 0.5928853750228882 0.43529412150382996 0.3137255012989044 0.1411764770746231
0.4559113383293152 0.12395389378070831 0.9897233247756958 0.3764705955982208 0.3529411852359772 0.30588236451148987
0.42980295419692993 0.0006316122016869485 0.582608699798584 0.7019608020782471 0.5882353186607361 0.42352941632270813
0.35837438702583313 0.14006000757217407 0.005928853526711464 0.5490196347236633 0.5607843399047852 0.5176470875740051
0.4869458079338074 0.1550607979297638 0.005928853526711464 0.5764706134796143 0.5960784554481506 0.5058823823928833
0.36379310488700867 0.0006316122016869485 0.7213438749313354 0.6078431606292725 0.529411792755127 0.42352941632270813
0.31133005023002625 0.0009474182734265924 0.5505928993225098 0.6784313917160034 0.5529412031173706 0.3686274588108063
0.2943349778652191 0.022895941510796547 0.9901185631752014 0.3176470696926117 0.29411765933036804 0.239215686917305
0.428078830242157 0.0011053213384002447 0.2501976191997528 0.6980392336845398 0.5372549295425415 0.3333333432674408
0.43078818917274475 0.08810990303754807 0.9893280863761902 0.3921568691730499 0.3686274588108063 0.32156863808631897
0.3135468065738678 0.0014211274683475494 0.27944663166999817 0.7254902124404907 0.5764706134796143 0.3843137323856354
0.36625614762306213 0.04216011241078377 0.9897233247756958 0.3529411852359772 0.3176470696926117 0.2823529541492462
0.36674878001213074 0.07816200703382492 0.007905138656497002 0.6196078658103943 0.6274510025978088 0.5843137502670288
0.47463053464889526 0.00015790305042173713 0.7778655886650085 0.5254902243614197 0.4156862795352936 0.2705882489681244
0.338177353143692 0.12995420396327972 0.005928853526711464 0.6235294342041016 0.6352941393852234 0.5607843399047852
0.27931034564971924 0.001263224403373897 0.343873530626297 0.6745098233222961 0.5137255191802979 0.29411765933036804
0.403940886259079 0.13453339040279388 0.005533596966415644 0.6039215922355652 0.6000000238418579 0.529411792755127
0.4640394151210785 0.00031580610084347427 0.6901185512542725 0.6313725709915161 0.5333333611488342 0.4156862795352936
0.3573891520500183 0.040423180907964706 0.08458498120307922 0.2235294133424759 0.1764705926179886 0.11372549086809158
0.2571428716182709 0.1490604728460312 0.9928853511810303 0.8313725590705872 0.8666666746139526 0.8627451062202454
0.33842363953590393 0.0007895152666606009 0.6754940748214722 0.5843137502670288 0.47843137383461 0.364705890417099
0.2975369393825531 0.0007895152666606009 0.9537549614906311 0.27450981736183167 0.21568627655506134 0.10196078568696976
0.28029558062553406 0.0015790305333212018 0.26837944984436035 0.7019608020782471 0.5411764979362488 0.33725491166114807
0.3963054120540619 0.06016106158494949 0.09644268453121185 0.6431372761726379 0.45098039507865906 0.18039216101169586
0.41428571939468384 0.14321807026863098 0.9897233247756958 0.3450980484485626 0.3294117748737335 0.2862745225429535
0.25123152136802673 0.046107690781354904 0.0679841861128807 0.46666666865348816 0.3490196168422699 0.14509804546833038
0.25935959815979004 0.002052739728242159 0.6584980487823486 0.6431372761726379 0.5215686559677124 0.4000000059604645
0.33497536182403564 0.11526922136545181 0.9901185631752014 0.250980406999588 0.23137255012989044 0.2078431397676468
0.4891625642776489 0.013579661957919598 0.005533596966415644 0.5803921818733215 0.5686274766921997 0.5098039507865906
0.27266010642051697 0.04547607898712158 0.13913042843341827 0.8901960849761963 0.7764706015586853 0.5568627715110779
0.4485221803188324 0.10121585428714752 0.9893280863761902 0.3843137323856354 0.3529411852359772 0.3019607961177826
0.4645320177078247 0.0006316122016869485 0.4517786502838135 0.6745098233222961 0.5254902243614197 0.34117648005485535
0.306157648563385 0.10216327011585236 0.0071146246045827866 0.6784313917160034 0.6784313917160034 0.6392157077789307
0.34014779329299927 0.05479235574603081 0.9897233247756958 0.3490196168422699 0.3176470696926117 0.27450981736183167
0.47413793206214905 0.080372653901577 0.005533596966415644 0.5372549295425415 0.5490196347236633 0.4745098054409027
0.2830049395561218 0.0011053213384002447 0.4940711557865143 0.6745098233222961 0.5490196347236633 0.364705890417099
0.33940887451171875 0.0006316122016869485 0.9106719493865967 0.37254902720451355 0.2823529541492462 0.14901961386203766
0.3214285671710968 0.07895152270793915 0.9897233247756958 0.3137255012989044 0.2862745225429535 0.24705882370471954
0.3977832496166229 0.0014211274683475494 0.08656126260757446 0.45098039507865906 0.3176470696926117 0.1411764770746231
0.3726601004600525 0.0007895152666606009 0.6541501879692078 0.6235294342041016 0.5176470875740051 0.4000000059604645
0.3618226647377014 0.1376914530992508 0.9905138611793518 0.34117648005485535 0.3137255012989044 0.29019609093666077
0.35591134428977966 0.040423180907964706 0.08458498120307922 0.21568627655506134 0.16862745583057404 0.10588235408067703
0.3963054120540619 0.12821727991104126 0.9901185631752014 0.3607843220233917 0.3333333432674408 0.3019607961177826
0.2815271019935608 0.0344228632748127 0.06600790470838547 0.30588236451148987 0.2666666805744171 0.23137255012989044
0.3970443308353424 0.0007895152666606009 0.36245059967041016 0.6941176652908325 0.5529412031173706 0.3490196168422699
0.24729064106941223 0.00473709125071764 0.4434782564640045 0.6235294342041016 0.4941176474094391 0.32549020648002625
0.38300493359565735 0.04942365363240242 0.9897233247756958 0.3529411852359772 0.3176470696926117 0.2823529541492462
0.39605912566185 0.04689720645546913 0.035573121160268784 0.6313725709915161 0.46666666865348816 0.16862745583057404
0.4251231551170349 0.00031580610084347427 0.7395256757736206 0.6117647290229797 0.5372549295425415 0.40784314274787903
0.43029555678367615 0.001263224403373897 0.07628458738327026 0.6000000238418579 0.41960784792900085 0.1764705926179886
0.4554187059402466 0.0006316122016869485 0.4229249060153961 0.7450980544090271 0.5960784554481506 0.40392157435417175
0.368719220161438 0.03426496312022209 0.14150197803974152 0.8745098114013672 0.7764706015586853 0.5568627715110779
0.4613300561904907 0.1004263386130333 0.9893280863761902 0.3921568691730499 0.3607843220233917 0.30980393290519714
0.3300492465496063 0.13184905052185059 0.005928853526711464 0.5921568870544434 0.5882353186607361 0.5058823823928833
0.4283251166343689 0.11132165044546127 0.9897233247756958 0.3921568691730499 0.3607843220233917 0.3176470696926117
0.25591132044792175 0.002842254936695099 0.4225296378135681 0.45490196347236633 0.3294117748737335 0.16862745583057404
0.3573891520500183 0.001263224403373897 0.2549407184123993 0.7411764860153198 0.5803921818733215 0.3607843220233917
0.3266009986400604 0.14779725670814514 0.005928853526711464 0.6705882549285889 0.6823529601097107 0.6392157077789307
0.33497536182403564 0.001263224403373897 0.2869565188884735 0.7137255072593689 0.5529412031173706 0.34117648005485535
0.2507389187812805 0.05952944979071617 0.04110671952366829 0.4941176474094391 0.37254902720451355 0.14901961386203766
0.3726601004600525 0.13137534260749817 0.005928853526711464 0.5843137502670288 0.5882353186607361 0.5176470875740051
0.40689656138420105 0.0014211274683475494 0.04940711334347725 0.4156862795352936 0.2980392277240753 0.14901961386203766
0.3931034505367279 0.0516342967748642 0.12213438749313354 0.8509804010391235 0.7490196228027344 0.5254902243614197
0.2743842303752899 0.05810832232236862 0.020158102735877037 0.4627451002597809 0.4470588266849518 0.40392157435417175
0.2977832555770874 0.07626717537641525 0.10000000149011612 0.11764705926179886 0.10588235408067703 0.07058823853731155
0.4093596041202545 0.0007895152666606009 0.3545454442501068 0.7176470756530762 0.572549045085907 0.364705890417099
0.4529556632041931 0.00031580610084347427 0.7648221254348755 0.5490196347236633 0.43921568989753723 0.29411765933036804
0.35098522901535034 0.0007895152666606009 0.7031620740890503 0.6117647290229797 0.5098039507865906 0.37254902720451355
0.3298029601573944 0.052423812448978424 0.08616600930690765 0.21568627655506134 0.16862745583057404 0.11372549086809158
0.3300492465496063 0.155376598238945 0.005928853526711464 0.545098066329956 0.5411764979362488 0.47058823704719543
0.3610837459564209 0.05116058886051178 0.13162055611610413 0.886274516582489 0.7686274647712708 0.5647059082984924
0.4081280827522278 0.030633190646767616 0.9897233247756958 0.3960784375667572 0.3686274588108063 0.3294117748737335
0.3066502511501312 0.0009474182734265924 0.5411067008972168 0.6941176652908325 0.572549045085907 0.38823530077934265
0.4561576247215271 0.0007895152666606009 0.3122529685497284 0.7411764860153198 0.5960784554481506 0.38823530077934265
0.27241379022598267 0.05116058886051178 0.05928853899240494 0.2705882489681244 0.21960784494876862 0.14509804546833038
0.28817734122276306 0.12505921721458435 0.9905138611793518 0.32549020648002625 0.30588236451148987 0.2823529541492462
0.4078817665576935 0.04073898494243622 0.9897233247756958 0.3960784375667572 0.3607843220233917 0.32549020648002625
0.2586206793785095 0.0022106426768004894 0.30909091234207153 0.5215686559677124 0.3803921639919281 0.1764705926179886
0.44630542397499084 0.08495184034109116 0.005928853526711464 0.6431372761726379 0.6470588445663452 0.5921568870544434
0.443842351436615 0.04168640449643135 0.9897233247756958 0.3607843220233917 0.33725491166114807 0.29019609093666077
0.2650246322154999 0.0011053213384002447 0.960869550704956 0.14901961386203766 0.11764705926179886 0.07450980693101883
0.4795566499233246 0.0009474182734265924 0.01462450623512268 0.4156862795352936 0.3960784375667572 0.3803921639919281
0.376600980758667 0.0004737091367132962 0.8501976132392883 0.40784314274787903 0.3176470696926117 0.18431372940540314
0.38325121998786926 0.0004737091367132962 0.8470355868339539 0.42352941632270813 0.3333333432674408 0.20000000298023224
0.37857142090797424 0.0006316122016869485 0.7126482129096985 0.6235294342041016 0.5490196347236633 0.4313725531101227
0.38226601481437683 0.0007895152666606009 0.5541502237319946 0.6666666865348816 0.5490196347236633 0.3529411852359772
0.2694581151008606 0.0009474182734265924 0.5446640253067017 0.6470588445663452 0.529411792755127 0.32549020648002625
0.4083743989467621 0.0009474182734265924 0.2822134494781494 0.7019608020782471 0.572549045085907 0.3607843220233917
0.27980294823646545 0.0007895152666606009 0.7881422638893127 0.572549045085907 0.45490196347236633 0.3137255012989044
0.3083743751049042 0.09458392858505249 0.007509881630539894 0.686274528503418 0.686274528503418 0.6470588445663452
0.3100985288619995 0.0015790305333212018 0.2035573124885559 0.7568627595901489 0.5764706134796143 0.37254902720451355
0.28768473863601685 0.13879677653312683 0.005928853526711464 0.686274528503418 0.686274528503418 0.6392157077789307
0.2665024697780609 0.0009474182734265924 0.5750988125801086 0.6196078658103943 0.49803921580314636 0.3137255012989044
0.4364531934261322 0.00031580610084347427 0.7454545497894287 0.5803921818733215 0.49803921580314636 0.3764705955982208
0.3647783398628235 0.057002998888492584 0.008695651777088642 0.4470588266849518 0.43921568989753723 0.3803921639919281
0.4278325140476227 0.001263224403373897 0.06877470016479492 0.6470588445663452 0.47058823704719543 0.2078431397676468
0.41009852290153503 0.04452865943312645 0.9897233247756958 0.40392157435417175 0.3803921639919281 0.3333333432674408
0.4413793087005615 0.00015790305042173713 0.8438735008239746 0.4313725531101227 0.34117648005485535 0.2078431397676468
0.28793102502822876 0.11053213477134705 0.9901185631752014 0.2980392277240753 0.2705882489681244 0.239215686917305
0.3935960531234741 0.006474025081843138 0.12411066889762878 0.2235294133424759 0.1764705926179886 0.09019608050584793
0.2849753797054291 0.07658297568559647 0.10197628289461136 0.1568627506494522 0.1411764770746231 0.12941177189350128
0.30714285373687744 0.0011053213384002447 0.4308300316333771 0.7019608020782471 0.5764706134796143 0.3843137323856354
0.44285714626312256 0.053055424243211746 0.0071146246045827866 0.5803921818733215 0.5921568870544434 0.5176470875740051
0.27216747403144836 0.0007895152666606009 0.655731201171875 0.6274510025978088 0.5137255191802979 0.35686275362968445
0.4911330044269562 0.00015790305042173713 0.6928853988647461 0.5960784554481506 0.4745098054409027 0.3529411852359772
0.39408865571022034 0.0014211274683475494 0.145454540848732 0.3764705955982208 0.27843138575553894 0.1568627506494522
0.24729064106941223 0.07437233626842499 0.006719367578625679 0.6470588445663452 0.6352941393852234 0.5686274766921997
0.35812807083129883 0.0007895152666606009 0.5822134613990784 0.6392157077789307 0.5254902243614197 0.3529411852359772
0.39556649327278137 0.03568609058856964 0.12332015484571457 0.5098039507865906 0.34117648005485535 0.1764705926179886
0.25123152136802673 0.004894994664937258 0.7869565486907959 0.5372549295425415 0.4313725531101227 0.3137255012989044
0.37068966031074524 0.0009474182734265924 0.4596838057041168 0.6666666865348816 0.5372549295425415 0.33725491166114807
0.24926108121871948 0.04058108478784561 0.13675889372825623 0.8470588326454163 0.7803921699523926 0.5764706134796143
0.32019704580307007 0.0011053213384002447 0.4335968494415283 0.6941176652908325 0.5686274766921997 0.3764705955982208
0.29975369572639465 0.01610611006617546 0.9901185631752014 0.32549020648002625 0.3019607961177826 0.24705882370471954
0.35566502809524536 0.03884414955973625 0.0260869562625885 0.2823529541492462 0.27450981736183167 0.22745098173618317
0.43004927039146423 0.001263224403373897 0.14901185035705566 0.6941176652908325 0.5254902243614197 0.21960784494876862
0.3290640413761139 0.09332069754600525 0.9897233247756958 0.3176470696926117 0.29019609093666077 0.25882354378700256
0.2812807857990265 0.0011053213384002447 0.37747034430503845 0.48235294222831726 0.3686274588108063 0.20392157137393951
0.4206896424293518 0.1462182253599167 0.9897233247756958 0.3450980484485626 0.33725491166114807 0.2862745225429535
0.3098522126674652 0.1405337154865265 0.9905138611793518 0.32549020648002625 0.30588236451148987 0.2823529541492462
0.3815270960330963 0.06347702443599701 0.027272727340459824 0.501960813999176 0.4941176474094391 0.4470588266849518
0.34655171632766724 0.004263382405042648 0.15770751237869263 0.8470588326454163 0.7764706015586853 0.5882353186607361
0.37832513451576233 0.07942523062229156 0.007905138656497002 0.5490196347236633 0.5411764979362488 0.48235294222831726
0.428078830242157 0.00031580610084347427 0.8830039501190186 0.40784314274787903 0.32156863808631897 0.1764705926179886
0.31921181082725525 0.0007895152666606009 0.7332015633583069 0.5960784554481506 0.5058823823928833 0.37254902720451355
0.4440886676311493 0.03568609058856964 0.007509881630539894 0.5803921818733215 0.5882353186607361 0.5333333611488342
0.4088670015335083 0.0014211274683475494 0.08142292499542236 0.5176470875740051 0.3686274588108063 0.1764705926179886
0.4849753677845001 0.08526764810085297 0.005533596966415644 0.6078431606292725 0.6274510025978088 0.5490196347236633
0.46945813298225403 0.15048161149024963 0.005928853526711464 0.5921568870544434 0.6078431606292725 0.5529412031173706
0.42241379618644714 0.0007895152666606009 0.3383399248123169 0.6941176652908325 0.5490196347236633 0.3450980484485626
0.35467979311943054 0.13879677653312683 0.005928853526711464 0.5490196347236633 0.5764706134796143 0.5058823823928833
0.4613300561904907 0.00031580610084347427 0.6865612864494324 0.5921568870544434 0.5098039507865906 0.40392157435417175
0.31847289204597473 0.006947733927518129 0.15731225907802582 0.8941176533699036 0.7803921699523926 0.5215686559677124
0.4559113383293152 0.00031580610084347427 0.7553359866142273 0.529411792755127 0.41960784792900085 0.27450981736183167
0.3731527030467987 0.0007895152666606009 0.5561264753341675 0.6941176652908325 0.572549045085907 0.3921568691730499
0.27093595266342163 0.0007895152666606009 0.7778655886650085 0.5607843399047852 0.45098039507865906 0.30588236451148987
0.4448275864124298 0.0004737091367132962 0.5395256876945496 0.6784313917160034 0.5568627715110779 0.3764705955982208
0.4088670015335083 0.00031580610084347427 0.9284585118293762 0.3176470696926117 0.239215686917305 0.14509804546833038
0.38374385237693787 0.0007895152666606009 0.6185770630836487 0.6078431606292725 0.4941176474094391 0.3607843220233917
0.4807881712913513 0.0006316122016869485 0.3849802315235138 0.7411764860153198 0.5882353186607361 0.37254902720451355
0.24729064106941223 0.011684825643897057 0.0181818176060915 0.3921568691730499 0.29019609093666077 0.15294118225574493
0.25123152136802673 0.04705510661005974 0.06679841876029968 0.4745098054409027 0.3490196168422699 0.14901961386203766
0.3330049216747284 0.0015790305333212018 0.19960474967956543 0.7450980544090271 0.5882353186607361 0.35686275362968445
0.35566502809524536 0.09063635021448135 0.007509881630539894 0.529411792755127 0.5333333611488342 0.47843137383461
0.25665023922920227 0.02842254936695099 0.14861659705638885 0.8666666746139526 0.7254902124404907 0.48235294222831726
0.2504926025867462 0.06174009293317795 0.03438735008239746 0.5372549295425415 0.3843137323856354 0.16078431904315948
0.48300492763519287 0.0004737091367132962 0.5035573244094849 0.48235294222831726 0.3686274588108063 0.250980406999588
0.33891624212265015 0.0720037892460823 0.9897233247756958 0.29019609093666077 0.26274511218070984 0.23137255012989044
0.4416256248950958 0.05289752036333084 0.9893280863761902 0.35686275362968445 0.3333333432674408 0.27843138575553894
0.27487683296203613 0.01957997865974903 0.9901185631752014 0.27843138575553894 0.2549019753932953 0.2078431397676468
0.24704433977603912 0.016264013946056366 0.10079051554203033 0.4470588266849518 0.3137255012989044 0.13333334028720856
0.4246305525302887 0.0006316122016869485 0.5517786741256714 0.7254902124404907 0.6000000238418579 0.4156862795352936
0.2509852349758148 0.06552976369857788 0.038735177367925644 0.5215686559677124 0.37254902720451355 0.12941177189350128
0.36674878001213074 0.04626559466123581 0.13359683752059937 0.8901960849761963 0.7803921699523926 0.5921568870544434
0.2534482777118683 0.06821411848068237 0.08181817829608917 0.5137255191802979 0.3764705955982208 0.14901961386203766
0.26034483313560486 0.0017369334818795323 0.19130434095859528 0.6980392336845398 0.5333333611488342 0.2980392277240753
0.41871920228004456 0.15695562958717346 0.005928853526711464 0.48627451062202454 0.501960813999176 0.43529412150382996
0.3536945879459381 0.0374230220913887 0.025296442210674286 0.29019609093666077 0.2823529541492462 0.23529411852359772
0.4561576247215271 0.00031580610084347427 0.6549407243728638 0.686274528503418 0.6039215922355652 0.49803921580314636
0.39408865571022034 0.1035844013094902 0.9897233247756958 0.37254902720451355 0.3490196168422699 0.3019607961177826
0.36256158351898193 0.15427127480506897 0.9901185631752014 0.2980392277240753 0.2980392277240753 0.25882354378700256
0.378078818321228 0.04942365363240242 0.12806324660778046 0.8627451062202454 0.7607843279838562 0.5372549295425415
0.4871921241283417 0.0004737091367132962 0.39407113194465637 0.6000000238418579 0.45098039507865906 0.2666666805744171
0.42980295419692993 0.0007895152666606009 0.3391304314136505 0.6823529601097107 0.5372549295425415 0.3294117748737335
0.34802955389022827 0.09063635021448135 0.9897233247756958 0.3607843220233917 0.32549020648002625 0.30588236451148987
0.3298029601573944 0.1411653310060501 0.005928853526711464 0.6784313917160034 0.6901960968971252 0.6235294342041016
0.37068966031074524 0.14195483922958374 0.005928853526711464 0.6549019813537598 0.6470588445663452 0.5960784554481506
0.4236453175544739 0.15600821375846863 0.005928853526711464 0.658823549747467 0.6941176652908325 0.5882353186607361
0.37931033968925476 0.0014211274683475494 0.197628453373909 0.7411764860153198 0.5882353186607361 0.35686275362968445
0.3421182334423065 0.10547923296689987 0.9897233247756958 0.3176470696926117 0.29019609093666077 0.2666666805744171
0.34704434871673584 0.0014211274683475494 0.24071146547794342 0.7333333492279053 0.572549045085907 0.3529411852359772
0.48620688915252686 0.14795514941215515 0.0063241105526685715 0.5882353186607361 0.6352941393852234 0.5568627715110779
0.3522167503833771 0.10121585428714752 0.0071146246045827866 0.6784313917160034 0.686274528503418 0.6431372761726379
0.3174876868724823 0.15174482762813568 0.9905138611793518 0.3490196168422699 0.3294117748737335 0.3176470696926117
0.492118239402771 0.0006316122016869485 0.31897231936454773 0.6470588445663452 0.47843137383461 0.21176470816135406
0.4330049157142639 0.07516185194253922 0.9893280863761902 0.40392157435417175 0.37254902720451355 0.32156863808631897
0.2830049395561218 0.0009474182734265924 0.5043478012084961 0.6705882549285889 0.5490196347236633 0.364705890417099
0.46600985527038574 0.05684509873390198 0.9897233247756958 0.38823530077934265 0.35686275362968445 0.3137255012989044
0.4000000059604645 0.0014211274683475494 0.03241106867790222 0.1764705926179886 0.14509804546833038 0.0941176488995552
0.46995073556900024 0.1119532585144043 0.9897233247756958 0.3803921639919281 0.35686275362968445 0.3019607961177826
0.4241379201412201 0.14795514941215515 0.005928853526711464 0.49803921580314636 0.5176470875740051 0.4313725531101227
0.27635467052459717 0.07610926777124405 0.007509881630539894 0.658823549747467 0.658823549747467 0.5647059082984924
0.44187191128730774 0.00031580610084347427 0.7027667760848999 0.6549019813537598 0.572549045085907 0.4588235318660736
0.2970443367958069 0.0746881440281868 0.12252964079380035 0.5764706134796143 0.5686274766921997 0.5176470875740051
0.289901465177536 0.14132322371006012 0.9909090995788574 0.3490196168422699 0.3176470696926117 0.30588236451148987
0.27093595266342163 0.05037107318639755 0.032015811651945114 0.40392157435417175 0.35686275362968445 0.2549019753932953
0.2544334828853607 0.004894994664937258 0.8766798377037048 0.30588236451148987 0.23137255012989044 0.11372549086809158
0.35443350672721863 0.14700773358345032 0.9905138611793518 0.3294117748737335 0.3176470696926117 0.29019609093666077
0.37167486548423767 0.0007895152666606009 0.49209487438201904 0.6823529601097107 0.5568627715110779 0.35686275362968445
0.40763548016548157 0.04342333972454071 0.9897233247756958 0.3764705955982208 0.3490196168422699 0.30980393290519714
0.27216747403144836 0.046739302575588226 0.02924901247024536 0.4117647111415863 0.364705890417099 0.26274511218070984
0.3975369334220886 0.1353229135274887 0.9901185631752014 0.364705890417099 0.3490196168422699 0.3137255012989044
0.32733988761901855 0.0015790305333212018 0.20632411539554596 0.7568627595901489 0.6000000238418579 0.3686274588108063
0.41822659969329834 0.001263224403373897 0.14466403424739838 0.6745098233222961 0.48235294222831726 0.18039216101169586
0.3342364430427551 0.0009474182734265924 0.41976284980773926 0.6823529601097107 0.5333333611488342 0.34117648005485535
0.2568965554237366 0.002526448806747794 0.5252964496612549 0.38823530077934265 0.29411765933036804 0.1921568661928177
0.3692118227481842 0.0007895152666606009 0.6284584999084473 0.6235294342041016 0.5058823823928833 0.37254902720451355
0.35935959219932556 0.0006316122016869485 0.7486165761947632 0.5764706134796143 0.48627451062202454 0.364705890417099
0.39458128809928894 0.025738196447491646 0.11501976102590561 0.6196078658103943 0.4117647111415863 0.14509804546833038
0.371921181678772 0.0030001578852534294 0.15731225907802582 0.8470588326454163 0.7607843279838562 0.5647059082984924
0.4684728980064392 0.0009474182734265924 0.1407114565372467 0.6901960968971252 0.5372549295425415 0.2823529541492462
0.34236451983451843 0.02589610032737255 0.04782608523964882 0.3019607961177826 0.29411765933036804 0.24705882370471954
0.4325123131275177 0.15285015106201172 0.9897233247756958 0.364705890417099 0.34117648005485535 0.29411765933036804
0.39408865571022034 0.061897993087768555 0.05059288442134857 0.0941176488995552 0.09803921729326248 0.10588235408067703
0.3408867120742798 0.0007895152666606009 0.5841897130012512 0.6549019813537598 0.545098066329956 0.3607843220233917
0.3209359645843506 0.0007895152666606009 0.717391312122345 0.615686297416687 0.5137255191802979 0.3764705955982208
0.37463054060935974 0.002526448806747794 0.15770751237869263 0.8470588326454163 0.7568627595901489 0.5607843399047852
0.4233990013599396 0.0004737091367132962 0.6533597111701965 0.6980392336845398 0.6313725709915161 0.5215686559677124
0.3167487680912018 0.05037107318639755 0.08498023450374603 0.22745098173618317 0.18039216101169586 0.125490203499794
0.27142858505249023 0.0773724913597107 0.9901185631752014 0.2823529541492462 0.2549019753932953 0.2235294133424759
0.3536945879459381 0.0006316122016869485 0.7711462378501892 0.5647059082984924 0.4627451002597809 0.3333333432674408
0.3364531993865967 0.03584399074316025 0.007509881630539894 0.11764705926179886 0.11372549086809158 0.10588235408067703
0.31896552443504333 0.0009474182734265924 0.5533596873283386 0.6627451181411743 0.5411764979362488 0.35686275362968445
0.48128077387809753 0.06868782639503479 0.9897233247756958 0.3921568691730499 0.364705890417099 0.3019607961177826
0.46231526136398315 0.00031580610084347427 0.6889328360557556 0.6117647290229797 0.529411792755127 0.4156862795352936
0.25270935893058777 0.00552660645917058 0.887747049331665 0.3764705955982208 0.30980393290519714 0.1921568661928177
0.4172413647174835 0.00031580610084347427 0.7952569127082825 0.4901960790157318 0.3921568691730499 0.2705882489681244
0.3758620619773865 0.12726984918117523 0.005928853526711464 0.5960784554481506 0.6000000238418579 0.545098066329956
0.47733989357948303 0.0004737091367132962 0.4948616623878479 0.6941176652908325 0.5686274766921997 0.3843137323856354
0.3169950842857361 0.002842254936695099 0.9664031863212585 0.08627451211214066 0.05882352963089943 0.03529411926865578
0.28374382853507996 0.0748460441827774 0.9901185631752014 0.3176470696926117 0.29019609093666077 0.250980406999588
0.3931034505367279 0.024001263082027435 0.01620553433895111 0.45098039507865906 0.3686274588108063 0.24705882370471954
0.3561576306819916 0.1462182253599167 0.9905138611793518 0.3176470696926117 0.30588236451148987 0.2705882489681244
0.4756157696247101 0.0009474182734265924 0.046640317887067795 0.6392157077789307 0.49803921580314636 0.30980393290519714
0.46256157755851746 0.12537501752376556 0.005928853526711464 0.5686274766921997 0.5529412031173706 0.5058823823928833
0.4209359586238861 0.0011053213384002447 0.2241106778383255 0.7019608020782471 0.5490196347236633 0.32549020648002625
0.37093594670295715 0.03221222013235092 0.9897233247756958 0.3607843220233917 0.3294117748737335 0.2862745225429535
0.2807881832122803 0.0007895152666606009 0.7624505758285522 0.5960784554481506 0.46666666865348816 0.33725491166114807
0.3214285671710968 0.0007895152666606009 0.6794466376304626 0.42352941632270813 0.3294117748737335 0.19607843458652496
0.2694581151008606 0.0014211274683475494 0.31462451815605164 0.6901960968971252 0.5333333611488342 0.3333333432674408
0.3963054120540619 0.05573977530002594 0.11027667671442032 0.5215686559677124 0.364705890417099 0.1725490242242813
0.278817743062973 0.12158534675836563 0.9905138611793518 0.3176470696926117 0.3019607961177826 0.25882354378700256
0.38768473267555237 0.0007895152666606009 0.5371541380882263 0.6784313917160034 0.5568627715110779 0.3450980484485626
0.37438422441482544 0.01089530996978283 0.15375493466854095 0.8823529481887817 0.7843137383460999 0.5607843399047852
0.3221674859523773 0.02273803949356079 0.0573122538626194 0.26274511218070984 0.1921568661928177 0.10588235408067703
0.27266010642051697 0.10311069339513779 0.9901185631752014 0.30588236451148987 0.29019609093666077 0.2549019753932953
0.432758629322052 0.062213800847530365 0.0071146246045827866 0.7058823704719543 0.7098039388656616 0.6549019813537598
0.349261075258255 0.0006316122016869485 0.7754940986633301 0.5764706134796143 0.47843137383461 0.3607843220233917
0.4445812702178955 0.020211590453982353 0.9901185631752014 0.3490196168422699 0.32549020648002625 0.2705882489681244
0.4201970398426056 0.00031580610084347427 0.7845849990844727 0.529411792755127 0.42352941632270813 0.30588236451148987
0.38251230120658875 0.0004737091367132962 0.7758893370628357 0.5333333611488342 0.4156862795352936 0.30588236451148987
0.35172414779663086 0.0007895152666606009 0.5505928993225098 0.6509804129600525 0.5215686559677124 0.3450980484485626
0.4487684667110443 0.13011211156845093 0.005928853526711464 0.6078431606292725 0.6274510025978088 0.5411764979362488
0.28374382853507996 0.08984683454036713 0.007509881630539894 0.5372549295425415 0.5372549295425415 0.4901960790157318
0.40344828367233276 0.13153323531150818 0.005533596966415644 0.7764706015586853 0.7529411911964417 0.6901960968971252
0.26748767495155334 0.0007895152666606009 0.7264822125434875 0.6117647290229797 0.49803921580314636 0.364705890417099
0.46280789375305176 0.11984841525554657 0.005533596966415644 0.5686274766921997 0.572549045085907 0.501960813999176
0.4719211757183075 0.08384651690721512 0.9897233247756958 0.40784314274787903 0.3803921639919281 0.3176470696926117
0.37487685680389404 0.10263697803020477 0.9897233247756958 0.3686274588108063 0.3333333432674408 0.2980392277240753
0.34285715222358704 0.0009474182734265924 0.47549405694007874 0.6549019813537598 0.5215686559677124 0.34117648005485535
0.39605912566185 0.0015790305333212018 0.01304347813129425 0.32156863808631897 0.2980392277240753 0.250980406999588
0.2689655125141144 0.012316437438130379 0.1561264842748642 0.886274516582489 0.7529411911964417 0.5058823823928833
0.2928571403026581 0.0009474182734265924 0.544268786907196 0.6666666865348816 0.545098066329956 0.37254902720451355
0.2692118287086487 0.03584399074316025 0.02134387381374836 0.4431372582912445 0.4156862795352936 0.3137255012989044
0.44310346245765686 0.00031580610084347427 0.6916996240615845 0.6705882549285889 0.5960784554481506 0.47058823704719543
0.3933497667312622 0.0007895152666606009 0.37272727489471436 0.615686297416687 0.5215686559677124 0.3490196168422699
0.3524630665779114 0.04863413795828819 0.9897233247756958 0.3490196168422699 0.3137255012989044 0.27843138575553894
0.4332512319087982 0.001263224403373897 0.12411066889762878 0.16862745583057404 0.1568627506494522 0.09803921729326248
0.4253694713115692 0.07674088329076767 0.9893280863761902 0.40784314274787903 0.3686274588108063 0.32156863808631897
0.4083743989467621 0.0014211274683475494 0.1197628453373909 0.6431372761726379 0.4627451002597809 0.16078431904315948
0.25147783756256104 0.0039475760422647 0.7162055373191833 0.3450980484485626 0.2549019753932953 0.18431372940540314
0.25665023922920227 0.07279330492019653 0.12411066889762878 0.8980392217636108 0.7843137383460999 0.5568627715110779
0.47857141494750977 0.14321807026863098 0.9893280863761902 0.35686275362968445 0.34117648005485535 0.29411765933036804
0.24704433977603912 0.1119532585144043 0.0071146246045827866 0.5058823823928833 0.5058823823928833 0.4588235318660736
0.378078818321228 0.09095215797424316 0.007509881630539894 0.5490196347236633 0.5333333611488342 0.48627451062202454
0.3302955627441406 0.0006316122016869485 0.8478260636329651 0.4156862795352936 0.32156863808631897 0.1725490242242813
0.39187192916870117 0.06000315770506859 0.11660078912973404 0.8941176533699036 0.7647058963775635 0.5529412031173706
0.3935960531234741 0.027475129812955856 0.9897233247756958 0.3803921639919281 0.3529411852359772 0.3137255012989044
0.4088670015335083 0.0011053213384002447 0.2561264932155609 0.7333333492279053 0.5803921818733215 0.35686275362968445
0.4603448212146759 0.0009474182734265924 0.12727272510528564 0.6784313917160034 0.5215686559677124 0.239215686917305
0.29532018303871155 0.06837201863527298 0.007905138656497002 0.5411764979362488 0.5490196347236633 0.49803921580314636
0.3327586352825165 0.12805937230587006 0.9905138611793518 0.33725491166114807 0.3176470696926117 0.29411765933036804
0.36773398518562317 0.0006316122016869485 0.7703557014465332 0.5372549295425415 0.43921568989753723 0.3176470696926117
0.371921181678772 0.03600189462304115 0.05889328196644783 0.29019609093666077 0.2823529541492462 0.23529411852359772
0.4556650221347809 0.11969050765037537 0.9897233247756958 0.364705890417099 0.34117648005485535 0.29411765933036804
0.33152708411216736 0.0011053213384002447 0.3478260934352875 0.6980392336845398 0.5333333611488342 0.30588236451148987
0.33497536182403564 0.0006316122016869485 0.8256916999816895 0.4901960790157318 0.38823530077934265 0.25882354378700256
0.3059113323688507 0.0315806083381176 0.00830039568245411 0.13333334028720856 0.11372549086809158 0.09803921729326248
0.4051724076271057 0.0014211274683475494 0.13833992183208466 0.6666666865348816 0.49803921580314636 0.1882352977991104
0.27512314915657043 0.03363334760069847 0.04980237036943436 0.2235294133424759 0.20392157137393951 0.1882352977991104
0.39926108717918396 0.00031580610084347427 0.8667984008789062 0.4156862795352936 0.3294117748737335 0.18431372940540314
0.45049262046813965 0.0009474182734265924 0.20632411539554596 0.6901960968971252 0.5372549295425415 0.27450981736183167
0.2623152732849121 0.0018948365468531847 0.7956521511077881 0.4117647111415863 0.2980392277240753 0.1725490242242813
0.41798028349876404 0.045949786901474 0.9897233247756958 0.4000000059604645 0.3764705955982208 0.3294117748737335
0.40246304869651794 0.15648192167282104 0.9897233247756958 0.29019609093666077 0.27450981736183167 0.23137255012989044
0.3059113323688507 0.0009474182734265924 0.47588932514190674 0.6941176652908325 0.5607843399047852 0.37254902720451355
0.3965517282485962 0.0015790305333212018 0.017391303554177284 0.2862745225429535 0.2549019753932953 0.21176470816135406
0.2985221743583679 0.0011053213384002447 0.469960480928421 0.6823529601097107 0.5568627715110779 0.364705890417099
0.336699515581131 0.0015790305333212018 0.1818181872367859 0.7490196228027344 0.5921568870544434 0.3490196168422699
0.4832512438297272 0.0 0.8932806253433228 0.3137255012989044 0.24705882370471954 0.21568627655506134
0.4413793087005615 0.0004737091367132962 0.5446640253067017 0.7019608020782471 0.5803921818733215 0.4000000059604645
0.3325123190879822 0.0009474182734265924 0.3913043439388275 0.6901960968971252 0.545098066329956 0.34117648005485535
0.2926108241081238 0.06442444026470184 0.007905138656497002 0.6392157077789307 0.6274510025978088 0.5921568870544434
0.34802955389022827 0.024474972859025 0.9901185631752014 0.3529411852359772 0.32156863808631897 0.27843138575553894
0.4532019793987274 0.08368861675262451 0.9893280863761902 0.3960784375667572 0.364705890417099 0.3137255012989044
0.28054186701774597 0.11826938390731812 0.9901185631752014 0.3137255012989044 0.2980392277240753 0.26274511218070984
0.37487685680389404 0.14795514941215515 0.005928853526711464 0.5960784554481506 0.5960784554481506 0.5568627715110779
0.44999998807907104 0.00015790305042173713 0.8679841756820679 0.4274509847164154 0.32549020648002625 0.21960784494876862
0.3935960531234741 0.030317384749650955 0.06956521421670914 0.572549045085907 0.3960784375667572 0.13333334028720856
0.3967980444431305 0.0007895152666606009 0.4735177755355835 0.7176470756530762 0.5764706134796143 0.37254902720451355
0.36256158351898193 0.0011053213384002447 0.29802370071411133 0.6901960968971252 0.529411792755127 0.30980393290519714
0.40221676230430603 0.08163587749004364 0.00830039568245411 0.5843137502670288 0.5921568870544434 0.5490196347236633
0.26773399114608765 0.0015790305333212018 0.26324111223220825 0.6823529601097107 0.5254902243614197 0.32549020648002625
0.2652709484100342 0.06521395593881607 0.009486165829002857 0.6705882549285889 0.686274528503418 0.6313725709915161
0.4677339792251587 0.08305700123310089 0.005533596966415644 0.5411764979362488 0.545098066329956 0.48235294222831726
0.4325123131275177 0.02763303369283676 0.9897233247756958 0.3921568691730499 0.364705890417099 0.32549020648002625
0.2903940975666046 0.0007895152666606009 0.6090909242630005 0.6392157077789307 0.5254902243614197 0.3607843220233917
0.3014778196811676 0.0007895152666606009 0.7996047139167786 0.5843137502670288 0.46666666865348816 0.3176470696926117
0.317241370677948 0.023685457184910774 0.012252964079380035 0.16078431904315948 0.14509804546833038 0.13333334028720856
0.31527093052864075 0.0030001578852534294 0.15928854048252106 0.5098039507865906 0.4000000059604645 0.14509804546833038
0.44285714626312256 0.1468498408794403 0.9897233247756958 0.34117648005485535 0.32549020648002625 0.2823529541492462
0.4834975302219391 0.00015790305042173713 0.7545454502105713 0.45490196347236633 0.3764705955982208 0.23137255012989044
0.46625617146492004 0.00031580610084347427 0.5865612626075745 0.6941176652908325 0.5921568870544434 0.4627451002597809
0.39137929677963257 0.0006316122016869485 0.6387351751327515 0.6274510025978088 0.5215686559677124 0.40784314274787903
0.3642857074737549 0.13611242175102234 0.005928853526711464 0.6039215922355652 0.5921568870544434 0.5176470875740051
0.2502463161945343 0.006474025081843138 0.9561265110969543 0.20392157137393951 0.1725490242242813 0.12156862765550613
0.3645320236682892 0.0009474182734265924 0.46679842472076416 0.6705882549285889 0.5411764979362488 0.34117648005485535
0.278817743062973 0.0007895152666606009 0.821739137172699 0.5058823823928833 0.38823530077934265 0.24705882370471954
0.39162561297416687 0.04989736154675484 0.12371541559696198 0.8509804010391235 0.7372549176216125 0.5098039507865906
0.2662561535835266 0.15174482762813568 0.9964426755905151 0.9882352948188782 1.0 1.0
0.4768472909927368 0.0006316122016869485 0.36284583806991577 0.6901960968971252 0.5254902243614197 0.29019609093666077
0.3800492584705353 0.06663508713245392 0.11501976102590561 0.8784313797950745 0.7843137383460999 0.6039215922355652
0.48571428656578064 0.00015790305042173713 0.7454545497894287 0.3450980484485626 0.27843138575553894 0.21568627655506134
0.3896551728248596 0.06252960860729218 0.037154149264097214 0.5529412031173706 0.3803921639919281 0.1411764770746231
0.4913793206214905 0.12395389378070831 0.005928853526711464 0.6000000238418579 0.6117647290229797 0.5372549295425415
0.3568965494632721 0.07531975209712982 0.9893280863761902 0.3529411852359772 0.32549020648002625 0.29411765933036804
0.4253694713115692 0.00031580610084347427 0.8494071364402771 0.45490196347236633 0.3764705955982208 0.239215686917305
0.317241370677948 0.03252802789211273 0.0731225311756134 0.239215686917305 0.1882352977991104 0.125490203499794
0.41477832198143005 0.0006316122016869485 0.5889328122138977 0.6745098233222961 0.5607843399047852 0.3960784375667572
0.3571428656578064 0.0006316122016869485 0.8083003759384155 0.5137255191802979 0.4000000059604645 0.27450981736183167
0.4160098433494568 0.0004737091367132962 0.7047430872917175 0.6352941393852234 0.5803921818733215 0.46666666865348816
0.3448275923728943 0.0315806083381176 0.14505928754806519 0.8941176533699036 0.7803921699523926 0.545098066329956
0.48669952154159546 0.15742933750152588 0.9893280863761902 0.3686274588108063 0.3529411852359772 0.30588236451148987
0.27266010642051697 0.055897679179906845 0.0624505914747715 0.2705882489681244 0.21960784494876862 0.15294118225574493
0.38793104887008667 0.0007895152666606009 0.46047431230545044 0.6901960968971252 0.5490196347236633 0.3607843220233917
0.24827586114406586 0.023369651287794113 0.10197628289461136 0.4470588266849518 0.3137255012989044 0.13725490868091583
0.4669950604438782 0.04216011241078377 0.005928853526711464 0.6000000238418579 0.6078431606292725 0.5568627715110779
0.3603448271751404 0.08574135601520538 0.9893280863761902 0.3450980484485626 0.30980393290519714 0.27450981736183167
0.45467981696128845 0.0006316122016869485 0.47035571932792664 0.7333333492279053 0.6039215922355652 0.43529412150382996
0.2864531874656677 0.031106900423765182 0.07075098901987076 0.25882354378700256 0.2078431397676468 0.1411764770746231
0.3330049216747284 0.07089846581220627 0.00830039568245411 0.5137255191802979 0.5137255191802979 0.46666666865348816
0.48571428656578064 0.0004737091367132962 0.4205533564090729 0.572549045085907 0.43921568989753723 0.3019607961177826
0.3455665111541748 0.07642507553100586 0.9897233247756958 0.32156863808631897 0.29411765933036804 0.26274511218070984
0.27487683296203613 0.03268593177199364 0.04584980383515358 0.21568627655506134 0.19607843458652496 0.18039216101169586
0.4211822748184204 0.06742460280656815 0.9893280863761902 0.40392157435417175 0.364705890417099 0.3176470696926117
0.4078817665576935 0.00031580610084347427 0.8533596992492676 0.42352941632270813 0.3333333432674408 0.20000000298023224
0.38768473267555237 0.0007895152666606009 0.5011857748031616 0.686274528503418 0.5647059082984924 0.3490196168422699
0.4554187059402466 0.0009474182734265924 0.21027667820453644 0.7372549176216125 0.5843137502670288 0.3294117748737335
0.26724138855934143 0.0690036341547966 0.08537549525499344 0.20392157137393951 0.16862745583057404 0.10196078568696976
0.2694581151008606 0.0011053213384002447 0.4624505937099457 0.6745098233222961 0.5490196347236633 0.364705890417099
0.45049262046813965 0.13374388217926025 0.005928853526711464 0.501960813999176 0.5333333611488342 0.45098039507865906
0.440640389919281 0.0007895152666606009 0.3640316128730774 0.6823529601097107 0.5568627715110779 0.364705890417099
0.44187191128730774 0.00031580610084347427 0.822529673576355 0.4470588266849518 0.3490196168422699 0.22745098173618317
0.4394088685512543 0.10153166204690933 0.005533596966415644 0.5176470875740051 0.5254902243614197 0.47058823704719543
0.43448275327682495 0.13690194487571716 0.9897233247756958 0.364705890417099 0.3490196168422699 0.3019607961177826
0.29581281542778015 0.03142270818352699 0.00909090880304575 0.12941177189350128 0.11372549086809158 0.10196078568696976
0.45837438106536865 0.06758250296115875 0.9897233247756958 0.4000000059604645 0.364705890417099 0.2980392277240753
0.2844827473163605 0.12000631541013718 0.9905138611793518 0.3333333432674408 0.3176470696926117 0.2823529541492462
0.34261083602905273 0.0006316122016869485 0.8292490243911743 0.4901960790157318 0.38823530077934265 0.24313725531101227
0.41822659969329834 0.09995263069868088 0.0063241105526685715 0.6627451181411743 0.6666666865348816 0.5960784554481506
0.4682266116142273 0.0006316122016869485 0.3845849931240082 0.7176470756530762 0.5411764979362488 0.3176470696926117
0.286699503660202 0.03710721433162689 0.9901185631752014 0.30980393290519714 0.27450981736183167 0.239215686917305
0.3608374297618866 0.11605873703956604 0.0063241105526685715 0.48627451062202454 0.49803921580314636 0.4156862795352936
0.4096059203147888 0.03852834179997444 0.9897233247756958 0.3960784375667572 0.3607843220233917 0.32549020648002625
0.3135468065738678 0.06126638129353523 0.09169960767030716 0.23529411852359772 0.1882352977991104 0.13333334028720856
0.3891625702381134 0.0011053213384002447 0.2770751118659973 0.6941176652908325 0.5411764979362488 0.3176470696926117
0.33201971650123596 0.0007895152666606009 0.699999988079071 0.6078431606292725 0.48627451062202454 0.364705890417099
0.2539408802986145 0.0031580610666424036 0.1920948624610901 0.45098039507865906 0.34117648005485535 0.18431372940540314
0.32758620381355286 0.0688457265496254 0.9897233247756958 0.32156863808631897 0.29411765933036804 0.2549019753932953
0.3881773352622986 0.0006316122016869485 0.6723319888114929 0.4470588266849518 0.3764705955982208 0.29019609093666077
0.38793104887008667 0.03079109452664852 0.9897233247756958 0.3803921639919281 0.3529411852359772 0.32156863808631897
0.4017241299152374 0.0014211274683475494 0.1197628453373909 0.48235294222831726 0.33725491166114807 0.13333334028720856
0.48571428656578064 0.07863571494817734 0.9897233247756958 0.3843137323856354 0.35686275362968445 0.29411765933036804
0.40221676230430603 0.00031580610084347427 0.9474308490753174 0.2823529541492462 0.2078431397676468 0.1411764770746231
0.26798030734062195 0.05637138709425926 0.13320158421993256 0.8823529481887817 0.7843137383460999 0.5607843399047852
0.309359610080719 0.006474025081843138 0.15770751237869263 0.8823529481887817 0.7686274647712708 0.5333333611488342
0.29605910181999207 0.0007895152666606009 0.625296413898468 0.6392157077789307 0.5254902243614197 0.3607843220233917
0.4248768389225006 0.001263224403373897 0.040316205471754074 0.6431372761726379 0.46666666865348816 0.21176470816135406
0.4403941035270691 0.08889941871166229 0.005928853526711464 0.6235294342041016 0.6274510025978088 0.5647059082984924
