0.28029558062553406 0.17164061963558197 0.9984189867973328 1.0 1.0 1.0
0.3938423693180084 0.13437549769878387 0.9901185631752014 0.3686274588108063 0.3529411852359772 0.30980393290519714
0.4800492525100708 0.12205905467271805 0.005928853526711464 0.5803921818733215 0.6117647290229797 0.529411792755127
0.3334975242614746 0.10437391698360443 0.9897233247756958 0.3294117748737335 0.3019607961177826 0.2705882489681244
0.445320188999176 0.21332702040672302 0.22213438153266907 0.11764705926179886 0.11372549086809158 0.09803921729326248
0.4206896424293518 0.2158534675836563 0.13833992183208466 0.08627451211214066 0.08235294371843338 0.062745101749897
0.29950737953186035 0.10247907787561417 0.9901185631752014 0.29411765933036804 0.2666666805744171 0.24313725531101227
0.43866994976997375 0.1605874001979828 0.005928853526711464 0.6784313917160034 0.6823529601097107 0.6117647290229797
0.47733989357948303 0.23638086020946503 0.005533596966415644 0.4941176474094391 0.4745098054409027 0.4000000059604645
0.2736453115940094 0.14258645474910736 0.005928853526711464 0.6549019813537598 0.6666666865348816 0.6000000238418579
0.39532020688056946 0.1927996277809143 0.9893280863761902 0.3333333432674408 0.3176470696926117 0.2823529541492462
0.4842364490032196 0.2330649048089981 0.17984189093112946 0.4431372582912445 0.4588235318660736 0.40392157435417175
0.35886698961257935 0.13563871383666992 0.9905138611793518 0.3137255012989044 0.2862745225429535 0.2549019753932953
0.4253694713115692 0.1923259049654007 0.005928853526711464 0.545098066329956 0.5529412031173706 0.49803921580314636
0.49014776945114136 0.2210642695426941 0.18339921534061432 0.13725490868091583 0.13725490868091583 0.13725490868091583
0.3721674978733063 0.1296384036540985 0.005928853526711464 0.6274510025978088 0.6352941393852234 0.5529412031173706
0.42315271496772766 0.20590557157993317 0.005928853526711464 0.4901960790157318 0.4901960790157318 0.4431372582912445
0.31871920824050903 0.1523764431476593 0.005928853526711464 0.5568627715110779 0.5647059082984924 0.5137255191802979
0.45911329984664917 0.22469604015350342 0.9885375499725342 0.3137255012989044 0.3176470696926117 0.2862745225429535
0.47389161586761475 0.21490605175495148 0.28458496928215027 0.08627451211214066 0.0941176488995552 0.09019608050584793
0.4884236454963684 0.2354334443807602 0.9885375499725342 0.27843138575553894 0.2666666805744171 0.239215686917305
0.2847290635108948 0.11621664464473724 0.006719367578625679 0.6392157077789307 0.6313725709915161 0.572549045085907
0.4561576247215271 0.10311069339513779 0.005533596966415644 0.6196078658103943 0.6392157077789307 0.5607843399047852
0.4532019793987274 0.11747986823320389 0.9897233247756958 0.3921568691730499 0.3686274588108063 0.32156863808631897
0.41108375787734985 0.22659087181091309 0.29525691270828247 0.5960784554481506 0.6235294342041016 0.6470588445663452
0.26428571343421936 0.2269066721200943 0.006719367578625679 0.38823530077934265 0.3960784375667572 0.30980393290519714
0.48990148305892944 0.16579820215702057 0.9893280863761902 0.364705890417099 0.3490196168422699 0.3019607961177826
0.42733991146087646 0.2216958850622177 0.0063241105526685715 0.2823529541492462 0.2549019753932953 0.1921568661928177
0.34778323769569397 0.14416548609733582 0.005928853526711464 0.7215686440467834 0.7137255072593689 0.6549019813537598
0.4401477873325348 0.21664297580718994 0.1920948624610901 0.125490203499794 0.125490203499794 0.11764705926179886
0.44310346245765686 0.18458865582942963 0.9889327883720398 0.3450980484485626 0.3450980484485626 0.30588236451148987
0.48669952154159546 0.21916942298412323 0.2549407184123993 0.11764705926179886 0.11372549086809158 0.09803921729326248
0.35960590839385986 0.23495973646640778 0.29525691270828247 0.545098066329956 0.5843137502670288 0.5803921818733215
0.3105911314487457 0.10563714057207108 0.0071146246045827866 0.545098066329956 0.5607843399047852 0.501960813999176
0.3130541741847992 0.23464392125606537 0.006719367578625679 0.30980393290519714 0.29411765933036804 0.24705882370471954
0.4408867061138153 0.22311700880527496 0.9885375499725342 0.3137255012989044 0.3019607961177826 0.2823529541492462
0.3721674978733063 0.2040107399225235 0.9893280863761902 0.2862745225429535 0.2705882489681244 0.2666666805744171
0.4832512438297272 0.2126954048871994 0.2972331941127777 0.08627451211214066 0.08627451211214066 0.0784313753247261
0.3342364430427551 0.11337438970804214 0.006719367578625679 0.5411764979362488 0.5333333611488342 0.48627451062202454
0.47463053464889526 0.21443234384059906 0.21067193150520325 0.09019608050584793 0.09019608050584793 0.08235294371843338
0.2549261152744293 0.13737565279006958 0.9909090995788574 0.3607843220233917 0.3450980484485626 0.34117648005485535
0.4763546884059906 0.14242854714393616 0.005928853526711464 0.6000000238418579 0.5921568870544434 0.501960813999176
0.4640394151210785 0.20353703200817108 0.9885375499725342 0.3450980484485626 0.3333333432674408 0.30588236451148987
0.3655172288417816 0.15111321210861206 0.9901185631752014 0.32549020648002625 0.3137255012989044 0.27843138575553894
0.44236454367637634 0.21111637353897095 0.14743083715438843 0.16470588743686676 0.15294118225574493 0.125490203499794
0.2775862216949463 0.22201168537139893 0.006719367578625679 0.11764705926179886 0.10588235408067703 0.07058823853731155
0.3694581389427185 0.18569397926330566 0.005928853526711464 0.6431372761726379 0.6431372761726379 0.5960784554481506
0.2825123071670532 0.10390020161867142 0.9901185631752014 0.3019607961177826 0.2823529541492462 0.25882354378700256
0.4795566499233246 0.15016579627990723 0.005928853526711464 0.6039215922355652 0.6235294342041016 0.5372549295425415
0.2652709484100342 0.21695879101753235 0.9936758875846863 0.9607843160629272 0.9725490212440491 0.9921568632125854
0.2778325080871582 0.22927522659301758 0.22569170594215393 0.3176470696926117 0.29019609093666077 0.250980406999588
0.39433497190475464 0.1380072683095932 0.005928853526711464 0.5490196347236633 0.5607843399047852 0.47843137383461
0.35049259662628174 0.2302226424217224 0.29525691270828247 0.5647059082984924 0.6117647290229797 0.6039215922355652
0.4204433560371399 0.21474814414978027 0.2031620591878891 0.11764705926179886 0.11764705926179886 0.10980392247438431
0.3650246262550354 0.08179377764463425 0.9893280863761902 0.35686275362968445 0.32156863808631897 0.2862745225429535
0.4219211935997009 0.2126954048871994 0.2343873530626297 0.11372549086809158 0.10980392247438431 0.0941176488995552
0.4480295479297638 0.1121111661195755 0.005533596966415644 0.6549019813537598 0.6666666865348816 0.5843137502670288
0.31108373403549194 0.23132796585559845 0.006719367578625679 0.364705890417099 0.35686275362968445 0.30588236451148987
0.38251230120658875 0.19216801226139069 0.005928853526711464 0.5882353186607361 0.5803921818733215 0.529411792755127
0.4793103337287903 0.22374862432479858 0.9885375499725342 0.32549020648002625 0.30980393290519714 0.2980392277240753
0.27635467052459717 0.22627507150173187 0.1723320186138153 0.1764705926179886 0.18431372940540314 0.18039216101169586
0.46970441937446594 0.1579030454158783 0.9889327883720398 0.3686274588108063 0.3529411852359772 0.30588236451148987
0.3891625702381134 0.09063635021448135 0.009486165829002857 0.5411764979362488 0.5411764979362488 0.4941176474094391
0.2891625761985779 0.18900994956493378 0.9956521987915039 1.0 1.0 1.0
0.4435960650444031 0.1836412400007248 0.005928853526711464 0.5333333611488342 0.5254902243614197 0.4745098054409027
0.26453202962875366 0.22027474641799927 0.9932806491851807 0.9529411792755127 0.9647058844566345 0.9843137264251709
0.35960590839385986 0.1004263386130333 0.9897233247756958 0.3450980484485626 0.3176470696926117 0.2862745225429535
0.24852216243743896 0.20558977127075195 0.006719367578625679 0.6000000238418579 0.6039215922355652 0.5411764979362488
0.4253694713115692 0.22295910120010376 0.0063241105526685715 0.23137255012989044 0.2078431397676468 0.16078431904315948
0.47044333815574646 0.1692720651626587 0.9889327883720398 0.364705890417099 0.3529411852359772 0.29411765933036804
0.3578817844390869 0.19406284391880035 0.9893280863761902 0.3137255012989044 0.3019607961177826 0.27450981736183167
0.3293103575706482 0.09253118932247162 0.007509881630539894 0.6784313917160034 0.6745098233222961 0.658823549747467
0.4206896424293518 0.15348176658153534 0.005928853526711464 0.545098066329956 0.5647059082984924 0.47843137383461
0.39852216839790344 0.09411021322011948 0.9893280863761902 0.3843137323856354 0.35686275362968445 0.3176470696926117
0.4448275864124298 0.1381651610136032 0.005928853526711464 0.6352941393852234 0.6509804129600525 0.5843137502670288
0.4716748893260956 0.1005842387676239 0.9893280863761902 0.3921568691730499 0.3607843220233917 0.30980393290519714
0.33472907543182373 0.189325749874115 0.9897233247756958 0.33725491166114807 0.32549020648002625 0.30588236451148987
0.30049261450767517 0.10737407207489014 0.0071146246045827866 0.5215686559677124 0.5137255191802979 0.4627451002597809
0.31231528520584106 0.1490604728460312 0.005928853526711464 0.6392157077789307 0.6313725709915161 0.5843137502670288
0.43866994976997375 0.1348492056131363 0.005928853526711464 0.7215686440467834 0.7333333492279053 0.658823549747467
0.42266011238098145 0.23432812094688416 0.1766798347234726 0.08235294371843338 0.08235294371843338 0.08235294371843338
0.44950738549232483 0.13453339040279388 0.9897233247756958 0.3529411852359772 0.3294117748737335 0.2666666805744171
0.45886698365211487 0.14432337880134583 0.9893280863761902 0.33725491166114807 0.32156863808631897 0.27450981736183167
0.3660098612308502 0.17874625325202942 0.9897233247756958 0.3529411852359772 0.34117648005485535 0.32156863808631897
0.47512316703796387 0.20843201875686646 0.29802370071411133 0.09019608050584793 0.09019608050584793 0.09019608050584793
0.4194581210613251 0.09695246815681458 0.9893280863761902 0.3803921639919281 0.3490196168422699 0.30588236451148987
0.2886699438095093 0.1353229135274887 0.9905138611793518 0.3529411852359772 0.3333333432674408 0.3176470696926117
0.4044334888458252 0.21427443623542786 0.23083004355430603 0.08235294371843338 0.08627451211214066 0.06666667014360428
0.3933497667312622 0.178430438041687 0.005928853526711464 0.6705882549285889 0.658823549747467 0.6235294342041016
0.4448275864124298 0.08147796988487244 0.9893280863761902 0.3686274588108063 0.3294117748737335 0.2823529541492462
0.4650246202945709 0.1294804960489273 0.9897233247756958 0.3803921639919281 0.3529411852359772 0.3137255012989044
0.25295567512512207 0.18158850073814392 0.9968379735946655 0.95686274766922 0.9686274528503418 0.9882352948188782
0.4125615656375885 0.10974261909723282 0.0063241105526685715 0.7372549176216125 0.7450980544090271 0.6901960968971252
0.2945812940597534 0.08163587749004364 0.9901185631752014 0.24313725531101227 0.21568627655506134 0.18431372940540314
0.4605911374092102 0.18600979447364807 0.005928853526711464 0.5372549295425415 0.5529412031173706 0.4941176474094391
0.2625615894794464 0.11905889958143234 0.9905138611793518 0.3176470696926117 0.3019607961177826 0.2666666805744171
0.46305418014526367 0.2300647348165512 0.18853755295276642 0.09019608050584793 0.062745101749897 0.03921568766236305
0.4847290515899658 0.14211274683475494 0.9893280863761902 0.3764705955982208 0.3607843220233917 0.3176470696926117
0.3283251225948334 0.10279488563537598 0.9897233247756958 0.32156863808631897 0.29411765933036804 0.26274511218070984
0.2583743929862976 0.14842885732650757 0.0063241105526685715 0.5490196347236633 0.5607843399047852 0.48627451062202454
0.28694581985473633 0.13911259174346924 0.9909090995788574 0.3529411852359772 0.3333333432674408 0.3176470696926117
0.41822659969329834 0.10405810922384262 0.9897233247756958 0.38823530077934265 0.35686275362968445 0.30588236451148987
0.4332512319087982 0.1809568852186203 0.005928853526711464 0.6627451181411743 0.6784313917160034 0.6117647290229797
0.3891625702381134 0.09505763649940491 0.0071146246045827866 0.6078431606292725 0.6117647290229797 0.5568627715110779
0.3327586352825165 0.22816990315914154 0.0063241105526685715 0.45098039507865906 0.43529412150382996 0.3921568691730499
0.317241370677948 0.1667456179857254 0.9901185631752014 0.3686274588108063 0.3450980484485626 0.3450980484485626
0.42733991146087646 0.09995263069868088 0.9893280863761902 0.3921568691730499 0.3686274588108063 0.32156863808631897
0.4645320177078247 0.22911731898784637 0.20158103108406067 0.21960784494876862 0.18431372940540314 0.125490203499794
0.4475369453430176 0.10311069339513779 0.005533596966415644 0.6627451181411743 0.6666666865348816 0.5960784554481506
0.42635467648506165 0.21980103850364685 0.29486167430877686 0.6000000238418579 0.6392157077789307 0.6431372761726379
0.4238916337490082 0.19643139839172363 0.005928853526711464 0.6392157077789307 0.6392157077789307 0.5921568870544434
0.3455665111541748 0.15932416915893555 0.005928853526711464 0.5882353186607361 0.5843137502670288 0.5058823823928833
0.42586207389831543 0.21222169697284698 0.24071146547794342 0.11372549086809158 0.10980392247438431 0.0941176488995552
0.2967980206012726 0.15269224345684052 0.005928853526711464 0.7803921699523926 0.7882353067398071 0.7372549176216125
0.27586206793785095 0.22785410284996033 0.18458497524261475 0.23529411852359772 0.24313725531101227 0.239215686917305
0.39950740337371826 0.22295910120010376 0.2956521809101105 0.5803921818733215 0.6235294342041016 0.6392157077789307
0.3842364549636841 0.23685456812381744 0.9885375499725342 0.27450981736183167 0.26274511218070984 0.24313725531101227
0.43374383449554443 0.12411179393529892 0.005533596966415644 0.5647059082984924 0.572549045085907 0.48627451062202454
0.45911329984664917 0.08510974049568176 0.9893280863761902 0.3803921639919281 0.3490196168422699 0.2980392277240753
0.4408867061138153 0.09742618352174759 0.005533596966415644 0.6235294342041016 0.6313725709915161 0.5764706134796143
0.46576353907585144 0.23511764407157898 0.005928853526711464 0.30588236451148987 0.2823529541492462 0.22745098173618317
0.46674877405166626 0.2126954048871994 0.23162055015563965 0.12156862765550613 0.11764705926179886 0.10196078568696976
0.30369457602500916 0.09505763649940491 0.9897233247756958 0.2862745225429535 0.25882354378700256 0.22745098173618317
0.31576353311538696 0.18474656343460083 0.0063241105526685715 0.6196078658103943 0.615686297416687 0.5333333611488342
0.35541871190071106 0.1864835023880005 0.0063241105526685715 0.6666666865348816 0.6627451181411743 0.5843137502670288
0.3288177251815796 0.08305700123310089 0.9897233247756958 0.33725491166114807 0.30980393290519714 0.2705882489681244
0.4485221803188324 0.17637769877910614 0.9889327883720398 0.33725491166114807 0.32549020648002625 0.2980392277240753
0.27906402945518494 0.1807989925146103 0.9976284503936768 1.0 1.0 1.0
0.27536946535110474 0.22927522659301758 0.21976284682750702 0.6274510025978088 0.6039215922355652 0.5490196347236633
0.3019704520702362 0.18553608655929565 0.0063241105526685715 0.501960813999176 0.5058823823928833 0.43529412150382996
0.2497536987066269 0.20606347918510437 0.9944664239883423 0.95686274766922 0.9686274528503418 0.9882352948188782
0.2864531874656677 0.12253276258707047 0.006719367578625679 0.6000000238418579 0.6000000238418579 0.5607843399047852
0.39408865571022034 0.20322121679782867 0.9889327883720398 0.3176470696926117 0.30588236451148987 0.27843138575553894
0.38694581389427185 0.1836412400007248 0.9893280863761902 0.3176470696926117 0.30588236451148987 0.27843138575553894
0.33990147709846497 0.15269224345684052 0.005928853526711464 0.5843137502670288 0.5882353186607361 0.5176470875740051
0.4798029661178589 0.1406916081905365 0.9893280863761902 0.3843137323856354 0.3764705955982208 0.3294117748737335
0.4802955687046051 0.2180641144514084 0.20474308729171753 0.07450980693101883 0.07450980693101883 0.06666667014360428
0.44261083006858826 0.10121585428714752 0.9893280863761902 0.364705890417099 0.34117648005485535 0.27843138575553894
0.4608374238014221 0.11716406047344208 0.005533596966415644 0.5215686559677124 0.5333333611488342 0.4274509847164154
0.2573891580104828 0.23685456812381744 0.20513834059238434 0.1568627506494522 0.16078431904315948 0.1764705926179886
0.4527093470096588 0.1809568852186203 0.9889327883720398 0.3607843220233917 0.3529411852359772 0.30588236451148987
0.4396551847457886 0.15679772198200226 0.005928853526711464 0.5764706134796143 0.5803921818733215 0.5176470875740051
0.277339905500412 0.1781146377325058 0.0063241105526685715 0.6117647290229797 0.6235294342041016 0.5490196347236633
0.37931033968925476 0.10547923296689987 0.9897233247756958 0.35686275362968445 0.34117648005485535 0.2980392277240753
0.32709360122680664 0.11447971314191818 0.006719367578625679 0.6392157077789307 0.6431372761726379 0.6117647290229797
0.33522167801856995 0.10153166204690933 0.9897233247756958 0.32156863808631897 0.29411765933036804 0.26274511218070984
0.24852216243743896 0.1555345058441162 0.0063241105526685715 0.6509804129600525 0.6470588445663452 0.5647059082984924
0.2623152732849121 0.11574293673038483 0.9901185631752014 0.3137255012989044 0.2980392277240753 0.2549019753932953
0.4876847267150879 0.17100900411605835 0.005928853526711464 0.5490196347236633 0.5529412031173706 0.48235294222831726
0.3657635450363159 0.10090004652738571 0.0071146246045827866 0.5607843399047852 0.5411764979362488 0.46666666865348816
0.4433497488498688 0.1261645406484604 0.9897233247756958 0.364705890417099 0.3294117748737335 0.29411765933036804
0.38325121998786926 0.22027474641799927 0.17984189093112946 0.05882352963089943 0.0313725508749485 0.007843137718737125
0.4721674919128418 0.2153797596693039 0.26798418164253235 0.10196078568696976 0.09803921729326248 0.09019608050584793
0.3408867120742798 0.12505921721458435 0.0063241105526685715 0.5960784554481506 0.6039215922355652 0.5490196347236633
0.4128078818321228 0.18332543969154358 0.9893280863761902 0.26274511218070984 0.250980406999588 0.21568627655506134
0.25270935893058777 0.10895310342311859 0.9901185631752014 0.32156863808631897 0.29411765933036804 0.2549019753932953
0.3652709424495697 0.08242539316415787 0.007905138656497002 0.47058823704719543 0.48235294222831726 0.43921568989753723
0.40344828367233276 0.2324332892894745 0.0063241105526685715 0.2235294133424759 0.2078431397676468 0.16078431904315948
0.4283251166343689 0.22469604015350342 0.9885375499725342 0.2862745225429535 0.27450981736183167 0.24705882370471954
0.306157648563385 0.23038055002689362 0.006719367578625679 0.3607843220233917 0.3529411852359772 0.3019607961177826
0.4443349838256836 0.1092689111828804 0.9897233247756958 0.3607843220233917 0.33725491166114807 0.2823529541492462
0.26798030734062195 0.13453339040279388 0.9905138611793518 0.32156863808631897 0.30588236451148987 0.29411765933036804
0.46576353907585144 0.1867993026971817 0.005928853526711464 0.5803921818733215 0.5960784554481506 0.5411764979362488
0.31182265281677246 0.18016737699508667 0.0063241105526685715 0.7529411911964417 0.7411764860153198 0.6745098233222961
0.46231526136398315 0.12584872543811798 0.9897233247756958 0.3843137323856354 0.35686275362968445 0.3176470696926117
0.3495073914527893 0.12458550184965134 0.9901185631752014 0.3137255012989044 0.29411765933036804 0.27843138575553894
0.3800492584705353 0.20353703200817108 0.9893280863761902 0.30588236451148987 0.29411765933036804 0.27450981736183167
0.40221676230430603 0.18300963938236237 0.005928853526711464 0.4901960790157318 0.5058823823928833 0.43921568989753723
0.2689655125141144 0.1582188606262207 0.0063241105526685715 0.6784313917160034 0.6705882549285889 0.6117647290229797
0.32339900732040405 0.22185377776622772 0.0063241105526685715 0.364705890417099 0.35686275362968445 0.30588236451148987
0.36280786991119385 0.19611558318138123 0.9893280863761902 0.2980392277240753 0.2862745225429535 0.2666666805744171
0.4246305525302887 0.1757460981607437 0.005928853526711464 0.6039215922355652 0.615686297416687 0.5490196347236633
0.2536945939064026 0.2355913519859314 0.24782608449459076 0.13725490868091583 0.13725490868091583 0.13725490868091583
0.4566502571105957 0.23069635033607483 0.9881423115730286 0.2666666805744171 0.2705882489681244 0.239215686917305
0.25640395283699036 0.08447813242673874 0.9901185631752014 0.2862745225429535 0.2705882489681244 0.22745098173618317
0.47783252596855164 0.20195800065994263 0.9889327883720398 0.3607843220233917 0.3490196168422699 0.32156863808631897
0.4236453175544739 0.21443234384059906 0.2083003968000412 0.1411764770746231 0.14509804546833038 0.125490203499794
0.40714284777641296 0.13927048444747925 0.9901185631752014 0.364705890417099 0.34117648005485535 0.29411765933036804
0.4655172526836395 0.21411652863025665 0.20711462199687958 0.0941176488995552 0.0941176488995552 0.08627451211214066
0.29630541801452637 0.1924838125705719 0.0063241105526685715 0.6705882549285889 0.6745098233222961 0.6039215922355652
0.4371921122074127 0.18616768717765808 0.9889327883720398 0.3294117748737335 0.3294117748737335 0.2823529541492462
0.4849753677845001 0.21727459132671356 0.28379446268081665 0.0941176488995552 0.0941176488995552 0.0941176488995552
0.3731527030467987 0.22832781076431274 0.2956521809101105 0.5686274766921997 0.6078431606292725 0.6039215922355652
0.3448275923728943 0.19137848913669586 0.0063241105526685715 0.5372549295425415 0.5411764979362488 0.47058823704719543
0.29187193512916565 0.17290383577346802 0.9956521987915039 0.7568627595901489 0.8078431487083435 0.8392156958580017
0.45763546228408813 0.2156955599784851 0.9885375499725342 0.3294117748737335 0.3176470696926117 0.2823529541492462
0.36674878001213074 0.15869256854057312 0.005928853526711464 0.7137255072593689 0.729411780834198 0.6705882549285889
0.3206896483898163 0.09047844260931015 0.007509881630539894 0.6313725709915161 0.6196078658103943 0.5843137502670288
0.47807881236076355 0.2128533124923706 0.1715414971113205 0.18039216101169586 0.1882352977991104 0.1764705926179886
0.4278325140476227 0.23511764407157898 0.29446640610694885 0.5372549295425415 0.5843137502670288 0.5843137502670288
0.45911329984664917 0.1264803409576416 0.9897233247756958 0.38823530077934265 0.3607843220233917 0.32156863808631897
0.39852216839790344 0.21111637353897095 0.15296442806720734 0.0941176488995552 0.09019608050584793 0.07058823853731155
0.31133005023002625 0.09126795828342438 0.9897233247756958 0.30980393290519714 0.2823529541492462 0.250980406999588
0.4672413766384125 0.10737407207489014 0.005533596966415644 0.6196078658103943 0.6352941393852234 0.545098066329956
0.4283251166343689 0.11747986823320389 0.9897233247756958 0.3843137323856354 0.3529411852359772 0.30980393290519714
0.47463053464889526 0.21648508310317993 0.22252964973449707 0.13333334028720856 0.12941177189350128 0.10980392247438431
0.379802942276001 0.19058898091316223 0.005928853526711464 0.6705882549285889 0.6705882549285889 0.6313725709915161
0.4125615656375885 0.09584715217351913 0.9893280863761902 0.3960784375667572 0.35686275362968445 0.3176470696926117
0.4078817665576935 0.2125374972820282 0.1826086938381195 0.2078431397676468 0.21568627655506134 0.19607843458652496
0.3847290575504303 0.10168956220149994 0.0071146246045827866 0.5921568870544434 0.5843137502670288 0.5254902243614197
0.27241379022598267 0.18806253373622894 0.9964426755905151 0.95686274766922 0.9764705896377563 0.9882352948188782
0.3334975242614746 0.19706299901008606 0.9893280863761902 0.32549020648002625 0.3137255012989044 0.29411765933036804
0.26871922612190247 0.23053844273090363 0.1928853690624237 0.11764705926179886 0.11764705926179886 0.10980392247438431
0.4522167444229126 0.132480651140213 0.005928853526711464 0.658823549747467 0.6627451181411743 0.6078431606292725
0.37044334411621094 0.12553292512893677 0.9901185631752014 0.3607843220233917 0.32549020648002625 0.29019609093666077
0.3967980444431305 0.21032686531543732 0.1719367653131485 0.13333334028720856 0.13333334028720856 0.125490203499794
0.4167487621307373 0.17732512950897217 0.9893280863761902 0.3529411852359772 0.3450980484485626 0.2980392277240753
0.3935960531234741 0.1350070983171463 0.005928853526711464 0.5843137502670288 0.6039215922355652 0.5254902243614197
0.40640392899513245 0.15395547449588776 0.005928853526711464 0.5686274766921997 0.5764706134796143 0.4941176474094391
0.3655172288417816 0.19927364587783813 0.0063241105526685715 0.4431372582912445 0.4470588266849518 0.3921568691730499
0.4849753677845001 0.13674403727054596 0.9893280863761902 0.33725491166114807 0.32156863808631897 0.27843138575553894
0.379802942276001 0.09932101517915726 0.9897233247756958 0.32156863808631897 0.30588236451148987 0.26274511218070984
0.2780788242816925 0.13042791187763214 0.9905138611793518 0.33725491166114807 0.3176470696926117 0.3019607961177826
0.4766009747982025 0.23369650542736053 0.9885375499725342 0.3294117748737335 0.3333333432674408 0.30980393290519714
0.3293103575706482 0.18190431594848633 0.9897233247756958 0.3490196168422699 0.33725491166114807 0.3176470696926117
0.4162561595439911 0.2357492446899414 0.0063241105526685715 0.23529411852359772 0.2078431397676468 0.16862745583057404
0.2931034564971924 0.11432180553674698 0.006719367578625679 0.5686274766921997 0.5568627715110779 0.5215686559677124
0.2497536987066269 0.22659087181091309 0.006719367578625679 0.4901960790157318 0.49803921580314636 0.4117647111415863
0.4849753677845001 0.08163587749004364 0.005533596966415644 0.572549045085907 0.5843137502670288 0.5098039507865906
0.38620689511299133 0.12569083273410797 0.9901185631752014 0.3607843220233917 0.3450980484485626 0.2980392277240753
0.475862056016922 0.1149534210562706 0.005533596966415644 0.7098039388656616 0.6980392336845398 0.6392157077789307
0.314039409160614 0.18569397926330566 0.0063241105526685715 0.6941176652908325 0.6901960968971252 0.6117647290229797
0.36650246381759644 0.0832149088382721 0.007905138656497002 0.6901960968971252 0.7019608020782471 0.6666666865348816
0.3450738787651062 0.21206378936767578 0.9889327883720398 0.30588236451148987 0.29019609093666077 0.2862745225429535
0.4214285612106323 0.14716564118862152 0.9897233247756958 0.364705890417099 0.35686275362968445 0.30980393290519714
0.4283251166343689 0.21190589666366577 0.24624505639076233 0.10980392247438431 0.10588235408067703 0.09019608050584793
0.3266009986400604 0.19390493631362915 0.0063241105526685715 0.5764706134796143 0.5803921818733215 0.5098039507865906
0.2935960590839386 0.20022106170654297 0.0063241105526685715 0.5529412031173706 0.545098066329956 0.4627451002597809
0.35541871190071106 0.1812727004289627 0.9897233247756958 0.2705882489681244 0.2549019753932953 0.24313725531101227
0.4004926085472107 0.15032370388507843 0.9897233247756958 0.34117648005485535 0.32549020648002625 0.2823529541492462
0.4177339971065521 0.19879993796348572 0.9889327883720398 0.3137255012989044 0.3019607961177826 0.2666666805744171
0.40197044610977173 0.23180167376995087 0.29525691270828247 0.572549045085907 0.6039215922355652 0.615686297416687
0.278817743062973 0.1691141575574875 0.0063241105526685715 0.5686274766921997 0.5764706134796143 0.4941176474094391
0.30812808871269226 0.1179535761475563 0.9901185631752014 0.3137255012989044 0.2862745225429535 0.26274511218070984
0.32413792610168457 0.16532449424266815 0.9901185631752014 0.3529411852359772 0.34117648005485535 0.32156863808631897
0.31477832794189453 0.10784777998924255 0.9901185631752014 0.30980393290519714 0.2823529541492462 0.25882354378700256
0.3657635450363159 0.20622138679027557 0.9893280863761902 0.2823529541492462 0.2666666805744171 0.2549019753932953
0.4529556632041931 0.16706141829490662 0.9889327883720398 0.3450980484485626 0.33725491166114807 0.29019609093666077
0.3847290575504303 0.10105795413255692 0.0071146246045827866 0.5960784554481506 0.5882353186607361 0.529411792755127
0.4519704580307007 0.15600821375846863 0.9893280863761902 0.3607843220233917 0.3333333432674408 0.29411765933036804
0.33128079771995544 0.14242854714393616 0.005928853526711464 0.5803921818733215 0.5882353186607361 0.5333333611488342
0.29556649923324585 0.17969366908073425 0.9944664239883423 0.9921568632125854 0.9921568632125854 1.0
0.4137931168079376 0.10768987983465195 0.9897233247756958 0.3843137323856354 0.35686275362968445 0.29411765933036804
0.25246304273605347 0.23685456812381744 0.1620553433895111 0.16862745583057404 0.16862745583057404 0.16862745583057404
0.4834975302219391 0.1440075784921646 0.0063241105526685715 0.6666666865348816 0.6823529601097107 0.615686297416687
0.35837438702583313 0.16311384737491608 0.9901185631752014 0.32156863808631897 0.30980393290519714 0.27450981736183167
0.4081280827522278 0.08700457960367203 0.9893280863761902 0.3960784375667572 0.3686274588108063 0.3294117748737335
0.43546798825263977 0.23495973646640778 0.9881423115730286 0.2862745225429535 0.27450981736183167 0.24705882370471954
0.2729063928127289 0.09726827591657639 0.007509881630539894 0.5647059082984924 0.572549045085907 0.5176470875740051
0.25270935893058777 0.21380072832107544 0.006719367578625679 0.45490196347236633 0.45490196347236633 0.3607843220233917
0.36650246381759644 0.20227380096912384 0.0063241105526685715 0.4274509847164154 0.4274509847164154 0.3803921639919281
0.2463054209947586 0.1381651610136032 0.005928853526711464 0.47843137383461 0.48627451062202454 0.4000000059604645
0.41551724076271057 0.2123796045780182 0.1822134405374527 0.18039216101169586 0.1882352977991104 0.1764705926179886
0.3519704341888428 0.08716247975826263 0.007509881630539894 0.6313725709915161 0.6235294342041016 0.5764706134796143
0.35394087433815 0.09284698963165283 0.9897233247756958 0.3529411852359772 0.3137255012989044 0.27843138575553894
0.2586206793785095 0.2180641144514084 0.9932806491851807 0.9529411792755127 0.9647058844566345 0.9843137264251709
0.48251232504844666 0.17764092981815338 0.9889327883720398 0.3686274588108063 0.3529411852359772 0.3176470696926117
0.28423646092414856 0.17921996116638184 0.9972332119941711 1.0 1.0 1.0
0.3322660028934479 0.0947418287396431 0.007509881630539894 0.5764706134796143 0.5647059082984924 0.529411792755127
0.2935960590839386 0.1121111661195755 0.0071146246045827866 0.5686274766921997 0.5568627715110779 0.5215686559677124
0.3975369334220886 0.20795831084251404 0.005928853526711464 0.40784314274787903 0.4000000059604645 0.3529411852359772
0.34679803252220154 0.09853149950504303 0.9897233247756958 0.32156863808631897 0.29411765933036804 0.26274511218070984
0.3056650161743164 0.17100900411605835 0.0063241105526685715 0.686274528503418 0.6901960968971252 0.6196078658103943
0.25172412395477295 0.1725880354642868 0.0063241105526685715 0.5176470875740051 0.5372549295425415 0.4588235318660736
0.3177340030670166 0.2096952497959137 0.0063241105526685715 0.5254902243614197 0.5215686559677124 0.45098039507865906
0.3485221564769745 0.23401232063770294 0.0063241105526685715 0.12941177189350128 0.11764705926179886 0.09803921729326248
0.24802955985069275 0.21743249893188477 0.006719367578625679 0.5568627715110779 0.5529412031173706 0.4745098054409027
0.3935960531234741 0.2295910269021988 0.9885375499725342 0.29411765933036804 0.2823529541492462 0.26274511218070984
0.30738916993141174 0.20843201875686646 0.9897233247756958 0.40784314274787903 0.4000000059604645 0.4117647111415863
0.34458127617836 0.23653876781463623 0.29525691270828247 0.5607843399047852 0.5960784554481506 0.5843137502670288
0.3561576306819916 0.19627349078655243 0.9893280863761902 0.29411765933036804 0.2823529541492462 0.2549019753932953
0.38669949769973755 0.18032528460025787 0.005928853526711464 0.7058823704719543 0.7058823704719543 0.6666666865348816
0.4524630606174469 0.23180167376995087 0.29407113790512085 0.6666666865348816 0.7176470756530762 0.6901960968971252
0.3805418610572815 0.15632401406764984 0.9901185631752014 0.32549020648002625 0.30980393290519714 0.2666666805744171
0.3576354682445526 0.1032685935497284 0.0071146246045827866 0.6078431606292725 0.6039215922355652 0.5254902243614197
0.3024630546569824 0.160903200507164 0.9932806491851807 0.37254902720451355 0.3490196168422699 0.35686275362968445
0.41477832198143005 0.21159008145332336 0.2711462378501892 0.11372549086809158 0.10980392247438431 0.0941176488995552
0.2692118287086487 0.23495973646640778 0.27984189987182617 0.14901961386203766 0.15294118225574493 0.16862745583057404
0.32709360122680664 0.2123796045780182 0.0063241105526685715 0.48627451062202454 0.4745098054409027 0.4000000059604645
0.3694581389427185 0.13974419236183167 0.9905138611793518 0.32549020648002625 0.30980393290519714 0.27450981736183167
0.4640394151210785 0.09237328171730042 0.9893280863761902 0.3843137323856354 0.3529411852359772 0.3019607961177826
0.2967980206012726 0.19374704360961914 0.0063241105526685715 0.5607843399047852 0.5647059082984924 0.5098039507865906
0.24901477992534637 0.1263224333524704 0.9905138611793518 0.34117648005485535 0.3137255012989044 0.2823529541492462
0.400738924741745 0.16895626485347748 0.005928853526711464 0.6431372761726379 0.6352941393852234 0.5529412031173706
0.48275861144065857 0.10895310342311859 0.005533596966415644 0.5960784554481506 0.6039215922355652 0.5215686559677124
0.3374384343624115 0.15948207676410675 0.9905138611793518 0.30980393290519714 0.2980392277240753 0.2705882489681244
0.3778325021266937 0.12600663304328918 0.9901185631752014 0.3607843220233917 0.3333333432674408 0.3019607961177826
0.3802955746650696 0.19769461452960968 0.9893280863761902 0.250980406999588 0.24705882370471954 0.22745098173618317
0.26871922612190247 0.23622295260429382 0.27984189987182617 0.15294118225574493 0.1568627506494522 0.1725490242242813
0.27536946535110474 0.22848570346832275 0.006719367578625679 0.46666666865348816 0.4627451002597809 0.3843137323856354
0.2699507474899292 0.17685140669345856 0.0063241105526685715 0.7098039388656616 0.7137255072593689 0.6431372761726379
0.39605912566185 0.21127428114414215 0.005928853526711464 0.43529412150382996 0.41960784792900085 0.3764705955982208
0.2935960590839386 0.1121111661195755 0.0071146246045827866 0.5686274766921997 0.5568627715110779 0.5215686559677124
0.32758620381355286 0.09126795828342438 0.007509881630539894 0.6901960968971252 0.6745098233222961 0.6627451181411743
0.3007389307022095 0.14290225505828857 0.005928853526711464 0.5372549295425415 0.5411764979362488 0.47843137383461
0.4317733943462372 0.23353861272335052 0.9881423115730286 0.30980393290519714 0.2980392277240753 0.2705882489681244
0.4130541980266571 0.15979787707328796 0.9897233247756958 0.3764705955982208 0.3607843220233917 0.3137255012989044
0.381280779838562 0.1751144826412201 0.9897233247756958 0.29411765933036804 0.2823529541492462 0.2549019753932953
0.26453202962875366 0.23448602855205536 0.28260868787765503 0.16078431904315948 0.16470588743686676 0.18431372940540314
0.38596057891845703 0.19422075152397156 0.9893280863761902 0.2862745225429535 0.2823529541492462 0.26274511218070984
0.2704433500766754 0.13421759009361267 0.9905138611793518 0.30980393290519714 0.2980392277240753 0.27843138575553894
0.47389161586761475 0.20843201875686646 0.2976284623146057 0.09019608050584793 0.09019608050584793 0.09019608050584793
0.44975370168685913 0.09158376604318619 0.005533596966415644 0.5176470875740051 0.5137255191802979 0.4313725531101227
0.464778333902359 0.12190115451812744 0.005928853526711464 0.658823549747467 0.6705882549285889 0.6039215922355652
0.4325123131275177 0.13105952739715576 0.9897233247756958 0.3921568691730499 0.364705890417099 0.32549020648002625
0.4443349838256836 0.2101689577102661 0.269565224647522 0.10980392247438431 0.10588235408067703 0.09803921729326248
0.42610836029052734 0.1924838125705719 0.005928853526711464 0.7058823704719543 0.7058823704719543 0.6666666865348816
0.463300496339798 0.22864361107349396 0.2023715376853943 0.22745098173618317 0.18431372940540314 0.11372549086809158
0.44211822748184204 0.16532449424266815 0.005928853526711464 0.501960813999176 0.5411764979362488 0.49803921580314636
0.3534482717514038 0.10232117772102356 0.9897233247756958 0.3490196168422699 0.32156863808631897 0.29019609093666077
0.33842363953590393 0.17369335889816284 0.9901185631752014 0.3333333432674408 0.3137255012989044 0.29019609093666077
0.4445812702178955 0.21080057322978973 0.260869562625885 0.11372549086809158 0.10980392247438431 0.09019608050584793
0.31477832794189453 0.13690194487571716 0.005928853526711464 0.5372549295425415 0.5215686559677124 0.4745098054409027
0.4834975302219391 0.21190589666366577 0.9889327883720398 0.3333333432674408 0.32156863808631897 0.2862745225429535
0.4805418848991394 0.18869413435459137 0.005928853526711464 0.5372549295425415 0.545098066329956 0.501960813999176
0.25985223054885864 0.23511764407157898 0.992094874382019 0.95686274766922 0.9686274528503418 0.9882352948188782
0.4485221803188324 0.21380072832107544 0.21264822781085968 0.0784313753247261 0.07450980693101883 0.05882352963089943
0.4325123131275177 0.1206379309296608 0.005533596966415644 0.5529412031173706 0.5568627715110779 0.4941176474094391
0.4401477873325348 0.1924838125705719 0.9889327883720398 0.34117648005485535 0.3294117748737335 0.29411765933036804
0.37093594670295715 0.08858361095190048 0.9893280863761902 0.3686274588108063 0.34117648005485535 0.3019607961177826
0.3684729039669037 0.22216959297657013 0.2956521809101105 0.5921568870544434 0.6274510025978088 0.6235294342041016
0.3327586352825165 0.12190115451812744 0.9901185631752014 0.2980392277240753 0.27843138575553894 0.2549019753932953
0.27512314915657043 0.17037738859653473 0.9984189867973328 1.0 1.0 1.0
0.3536945879459381 0.183799147605896 0.0063241105526685715 0.6549019813537598 0.658823549747467 0.5882353186607361
0.4608374238014221 0.21159008145332336 0.1723320186138153 0.13725490868091583 0.13725490868091583 0.12941177189350128
0.25172412395477295 0.13327017426490784 0.9905138611793518 0.3843137323856354 0.3686274588108063 0.35686275362968445
0.3977832496166229 0.14163903892040253 0.005928853526711464 0.7098039388656616 0.7215686440467834 0.6470588445663452
0.475862056016922 0.2182220071554184 0.20395256578922272 0.08627451211214066 0.08627451211214066 0.0784313753247261
0.35862070322036743 0.1665877103805542 0.9901185631752014 0.32549020648002625 0.3137255012989044 0.27843138575553894
0.31108373403549194 0.13358597457408905 0.9905138611793518 0.3176470696926117 0.2980392277240753 0.27450981736183167
0.3261083662509918 0.2354334443807602 0.0063241105526685715 0.3490196168422699 0.33725491166114807 0.26274511218070984
0.4394088685512543 0.2041686475276947 0.005928853526711464 0.5176470875740051 0.5254902243614197 0.47058823704719543
0.4492610692977905 0.21190589666366577 0.24229249358177185 0.11764705926179886 0.11372549086809158 0.09803921729326248
0.3246305286884308 0.17290383577346802 0.9901185631752014 0.3529411852359772 0.3333333432674408 0.30980393290519714
0.4911330044269562 0.2329069972038269 0.186956524848938 0.45490196347236633 0.4588235318660736 0.38823530077934265
0.3763546943664551 0.22769619524478912 0.9885375499725342 0.30588236451148987 0.29411765933036804 0.27450981736183167
0.40591132640838623 0.20874783396720886 0.9889327883720398 0.29019609093666077 0.27450981736183167 0.26274511218070984
0.42241379618644714 0.1867993026971817 0.005928853526711464 0.572549045085907 0.5803921818733215 0.529411792755127
0.253201961517334 0.235275536775589 0.26284584403038025 0.13725490868091583 0.13725490868091583 0.12941177189350128
0.3298029601573944 0.22911731898784637 0.9885375499725342 0.35686275362968445 0.3529411852359772 0.33725491166114807
0.3980295658111572 0.2095373421907425 0.1770751029253006 0.14509804546833038 0.14509804546833038 0.13725490868091583
0.38275861740112305 0.22864361107349396 0.0063241105526685715 0.07058823853731155 0.07058823853731155 0.07058823853731155
0.3497537076473236 0.09221538156270981 0.007509881630539894 0.5921568870544434 0.5921568870544434 0.5607843399047852
0.33177340030670166 0.0920574739575386 0.007509881630539894 0.5686274766921997 0.5764706134796143 0.5254902243614197
0.43004927039146423 0.22580136358737946 0.9885375499725342 0.3137255012989044 0.3019607961177826 0.27450981736183167
0.43448275327682495 0.1376914530992508 0.9897233247756958 0.37254902720451355 0.35686275362968445 0.3137255012989044
0.4009852111339569 0.14290225505828857 0.005928853526711464 0.6784313917160034 0.6980392336845398 0.6117647290229797
0.24901477992534637 0.1263224333524704 0.9905138611793518 0.34117648005485535 0.3137255012989044 0.2823529541492462
0.29236453771591187 0.15869256854057312 0.9964426755905151 0.7333333492279053 0.7647058963775635 0.772549033164978
0.2894088625907898 0.09253118932247162 0.007509881630539894 0.6431372761726379 0.6352941393852234 0.5843137502670288
0.4475369453430176 0.14874467253684998 0.9893280863761902 0.34117648005485535 0.32549020648002625 0.2823529541492462
0.4761083722114563 0.23164376616477966 0.2035573124885559 0.21568627655506134 0.20392157137393951 0.13725490868091583
0.3613300621509552 0.13832306861877441 0.005928853526711464 0.6784313917160034 0.6901960968971252 0.6235294342041016
0.35467979311943054 0.20037896931171417 0.9893280863761902 0.27450981736183167 0.2705882489681244 0.250980406999588
0.46157634258270264 0.21632717549800873 0.0063241105526685715 0.23137255012989044 0.21568627655506134 0.18039216101169586
0.48128077387809753 0.21301120519638062 0.9889327883720398 0.33725491166114807 0.32549020648002625 0.29019609093666077
0.3364531993865967 0.1749565750360489 0.9901185631752014 0.33725491166114807 0.3176470696926117 0.3019607961177826
0.3761083781719208 0.08810990303754807 0.9893280863761902 0.35686275362968445 0.34117648005485535 0.2980392277240753
0.4610837399959564 0.2100110501050949 0.15177865326404572 0.19607843458652496 0.18431372940540314 0.1568627506494522
0.26354679465293884 0.08163587749004364 0.9901185631752014 0.2823529541492462 0.2666666805744171 0.23137255012989044
0.4524630606174469 0.08889941871166229 0.9893280863761902 0.4000000059604645 0.3686274588108063 0.3176470696926117
0.368719220161438 0.15616612136363983 0.9901185631752014 0.30588236451148987 0.29411765933036804 0.27450981736183167
0.31921181082725525 0.12095373123884201 0.9901185631752014 0.30588236451148987 0.27843138575553894 0.2549019753932953
0.3884236514568329 0.12269067019224167 0.005928853526711464 0.6980392336845398 0.7058823704719543 0.6549019813537598
0.2549261152744293 0.13311226665973663 0.9905138611793518 0.3803921639919281 0.364705890417099 0.3529411852359772
0.32413792610168457 0.19595767557621002 0.9893280863761902 0.3490196168422699 0.3333333432674408 0.3294117748737335
0.29605910181999207 0.23180167376995087 0.006719367578625679 0.35686275362968445 0.3529411852359772 0.27450981736183167
0.29605910181999207 0.23401232063770294 0.17826086282730103 0.16470588743686676 0.16862745583057404 0.1764705926179886
0.42955663800239563 0.21332702040672302 0.2233201563358307 0.10588235408067703 0.10196078568696976 0.08627451211214066
0.4167487621307373 0.17195641994476318 0.005928853526711464 0.5176470875740051 0.5254902243614197 0.4745098054409027
0.27610838413238525 0.17164061963558197 0.0063241105526685715 0.5607843399047852 0.5686274766921997 0.48235294222831726
0.4682266116142273 0.1294804960489273 0.9897233247756958 0.3960784375667572 0.37254902720451355 0.32549020648002625
0.467980295419693 0.14021790027618408 0.9893280863761902 0.3686274588108063 0.37254902720451355 0.3176470696926117
0.4532019793987274 0.2302226424217224 0.17865613102912903 0.13333334028720856 0.1411764770746231 0.12941177189350128
0.2977832555770874 0.14779725670814514 0.9936758875846863 0.3764705955982208 0.3803921639919281 0.3607843220233917
0.29901477694511414 0.12774357199668884 0.9905138611793518 0.3176470696926117 0.3019607961177826 0.2666666805744171
0.44236454367637634 0.13121743500232697 0.005928853526711464 0.6352941393852234 0.6470588445663452 0.5647059082984924
0.47438424825668335 0.08195168524980545 0.9897233247756958 0.3921568691730499 0.364705890417099 0.3019607961177826
0.44704434275627136 0.080372653901577 0.005928853526711464 0.545098066329956 0.5568627715110779 0.4901960790157318
0.4169950783252716 0.1007421463727951 0.9897233247756958 0.3764705955982208 0.3450980484485626 0.3019607961177826
0.40714284777641296 0.22295910120010376 0.005928853526711464 0.3294117748737335 0.3176470696926117 0.250980406999588
0.36330050230026245 0.21790620684623718 0.2956521809101105 0.27450981736183167 0.29411765933036804 0.2705882489681244
0.27241379022598267 0.080372653901577 0.007509881630539894 0.6274510025978088 0.6274510025978088 0.5333333611488342
0.4167487621307373 0.22974893450737 0.9885375499725342 0.2980392277240753 0.2862745225429535 0.25882354378700256
0.4241379201412201 0.08432022482156754 0.006719367578625679 0.686274528503418 0.6823529601097107 0.6117647290229797
0.2780788242816925 0.22011685371398926 0.9936758875846863 0.9411764740943909 0.95686274766922 0.9686274528503418
0.28423646092414856 0.14890258014202118 0.9940711259841919 0.7176470756530762 0.7450980544090271 0.7176470756530762
0.4847290515899658 0.23638086020946503 0.9881423115730286 0.29019609093666077 0.29019609093666077 0.250980406999588
0.48275861144065857 0.13958629965782166 0.0063241105526685715 0.5686274766921997 0.5647059082984924 0.4941176474094391
0.2810344696044922 0.1204800233244896 0.006719367578625679 0.6274510025978088 0.6352941393852234 0.5843137502670288
0.4211822748184204 0.21127428114414215 0.26758894324302673 0.11372549086809158 0.10980392247438431 0.0941176488995552
0.4876847267150879 0.08021474629640579 0.005533596966415644 0.5686274766921997 0.5764706134796143 0.4941176474094391
0.2662561535835266 0.09016264230012894 0.007509881630539894 0.5882353186607361 0.5803921818733215 0.5333333611488342
0.3842364549636841 0.22011685371398926 0.1984189748764038 0.05098039284348488 0.0470588244497776 0.0313725508749485
0.2610837519168854 0.10611084848642349 0.0071146246045827866 0.6745098233222961 0.6666666865348816 0.6078431606292725
0.3642857074737549 0.09158376604318619 0.9897233247756958 0.3686274588108063 0.34117648005485535 0.3019607961177826
0.40738916397094727 0.14748144149780273 0.005928853526711464 0.6117647290229797 0.6274510025978088 0.5607843399047852
0.27266010642051697 0.10311069339513779 0.9901185631752014 0.30588236451148987 0.29019609093666077 0.2549019753932953
0.3049260973930359 0.19785252213478088 0.9909090995788574 0.38823530077934265 0.3803921639919281 0.3843137323856354
0.4445812702178955 0.15316595137119293 0.005928853526711464 0.6823529601097107 0.6980392336845398 0.6313725709915161
0.3371921181678772 0.1692720651626587 0.9901185631752014 0.3333333432674408 0.32156863808631897 0.29411765933036804
0.3044334948062897 0.1751144826412201 0.0063241105526685715 0.5372549295425415 0.5490196347236633 0.48235294222831726
0.3761083781719208 0.23417021334171295 0.9885375499725342 0.2862745225429535 0.2705882489681244 0.25882354378700256
0.4568965435028076 0.16169272363185883 0.005928853526711464 0.5882353186607361 0.6000000238418579 0.5333333611488342
0.41847291588783264 0.22264330089092255 0.0063241105526685715 0.40784314274787903 0.3921568691730499 0.3490196168422699
0.43768471479415894 0.21743249893188477 0.29446640610694885 0.125490203499794 0.16078431904315948 0.14901961386203766
0.26453202962875366 0.2100110501050949 0.9940711259841919 0.9607843160629272 0.9725490212440491 0.9921568632125854
0.44236454367637634 0.19453655183315277 0.005928853526711464 0.6078431606292725 0.6117647290229797 0.5882353186607361
0.27660098671913147 0.12316437810659409 0.9905138611793518 0.34117648005485535 0.32549020648002625 0.29019609093666077
