0.4573891758918762 0.8484130501747131 0.9897233247756958 0.3333333432674408 0.34117648005485535 0.2980392277240753
0.2945812940597534 0.7333017587661743 0.9936758875846863 0.9647058844566345 0.9686274528503418 0.9764705896377563
0.47758620977401733 0.8102005124092102 0.32134386897087097 0.5137255191802979 0.5529412031173706 0.5568627715110779
0.4283251166343689 0.8102005124092102 0.9901185631752014 0.3607843220233917 0.35686275362968445 0.34117648005485535
0.3369458019733429 0.7824096083641052 0.2972331941127777 0.6196078658103943 0.6392157077789307 0.6549019813537598
0.3169950842857361 0.8605716228485107 0.9905138611793518 0.3764705955982208 0.3764705955982208 0.3450980484485626
0.2539408802986145 0.7258803248405457 0.007905138656497002 0.5254902243614197 0.545098066329956 0.45490196347236633
0.4529556632041931 0.7849360704421997 0.9901185631752014 0.3490196168422699 0.3450980484485626 0.3294117748737335
0.47512316703796387 0.7576188445091248 0.0035573123022913933 0.250980406999588 0.2549019753932953 0.2235294133424759
0.3463054299354553 0.7751460671424866 0.009486165829002857 0.14901961386203766 0.14901961386203766 0.11764705926179886
0.4837438464164734 0.7468814253807068 0.2960474193096161 0.4901960790157318 0.5098039507865906 0.4941176474094391
0.45369458198547363 0.805621325969696 0.25652173161506653 0.13725490868091583 0.13725490868091583 0.12941177189350128
0.3256157636642456 0.827096164226532 0.00909090880304575 0.4627451002597809 0.45490196347236633 0.37254902720451355
0.4285714328289032 0.804831862449646 0.2292490154504776 0.1568627506494522 0.16078431904315948 0.1411764770746231
0.4652709364891052 0.8155692219734192 0.9897233247756958 0.3019607961177826 0.2980392277240753 0.27843138575553894
0.3566502332687378 0.719090461730957 0.01304347813129425 0.0941176488995552 0.10980392247438431 0.12156862765550613
0.46280789375305176 0.7901468276977539 0.2960474193096161 0.5098039507865906 0.5529412031173706 0.5372549295425415
0.4795566499233246 0.7925153970718384 0.00830039568245411 0.5098039507865906 0.48235294222831726 0.4117647111415863
0.38325121998786926 0.7951997518539429 0.2968379557132721 0.49803921580314636 0.5176470875740051 0.5333333611488342
0.42635467648506165 0.8034107089042664 0.1932806372642517 0.0941176488995552 0.0941176488995552 0.08627451211214066
0.47512316703796387 0.7880941033363342 0.2956521809101105 0.501960813999176 0.5411764979362488 0.5372549295425415
0.4596059024333954 0.7116690278053284 0.0019762846641242504 0.4156862795352936 0.41960784792900085 0.3490196168422699
0.3088670074939728 0.7779883146286011 0.2976284623146057 0.7764706015586853 0.7960784435272217 0.8117647171020508
0.25615763664245605 0.8386231064796448 0.9909090995788574 0.40784314274787903 0.4000000059604645 0.3529411852359772
0.48201969265937805 0.7146691679954529 0.2960474193096161 0.5490196347236633 0.5490196347236633 0.5803921818733215
0.4472906291484833 0.805621325969696 0.25177866220474243 0.14509804546833038 0.14901961386203766 0.12941177189350128
0.472660094499588 0.7756197452545166 0.006719367578625679 0.239215686917305 0.25882354378700256 0.24313725531101227
0.40197044610977173 0.7582504153251648 0.9905138611793518 0.3294117748737335 0.32549020648002625 0.30588236451148987
0.3369458019733429 0.7323543429374695 0.008695651777088642 0.24313725531101227 0.24705882370471954 0.18431372940540314
0.26453202962875366 0.7790936231613159 0.00830039568245411 0.5254902243614197 0.5176470875740051 0.4274509847164154
0.28793102502822876 0.8629401326179504 0.9905138611793518 0.38823530077934265 0.38823530077934265 0.3490196168422699
0.41009852290153503 0.8503078818321228 0.9901185631752014 0.3843137323856354 0.3921568691730499 0.3490196168422699
0.3980295658111572 0.8526764512062073 0.9901185631752014 0.3960784375667572 0.40392157435417175 0.3607843220233917
0.4123152792453766 0.7235117554664612 0.004347825888544321 0.25882354378700256 0.25882354378700256 0.21960784494876862
0.47881773114204407 0.8398863077163696 0.006719367578625679 0.545098066329956 0.5254902243614197 0.4470588266849518
0.2933497428894043 0.8263066411018372 0.009486165829002857 0.5764706134796143 0.5843137502670288 0.49803921580314636
0.3536945879459381 0.8087794184684753 0.9909090995788574 0.34117648005485535 0.33725491166114807 0.32156863808631897
0.49014776945114136 0.7789357304573059 0.2956521809101105 0.5176470875740051 0.5529412031173706 0.5490196347236633
0.35862070322036743 0.7893573641777039 0.2968379557132721 0.5254902243614197 0.5490196347236633 0.5411764979362488
0.4199507534503937 0.843518078327179 0.9901185631752014 0.3764705955982208 0.3764705955982208 0.33725491166114807
0.34261083602905273 0.7606189846992493 0.9905138611793518 0.3803921639919281 0.3843137323856354 0.364705890417099
0.48300492763519287 0.7200378775596619 0.2960474193096161 0.5411764979362488 0.5529412031173706 0.5803921818733215
0.27167487144470215 0.8242539167404175 0.9909090995788574 0.3529411852359772 0.3529411852359772 0.32156863808631897
0.2935960590839386 0.810832142829895 0.009486165829002857 0.5333333611488342 0.529411792755127 0.45098039507865906
0.32019704580307007 0.7424601316452026 0.007905138656497002 0.33725491166114807 0.3450980484485626 0.26274511218070984
0.40714284777641296 0.7527238130569458 0.2964426875114441 0.6078431606292725 0.6313725709915161 0.6235294342041016
0.32266008853912354 0.8627822399139404 0.9905138611793518 0.364705890417099 0.3607843220233917 0.34117648005485535
0.460098534822464 0.8354650139808655 0.9901185631752014 0.3176470696926117 0.32156863808631897 0.29019609093666077
0.2628078758716583 0.7277751564979553 0.9944664239883423 0.9607843160629272 0.9764705896377563 0.9882352948188782
0.49039408564567566 0.7789357304573059 0.17509882152080536 0.05098039284348488 0.05098039284348488 0.05098039284348488
0.4206896424293518 0.7309331893920898 0.9905138611793518 0.26274511218070984 0.2666666805744171 0.23529411852359772
0.33078816533088684 0.7801989316940308 0.2972331941127777 0.6666666865348816 0.686274528503418 0.7019608020782471
0.31182265281677246 0.7307752966880798 0.007905138656497002 0.5176470875740051 0.5137255191802979 0.40392157435417175
0.43793103098869324 0.8586767911911011 0.9897233247756958 0.4000000059604645 0.4000000059604645 0.3686274588108063
0.43472906947135925 0.7923575043678284 0.2960474193096161 0.5254902243614197 0.5647059082984924 0.5607843399047852
0.2573891580104828 0.7794094681739807 0.9932806491851807 0.9490196108818054 0.9529411792755127 0.9686274528503418
0.2647783160209656 0.8455708026885986 0.008695651777088642 0.6431372761726379 0.6470588445663452 0.5843137502670288
0.46995073556900024 0.810832142829895 0.27865612506866455 0.13725490868091583 0.13725490868091583 0.12941177189350128
0.3931034505367279 0.83783358335495 0.007905138656497002 0.6039215922355652 0.6000000238418579 0.529411792755127
0.282019704580307 0.713248074054718 0.9944664239883423 0.9764705896377563 0.9921568632125854 1.0
0.253201961517334 0.745934009552002 0.9940711259841919 0.9686274528503418 0.9725490212440491 0.9882352948188782
0.39901477098464966 0.8226748704910278 0.0071146246045827866 0.3176470696926117 0.30588236451148987 0.23137255012989044
0.39852216839790344 0.7366177439689636 0.2968379557132721 0.5764706134796143 0.6078431606292725 0.6196078658103943
0.432758629322052 0.8008842468261719 0.9901185631752014 0.34117648005485535 0.33725491166114807 0.3294117748737335
0.31576353311538696 0.8092530965805054 0.009881422854959965 0.4431372582912445 0.4313725531101227 0.35686275362968445
0.4091132879257202 0.8332543969154358 0.9905138611793518 0.3764705955982208 0.3843137323856354 0.34117648005485535
0.4096059203147888 0.793936550617218 0.007905138656497002 0.27843138575553894 0.27843138575553894 0.24705882370471954
0.28374382853507996 0.7838307023048401 0.00909090880304575 0.5568627715110779 0.5490196347236633 0.4588235318660736
0.28325122594833374 0.8446233868598938 0.008695651777088642 0.572549045085907 0.5764706134796143 0.5137255191802979
0.3253694474697113 0.860255777835846 0.00909090880304575 0.6039215922355652 0.5960784554481506 0.5490196347236633
0.45763546228408813 0.7282488346099854 0.0023715414572507143 0.2862745225429535 0.27843138575553894 0.22745098173618317
0.4805418848991394 0.8514132499694824 0.9897233247756958 0.3450980484485626 0.3490196168422699 0.3176470696926117
0.4219211935997009 0.8059371709823608 0.9901185631752014 0.3529411852359772 0.3529411852359772 0.32156863808631897
0.29975369572639465 0.8558345437049866 0.008695651777088642 0.4588235318660736 0.4470588266849518 0.38823530077934265
0.475862056016922 0.7650402784347534 0.003952569328248501 0.3803921639919281 0.3843137323856354 0.3529411852359772
0.4674876928329468 0.8100426197052002 0.16996046900749207 0.15294118225574493 0.15294118225574493 0.14509804546833038
0.40221676230430603 0.7670930027961731 0.2964426875114441 0.5490196347236633 0.5803921818733215 0.5882353186607361
0.3773398995399475 0.7198799848556519 0.9909090995788574 0.30980393290519714 0.3137255012989044 0.2823529541492462
0.4362069070339203 0.7590399384498596 0.2964426875114441 0.6274510025978088 0.6431372761726379 0.6392157077789307
0.30788177251815796 0.7991473078727722 0.991304337978363 0.49803921580314636 0.4941176474094391 0.5137255191802979
0.48669952154159546 0.8515711426734924 0.9897233247756958 0.35686275362968445 0.3607843220233917 0.3294117748737335
0.3652709424495697 0.7977262139320374 0.9905138611793518 0.3490196168422699 0.3450980484485626 0.3294117748737335
0.46157634258270264 0.7729353904724121 0.005533596966415644 0.239215686917305 0.23137255012989044 0.18431372940540314
0.3854679763317108 0.7764092683792114 0.9901185631752014 0.3490196168422699 0.3450980484485626 0.33725491166114807
0.47463053464889526 0.7861992716789246 0.007905138656497002 0.34117648005485535 0.32156863808631897 0.24705882370471954
0.4177339971065521 0.8023054003715515 0.2296442687511444 0.13725490868091583 0.1411764770746231 0.12156862765550613
0.2857142984867096 0.7306174039840698 0.29525691270828247 0.16470588743686676 0.1725490242242813 0.15294118225574493
0.4243842363357544 0.7588820457458496 0.005138339940458536 0.1411764770746231 0.1411764770746231 0.10980392247438431
0.4800492525100708 0.8065687417984009 0.9901185631752014 0.29411765933036804 0.2980392277240753 0.27843138575553894
0.4248768389225006 0.7546186447143555 0.2964426875114441 0.6431372761726379 0.6666666865348816 0.658823549747467
0.2608374357223511 0.8512553572654724 0.008695651777088642 0.5333333611488342 0.5058823823928833 0.4431372582912445
0.26748767495155334 0.8545712828636169 0.9909090995788574 0.3607843220233917 0.364705890417099 0.30980393290519714
0.4169950783252716 0.7140375971794128 0.004347825888544321 0.05098039284348488 0.05882352963089943 0.03921568766236305
0.36305418610572815 0.7309331893920898 0.2968379557132721 0.5843137502670288 0.6196078658103943 0.6392157077789307
0.3211822807788849 0.8015158772468567 0.009881422854959965 0.41960784792900085 0.40784314274787903 0.34117648005485535
0.4206896424293518 0.7358282208442688 0.9905138611793518 0.32156863808631897 0.32549020648002625 0.29411765933036804
0.46600985527038574 0.7111953496932983 0.2960474193096161 0.5098039507865906 0.5137255191802979 0.529411792755127
0.47881773114204407 0.8138322830200195 0.30553358793258667 0.5411764979362488 0.6000000238418579 0.5882353186607361
0.35985222458839417 0.7282488346099854 0.2968379557132721 0.5647059082984924 0.6078431606292725 0.615686297416687
0.48620688915252686 0.8471498489379883 0.006719367578625679 0.5333333611488342 0.5372549295425415 0.4745098054409027
0.46674877405166626 0.7884098887443542 0.0071146246045827866 0.24705882370471954 0.250980406999588 0.21960784494876862
0.2571428716182709 0.7535133361816406 0.007905138656497002 0.5372549295425415 0.529411792755127 0.4470588266849518
0.4322659969329834 0.7342491745948792 0.0035573123022913933 0.250980406999588 0.23529411852359772 0.20000000298023224
0.4004926085472107 0.7884098887443542 0.00830039568245411 0.22745098173618317 0.21960784494876862 0.16862745583057404
0.35935959219932556 0.7950418591499329 0.009881422854959965 0.1921568661928177 0.1921568661928177 0.16078431904315948
0.4137931168079376 0.7222485542297363 0.9909090995788574 0.3137255012989044 0.3019607961177826 0.2666666805744171
0.2926108241081238 0.8277277946472168 0.00909090880304575 0.6705882549285889 0.6666666865348816 0.5843137502670288
0.34655171632766724 0.8364124298095703 0.007509881630539894 0.5254902243614197 0.5137255191802979 0.4470588266849518
0.3302955627441406 0.7614085078239441 0.9905138611793518 0.4156862795352936 0.4117647111415863 0.40392157435417175
0.32783252000808716 0.8244118094444275 0.991304337978363 0.3960784375667572 0.3921568691730499 0.37254902720451355
0.274137943983078 0.7277751564979553 0.9940711259841919 0.9607843160629272 0.9764705896377563 0.9882352948188782
0.3485221564769745 0.7167219519615173 0.9909090995788574 0.34117648005485535 0.3450980484485626 0.32549020648002625
0.2830049395561218 0.7560397982597351 0.9932806491851807 0.9607843160629272 0.9764705896377563 0.9803921580314636
0.43448275327682495 0.805621325969696 0.261264830827713 0.13333334028720856 0.13725490868091583 0.11764705926179886
0.49014776945114136 0.8177798986434937 0.005928853526711464 0.5058823823928833 0.501960813999176 0.42352941632270813
0.27586206793785095 0.8405179381370544 0.00909090880304575 0.49803921580314636 0.501960813999176 0.4313725531101227
0.45344826579093933 0.7495657801628113 0.2960474193096161 0.5490196347236633 0.5803921818733215 0.5921568870544434
0.4009852111339569 0.729669988155365 0.2964426875114441 0.5607843399047852 0.5921568870544434 0.6039215922355652
0.4238916337490082 0.8498342037200928 0.9901185631752014 0.3450980484485626 0.3450980484485626 0.30588236451148987
0.43472906947135925 0.7923575043678284 0.2960474193096161 0.5254902243614197 0.5647059082984924 0.5607843399047852
0.45763546228408813 0.8169903755187988 0.9901185631752014 0.3019607961177826 0.3019607961177826 0.2705882489681244
0.411822646856308 0.7148271203041077 0.005138339940458536 0.30588236451148987 0.3176470696926117 0.29019609093666077
0.47044333815574646 0.7770408987998962 0.2960474193096161 0.48627451062202454 0.5254902243614197 0.529411792755127
0.4763546884059906 0.7918837666511536 0.00830039568245411 0.3803921639919281 0.35686275362968445 0.2705882489681244
0.46625617146492004 0.8128848671913147 0.31383398175239563 0.04313725605607033 0.05882352963089943 0.054901961237192154
0.3699507415294647 0.7609347701072693 0.007509881630539894 0.24313725531101227 0.24705882370471954 0.1921568661928177
0.4605911374092102 0.805621325969696 0.23320157825946808 0.1725490242242813 0.1764705926179886 0.15294118225574493
0.4721674919128418 0.7634612321853638 0.0035573123022913933 0.3490196168422699 0.33725491166114807 0.3019607961177826
0.33448275923728943 0.7749881744384766 0.9909090995788574 0.4000000059604645 0.4000000059604645 0.4000000059604645
0.32758620381355286 0.8018316626548767 0.009881422854959965 0.3450980484485626 0.3333333432674408 0.2666666805744171
0.45073890686035156 0.7385125756263733 0.2960474193096161 0.5529412031173706 0.5843137502670288 0.5960784554481506
0.41921183466911316 0.7666193246841431 0.0063241105526685715 0.06666667014360428 0.06666667014360428 0.027450980618596077
0.3532019555568695 0.7591978311538696 0.2972331941127777 0.6470588445663452 0.6823529601097107 0.6784313917160034
0.49064040184020996 0.7850939631462097 0.00830039568245411 0.4313725531101227 0.4117647111415863 0.32549020648002625
0.43054187297821045 0.7154586911201477 0.9909090995788574 0.32549020648002625 0.33725491166114807 0.29411765933036804
0.4399014711380005 0.7647244334220886 0.2960474193096161 0.6117647290229797 0.6313725709915161 0.6431372761726379
0.2849753797054291 0.718458890914917 0.9944664239883423 0.9647058844566345 0.9803921580314636 0.9921568632125854
0.38201969861984253 0.7732512354850769 0.007905138656497002 0.24705882370471954 0.24705882370471954 0.20000000298023224
0.3211822807788849 0.8004105687141418 0.991304337978363 0.4588235318660736 0.43529412150382996 0.43529412150382996
0.47512316703796387 0.8095689415931702 0.261264830827713 0.16470588743686676 0.16862745583057404 0.14901961386203766
0.26724138855934143 0.832938551902771 0.9909090995788574 0.3607843220233917 0.3490196168422699 0.3137255012989044
0.4684728980064392 0.8564661145210266 0.9897233247756958 0.3686274588108063 0.3764705955982208 0.32549020648002625
0.4403941035270691 0.7475130558013916 0.003952569328248501 0.21176470816135406 0.21176470816135406 0.1725490242242813
0.435960590839386 0.8081477880477905 0.18063241243362427 0.18039216101169586 0.1882352977991104 0.18431372940540314
0.29926109313964844 0.8132007122039795 0.009486165829002857 0.5568627715110779 0.5490196347236633 0.4588235318660736
0.43423646688461304 0.7566714286804199 0.9905138611793518 0.3137255012989044 0.3176470696926117 0.2862745225429535
0.45344826579093933 0.7697773575782776 0.9901185631752014 0.32156863808631897 0.32156863808631897 0.3137255012989044
0.2827586233615875 0.8362545371055603 0.00909090880304575 0.5607843399047852 0.5647059082984924 0.4941176474094391
0.31600984930992126 0.8417811393737793 0.007905138656497002 0.5098039507865906 0.5058823823928833 0.42352941632270813
0.39876848459243774 0.7637770175933838 0.2968379557132721 0.5607843399047852 0.5843137502670288 0.5843137502670288
0.3524630665779114 0.8561503291130066 0.008695651777088642 0.5607843399047852 0.5568627715110779 0.4745098054409027
0.2694581151008606 0.7258803248405457 0.9944664239883423 0.9843137264251709 1.0 1.0
0.36256158351898193 0.8484130501747131 0.9905138611793518 0.34117648005485535 0.3450980484485626 0.32156863808631897
0.3817734122276306 0.8079898953437805 0.008695651777088642 0.4117647111415863 0.4000000059604645 0.3333333432674408
0.2889162600040436 0.8648349642753601 0.00909090880304575 0.6235294342041016 0.615686297416687 0.5647059082984924
0.4325123131275177 0.7448287010192871 0.9905138611793518 0.3176470696926117 0.32156863808631897 0.3019607961177826
0.37955665588378906 0.7279330492019653 0.2968379557132721 0.5568627715110779 0.5921568870544434 0.6117647290229797
0.4640394151210785 0.8062529563903809 0.30909091234207153 0.5137255191802979 0.5529412031173706 0.5490196347236633
0.2889162600040436 0.7896731495857239 0.291304349899292 0.4274509847164154 0.4431372582912445 0.45490196347236633
0.35492610931396484 0.8462024331092834 0.008695651777088642 0.47843137383461 0.48235294222831726 0.4117647111415863
0.2859605848789215 0.7306174039840698 0.29525691270828247 0.14509804546833038 0.16470588743686676 0.1411764770746231
0.3642857074737549 0.8479393720626831 0.9905138611793518 0.364705890417099 0.3686274588108063 0.3450980484485626
0.2830049395561218 0.7849360704421997 0.9924901127815247 0.9450980424880981 0.9607843160629272 0.9647058844566345
0.4672413766384125 0.7445128560066223 0.9905138611793518 0.30980393290519714 0.30980393290519714 0.27843138575553894
0.31108373403549194 0.7168798446655273 0.00830039568245411 0.5843137502670288 0.6078431606292725 0.49803921580314636
0.4362069070339203 0.7231959700584412 0.002766798483207822 0.3803921639919281 0.3843137323856354 0.3294117748737335
0.4012315273284912 0.7261961102485657 0.005533596966415644 0.3176470696926117 0.32549020648002625 0.2823529541492462
0.42266011238098145 0.8229906558990479 0.0063241105526685715 0.3803921639919281 0.3803921639919281 0.34117648005485535
0.26403939723968506 0.7497236728668213 0.9936758875846863 0.9607843160629272 0.9764705896377563 0.9882352948188782
0.3256157636642456 0.8360966444015503 0.9909090995788574 0.3490196168422699 0.3450980484485626 0.32549020648002625
0.492118239402771 0.8102005124092102 0.27984189987182617 0.13725490868091583 0.13725490868091583 0.12941177189350128
0.27512314915657043 0.7612506151199341 0.007905138656497002 0.6117647290229797 0.6000000238418579 0.5254902243614197
0.32315272092819214 0.8127269744873047 0.991304337978363 0.3921568691730499 0.38823530077934265 0.37254902720451355
0.4556650221347809 0.810358464717865 0.1671936810016632 0.14901961386203766 0.14901961386203766 0.1411764770746231
0.42266011238098145 0.7693036198616028 0.1711462438106537 0.05098039284348488 0.05098039284348488 0.05098039284348488
0.36773398518562317 0.7961471676826477 0.009881422854959965 0.21568627655506134 0.20392157137393951 0.16862745583057404
0.43078818917274475 0.7787778377532959 0.2960474193096161 0.5607843399047852 0.6000000238418579 0.5960784554481506
0.39556649327278137 0.729354202747345 0.0063241105526685715 0.23137255012989044 0.239215686917305 0.19607843458652496
0.3889162540435791 0.7719879746437073 0.007905138656497002 0.3019607961177826 0.29019609093666077 0.2549019753932953
0.2970443367958069 0.8594663143157959 0.008695651777088642 0.5882353186607361 0.5921568870544434 0.5372549295425415
0.2931034564971924 0.7609347701072693 0.2972331941127777 0.8352941274642944 0.8549019694328308 0.8705882430076599
0.44581282138824463 0.810358464717865 0.30355730652809143 0.6509804129600525 0.6941176652908325 0.6784313917160034
0.31527093052864075 0.8016737699508667 0.009881422854959965 0.45098039507865906 0.43921568989753723 0.364705890417099
0.4455665051937103 0.8089373111724854 0.1770751029253006 0.16470588743686676 0.1725490242242813 0.16862745583057404
0.38645321130752563 0.7363018989562988 0.2968379557132721 0.5647059082984924 0.5921568870544434 0.6235294342041016
0.2815271019935608 0.8600978851318359 0.008695651777088642 0.6274510025978088 0.6313725709915161 0.5686274766921997
0.4635468125343323 0.7771987915039062 0.9901185631752014 0.3176470696926117 0.3137255012989044 0.2980392277240753
0.27192118763923645 0.8672035336494446 0.00909090880304575 0.6980392336845398 0.7058823704719543 0.6235294342041016
0.36330050230026245 0.7268277406692505 0.2968379557132721 0.5607843399047852 0.6039215922355652 0.6117647290229797
0.26453202962875366 0.8563082218170166 0.9909090995788574 0.3921568691730499 0.3843137323856354 0.3333333432674408
0.445320188999176 0.8057792782783508 0.20000000298023224 0.08235294371843338 0.08627451211214066 0.06666667014360428
0.37512314319610596 0.729669988155365 0.2968379557132721 0.5607843399047852 0.6039215922355652 0.6117647290229797
0.4209359586238861 0.7868309020996094 0.9901185631752014 0.3333333432674408 0.3294117748737335 0.30980393290519714
0.29556649923324585 0.7659876942634583 0.9928853511810303 0.9647058844566345 0.9686274528503418 0.9764705896377563
0.2980295419692993 0.7798831462860107 0.2976284623146057 0.772549033164978 0.800000011920929 0.8235294222831726
0.40197044610977173 0.8359387516975403 0.9905138611793518 0.3686274588108063 0.3686274588108063 0.32156863808631897
0.24704433977603912 0.7800410389900208 0.00830039568245411 0.4901960790157318 0.48627451062202454 0.40784314274787903
0.2844827473163605 0.7533554434776306 0.007905138656497002 0.5411764979362488 0.5372549295425415 0.45490196347236633
0.3926108479499817 0.8372019529342651 0.9905138611793518 0.37254902720451355 0.37254902720451355 0.32549020648002625
0.472660094499588 0.713721752166748 0.2960474193096161 0.5372549295425415 0.5411764979362488 0.5568627715110779
0.35147783160209656 0.8612031936645508 0.008695651777088642 0.5568627715110779 0.5529412031173706 0.48235294222831726
0.4051724076271057 0.7167219519615173 0.2964426875114441 0.545098066329956 0.5803921818733215 0.5764706134796143
0.3027093708515167 0.7470393180847168 0.007905138656497002 0.4470588266849518 0.4588235318660736 0.33725491166114807
0.4214285612106323 0.83830726146698 0.007905138656497002 0.0784313753247261 0.09019608050584793 0.062745101749897
0.3342364430427551 0.7497236728668213 0.00830039568245411 0.2666666805744171 0.239215686917305 0.20000000298023224
0.42733991146087646 0.8094110488891602 0.1715414971113205 0.16862745583057404 0.1764705926179886 0.1725490242242813
0.32733988761901855 0.7557240128517151 0.9905138611793518 0.3764705955982208 0.3843137323856354 0.364705890417099
0.42290639877319336 0.7871466875076294 0.9901185631752014 0.2823529541492462 0.27843138575553894 0.25882354378700256
0.31600984930992126 0.7290383577346802 0.2964426875114441 0.6470588445663452 0.6941176652908325 0.6784313917160034
0.3406403958797455 0.7754618525505066 0.9905138611793518 0.3960784375667572 0.3960784375667572 0.38823530077934265
0.39556649327278137 0.7792515158653259 0.9901185631752014 0.34117648005485535 0.3450980484485626 0.32549020648002625
0.25295567512512207 0.8035686016082764 0.9924901127815247 0.9098039269447327 0.9137254953384399 0.929411768913269
0.3167487680912018 0.7604610919952393 0.9909090995788574 0.45098039507865906 0.45490196347236633 0.47058823704719543
0.2857142984867096 0.7858834862709045 0.00909090880304575 0.5490196347236633 0.5411764979362488 0.45098039507865906
0.4847290515899658 0.8402020931243896 0.9897233247756958 0.3333333432674408 0.3333333432674408 0.29411765933036804
0.4849753677845001 0.788883626461029 0.2956521809101105 0.501960813999176 0.545098066329956 0.529411792755127
0.2859605848789215 0.7560397982597351 0.2968379557132721 0.16470588743686676 0.16862745583057404 0.1764705926179886
0.3817734122276306 0.7636191248893738 0.9905138611793518 0.3529411852359772 0.35686275362968445 0.33725491166114807
0.29187193512916565 0.7498815655708313 0.2968379557132721 0.8078431487083435 0.8392156958580017 0.8509804010391235
0.37832513451576233 0.723985493183136 0.00830039568245411 0.2666666805744171 0.25882354378700256 0.2078431397676468
0.4514778256416321 0.7434075474739075 0.9905138611793518 0.3176470696926117 0.3294117748737335 0.29411765933036804
0.45443350076675415 0.849044680595398 0.9897233247756958 0.3450980484485626 0.3529411852359772 0.30980393290519714
0.28842365741729736 0.7287225723266602 0.29525691270828247 0.6392157077789307 0.6745098233222961 0.6705882549285889
0.4206896424293518 0.8024632930755615 0.1932806372642517 0.16862745583057404 0.16862745583057404 0.13725490868091583
0.42980295419692993 0.7621980309486389 0.9905138611793518 0.30980393290519714 0.3137255012989044 0.2823529541492462
0.32290640473365784 0.7258803248405457 0.2964426875114441 0.6078431606292725 0.6627451181411743 0.6627451181411743
0.46256157755851746 0.8392546772956848 0.9897233247756958 0.3529411852359772 0.33725491166114807 0.32549020648002625
0.27684730291366577 0.7784620523452759 0.008695651777088642 0.5333333611488342 0.5254902243614197 0.4431372582912445
0.24679802358150482 0.8277277946472168 0.008695651777088642 0.5490196347236633 0.5333333611488342 0.48627451062202454
0.33152708411216736 0.7544607520103455 0.9905138611793518 0.3921568691730499 0.3960784375667572 0.37254902720451355
0.2972906529903412 0.7195641994476318 0.29525691270828247 0.5176470875740051 0.572549045085907 0.5764706134796143
0.39926108717918396 0.7749881744384766 0.2964426875114441 0.49803921580314636 0.5372549295425415 0.5411764979362488
0.3406403958797455 0.7168798446655273 0.009486165829002857 0.3764705955982208 0.37254902720451355 0.3019607961177826
0.35566502809524536 0.7961471676826477 0.29407113790512085 0.5176470875740051 0.5411764979362488 0.5411764979362488
0.32044336199760437 0.83846515417099 0.9909090995788574 0.37254902720451355 0.3686274588108063 0.3490196168422699
0.35492610931396484 0.8255171179771423 0.9909090995788574 0.32156863808631897 0.32549020648002625 0.3019607961177826
0.47364532947540283 0.83799147605896 0.9897233247756958 0.34117648005485535 0.3490196168422699 0.30588236451148987
0.304679811000824 0.7314069271087646 0.2960474193096161 0.6666666865348816 0.7176470756530762 0.6901960968971252
0.45394089818000793 0.8319911360740662 0.9901185631752014 0.34117648005485535 0.34117648005485535 0.3019607961177826
0.3738916218280792 0.7730933427810669 0.9905138611793518 0.3450980484485626 0.34117648005485535 0.32549020648002625
0.43768471479415894 0.7541449666023254 0.2964426875114441 0.6235294342041016 0.6470588445663452 0.6392157077789307
0.40320196747779846 0.7735670208930969 0.2964426875114441 0.5098039507865906 0.5490196347236633 0.5568627715110779
0.41034483909606934 0.7427759170532227 0.9905138611793518 0.3333333432674408 0.3333333432674408 0.3019607961177826
0.25566503405570984 0.7822517156600952 0.00830039568245411 0.6117647290229797 0.6117647290229797 0.5176470875740051
0.4849753677845001 0.7937785983085632 0.9901185631752014 0.32156863808631897 0.32156863808631897 0.3137255012989044
0.4246305525302887 0.7557240128517151 0.005138339940458536 0.21960784494876862 0.2235294133424759 0.20000000298023224
0.2830049395561218 0.7588820457458496 0.9932806491851807 0.9647058844566345 0.9686274528503418 0.9764705896377563
0.27266010642051697 0.740723192691803 0.007905138656497002 0.5921568870544434 0.5921568870544434 0.48235294222831726
0.3997536897659302 0.7669351100921631 0.0071146246045827866 0.23137255012989044 0.2235294133424759 0.1764705926179886
0.4396551847457886 0.7740407586097717 0.9901185631752014 0.30588236451148987 0.3019607961177826 0.2862745225429535
0.45935961604118347 0.7178272604942322 0.2960474193096161 0.5333333611488342 0.545098066329956 0.5647059082984924
0.47906404733657837 0.7167219519615173 0.2960474193096161 0.5529412031173706 0.5529412031173706 0.5843137502670288
0.30049261450767517 0.8360966444015503 0.00909090880304575 0.5411764979362488 0.5490196347236633 0.46666666865348816
0.47758620977401733 0.7642507553100586 0.003952569328248501 0.2823529541492462 0.2823529541492462 0.24313725531101227
0.26724138855934143 0.8045160174369812 0.00909090880304575 0.6313725709915161 0.6235294342041016 0.5411764979362488
0.443842351436615 0.7907784581184387 0.9901185631752014 0.33725491166114807 0.3333333432674408 0.3176470696926117
0.42660099267959595 0.7817779779434204 0.2964426875114441 0.545098066329956 0.5843137502670288 0.5921568870544434
0.47512316703796387 0.8095689415931702 0.261264830827713 0.16470588743686676 0.16862745583057404 0.14901961386203766
0.2729063928127289 0.7901468276977539 0.00909090880304575 0.5764706134796143 0.572549045085907 0.4941176474094391
0.40221676230430603 0.7912521958351135 0.2964426875114441 0.4901960790157318 0.529411792755127 0.5333333611488342
0.4004926085472107 0.8449392318725586 0.008695651777088642 0.4941176474094391 0.4941176474094391 0.4000000059604645
0.35123151540756226 0.7266698479652405 0.012648221105337143 0.24313725531101227 0.24705882370471954 0.2235294133424759
0.4083743989467621 0.7933049201965332 0.2964426875114441 0.48627451062202454 0.5254902243614197 0.5215686559677124
0.34729063510894775 0.8659403324127197 0.008695651777088642 0.545098066329956 0.5490196347236633 0.47843137383461
0.4445812702178955 0.7445128560066223 0.9905138611793518 0.3137255012989044 0.3176470696926117 0.2862745225429535
0.4598522186279297 0.7145112752914429 0.0019762846641242504 0.30980393290519714 0.3294117748737335 0.250980406999588
0.3448275923728943 0.8619927167892456 0.9905138611793518 0.35686275362968445 0.3607843220233917 0.33725491166114807
0.3647783398628235 0.8252013325691223 0.9909090995788574 0.32549020648002625 0.3294117748737335 0.30588236451148987
0.46970441937446594 0.7953576445579529 0.2956521809101105 0.4941176474094391 0.529411792755127 0.5098039507865906
0.4918719232082367 0.7778304219245911 0.007509881630539894 0.48235294222831726 0.4627451002597809 0.38823530077934265
0.34261083602905273 0.7558819055557251 0.9905138611793518 0.3686274588108063 0.37254902720451355 0.3529411852359772
0.4334975481033325 0.7304595112800598 0.9905138611793518 0.30980393290519714 0.30980393290519714 0.27843138575553894
0.4157635569572449 0.7288804650306702 0.0035573123022913933 0.3137255012989044 0.3137255012989044 0.2666666805744171
0.2509852349758148 0.8045160174369812 0.008695651777088642 0.7098039388656616 0.7019608020782471 0.6039215922355652
0.4566502571105957 0.8143060207366943 0.9901185631752014 0.29411765933036804 0.2980392277240753 0.27843138575553894
0.45098522305488586 0.8117795586585999 0.28300395607948303 0.125490203499794 0.125490203499794 0.11764705926179886
0.3886699378490448 0.7194063067436218 0.2964426875114441 0.5215686559677124 0.5647059082984924 0.572549045085907
0.4396551847457886 0.7168798446655273 0.0023715414572507143 0.09803921729326248 0.10980392247438431 0.08235294371843338
0.48965516686439514 0.810516357421875 0.2806324064731598 0.13725490868091583 0.13725490868091583 0.12941177189350128
0.2972906529903412 0.7765671610832214 0.2976284623146057 0.7843137383460999 0.8117647171020508 0.843137264251709
0.47487685084342957 0.7934628129005432 0.007905138656497002 0.0941176488995552 0.0784313753247261 0.0313725508749485
0.47413793206214905 0.8125690817832947 0.3237154185771942 0.5215686559677124 0.5568627715110779 0.545098066329956
0.27610838413238525 0.7805147767066956 0.9928853511810303 0.9372549057006836 0.9529411792755127 0.9647058844566345
0.47068965435028076 0.8122532963752747 0.2873517870903015 0.125490203499794 0.125490203499794 0.11764705926179886
0.34285715222358704 0.729827880859375 0.2968379557132721 0.615686297416687 0.6549019813537598 0.6509804129600525
0.41551724076271057 0.7831991314888 0.007905138656497002 0.2078431397676468 0.21176470816135406 0.1921568661928177
0.2844827473163605 0.7651981711387634 0.00830039568245411 0.42352941632270813 0.41960784792900085 0.33725491166114807
0.40320196747779846 0.8067266941070557 0.007509881630539894 0.2549019753932953 0.25882354378700256 0.20392157137393951
0.46650245785713196 0.8087794184684753 0.9901185631752014 0.32549020648002625 0.32549020648002625 0.29411765933036804
0.28768473863601685 0.8589925765991211 0.9905138611793518 0.37254902720451355 0.3803921639919281 0.3294117748737335
0.39162561297416687 0.7181430459022522 0.007509881630539894 0.29019609093666077 0.2823529541492462 0.23529411852359772
0.4364531934261322 0.8057792782783508 0.22727273404598236 0.15294118225574493 0.1568627506494522 0.13725490868091583
0.35394087433815 0.8015158772468567 0.9909090995788574 0.3607843220233917 0.35686275362968445 0.34117648005485535
0.45467981696128845 0.7868309020996094 0.9901185631752014 0.3137255012989044 0.30980393290519714 0.29411765933036804
0.314039409160614 0.7400915622711182 0.007905138656497002 0.4588235318660736 0.46666666865348816 0.3803921639919281
0.3007389307022095 0.7760934829711914 0.992094874382019 0.9490196108818054 0.9725490212440491 0.9725490212440491
0.42635467648506165 0.7225643396377563 0.9909090995788574 0.29411765933036804 0.2980392277240753 0.27843138575553894
0.29236453771591187 0.7175114750862122 0.007905138656497002 0.47843137383461 0.4941176474094391 0.4274509847164154
0.4455665051937103 0.805621325969696 0.23596838116645813 0.1568627506494522 0.16078431904315948 0.13725490868091583
0.30763545632362366 0.8231486082077026 0.009486165829002857 0.658823549747467 0.6549019813537598 0.5843137502670288
0.29556649923324585 0.7437233328819275 0.2964426875114441 0.772549033164978 0.8117647171020508 0.8196078538894653
0.4519704580307007 0.7271435260772705 0.2964426875114441 0.5529412031173706 0.572549045085907 0.5960784554481506
0.42610836029052734 0.7778304219245911 0.9901185631752014 0.3333333432674408 0.3333333432674408 0.3019607961177826
0.37536945939064026 0.8016737699508667 0.28972330689430237 0.09019608050584793 0.09019608050584793 0.08235294371843338
0.28793102502822876 0.7903047800064087 0.00909090880304575 0.529411792755127 0.5254902243614197 0.4431372582912445
0.3921182155609131 0.7318806052207947 0.0063241105526685715 0.05882352963089943 0.05882352963089943 0.019607843831181526
0.48990148305892944 0.7536712288856506 0.2960474193096161 0.501960813999176 0.5137255191802979 0.5333333611488342
0.27980294823646545 0.8403600454330444 0.9909090995788574 0.4117647111415863 0.40392157435417175 0.35686275362968445
0.4403941035270691 0.7475130558013916 0.003952569328248501 0.21176470816135406 0.21176470816135406 0.1725490242242813
0.3406403958797455 0.8444654941558838 0.007905138656497002 0.48627451062202454 0.46666666865348816 0.3921568691730499
0.39187192916870117 0.7326701283454895 0.9905138611793518 0.3333333432674408 0.32156863808631897 0.29411765933036804
0.4844827651977539 0.7209852933883667 0.2960474193096161 0.5411764979362488 0.5529412031173706 0.5803921818733215
0.41403940320014954 0.7381967306137085 0.004743082914501429 0.0784313753247261 0.08235294371843338 0.05098039284348488
0.4194581210613251 0.7340912818908691 0.9905138611793518 0.3137255012989044 0.3176470696926117 0.2862745225429535
0.34729063510894775 0.7214590311050415 0.9909090995788574 0.32549020648002625 0.3294117748737335 0.30980393290519714
0.40295565128326416 0.8013579845428467 0.9905138611793518 0.33725491166114807 0.3333333432674408 0.3176470696926117
0.4216748774051666 0.8599399924278259 0.9901185631752014 0.3529411852359772 0.35686275362968445 0.32549020648002625
0.3128078877925873 0.746249794960022 0.007905138656497002 0.40784314274787903 0.3843137323856354 0.33725491166114807
0.37857142090797424 0.740407407283783 0.9905138611793518 0.3333333432674408 0.3294117748737335 0.3137255012989044
0.37068966031074524 0.729827880859375 0.2968379557132721 0.572549045085907 0.6078431606292725 0.6274510025978088
0.4197044372558594 0.7473551034927368 0.004743082914501429 0.03529411926865578 0.03921568766236305 0.05882352963089943
0.40591132640838623 0.7261961102485657 0.005138339940458536 0.34117648005485535 0.34117648005485535 0.3019607961177826
0.4721674919128418 0.8037264943122864 0.30039525032043457 0.5490196347236633 0.5843137502670288 0.5647059082984924
0.3302955627441406 0.75714510679245 0.2972331941127777 0.7411764860153198 0.772549033164978 0.7843137383460999
0.4610837399959564 0.7947260141372681 0.005928853526711464 0.12941177189350128 0.11764705926179886 0.08235294371843338
0.4677339792251587 0.8057792782783508 0.21264822781085968 0.1882352977991104 0.1921568661928177 0.1725490242242813
0.3169950842857361 0.7808305621147156 0.9909090995788574 0.45490196347236633 0.4431372582912445 0.47058823704719543
0.3647783398628235 0.8506237268447876 0.9905138611793518 0.3529411852359772 0.35686275362968445 0.3333333432674408
0.41847291588783264 0.7108795046806335 0.9909090995788574 0.3294117748737335 0.32156863808631897 0.27450981736183167
0.3519704341888428 0.7986736297607422 0.010276679880917072 0.23529411852359772 0.23529411852359772 0.20392157137393951
0.4561576247215271 0.7151429057121277 0.2960474193096161 0.5607843399047852 0.5803921818733215 0.6039215922355652
0.39876848459243774 0.7833570241928101 0.9901185631752014 0.3294117748737335 0.3333333432674408 0.3137255012989044
0.289901465177536 0.7693036198616028 0.2976284623146057 0.8274509906768799 0.843137264251709 0.8784313797950745
0.49064040184020996 0.8236222863197327 0.005138339940458536 0.43529412150382996 0.42352941632270813 0.3019607961177826
0.3418719172477722 0.799778938293457 0.010276679880917072 0.3176470696926117 0.30980393290519714 0.26274511218070984
0.45443350076675415 0.8180956840515137 0.005138339940458536 0.3490196168422699 0.3450980484485626 0.23529411852359772
0.3485221564769745 0.7863571643829346 0.009881422854959965 0.07450980693101883 0.0784313753247261 0.054901961237192154
0.41083744168281555 0.8089373111724854 0.9905138611793518 0.33725491166114807 0.3333333432674408 0.3176470696926117
0.2931034564971924 0.7798831462860107 0.9924901127815247 0.9490196108818054 0.9647058844566345 0.9686274528503418
0.2940886616706848 0.735354483127594 0.2960474193096161 0.6980392336845398 0.7411764860153198 0.7176470756530762
0.4908866882324219 0.7145112752914429 0.0023715414572507143 0.32156863808631897 0.3294117748737335 0.27843138575553894
0.3133004903793335 0.860255777835846 0.00909090880304575 0.5686274766921997 0.5607843399047852 0.5137255191802979
0.435960590839386 0.718932569026947 0.9909090995788574 0.3176470696926117 0.3176470696926117 0.2862745225429535
0.2573891580104828 0.8477814793586731 0.008695651777088642 0.6274510025978088 0.6313725709915161 0.5607843399047852
0.25147783756256104 0.7718300819396973 0.9932806491851807 0.9647058844566345 0.9686274528503418 0.9843137264251709
0.26724138855934143 0.7175114750862122 0.007905138656497002 0.5803921818733215 0.5529412031173706 0.48235294222831726
0.4197044372558594 0.7228801250457764 0.0031620552763342857 0.2705882489681244 0.25882354378700256 0.2235294133424759
0.2940886616706848 0.7694615721702576 0.2976284623146057 0.8235294222831726 0.8392156958580017 0.8745098114013672
0.31945812702178955 0.7181430459022522 0.008695651777088642 0.5333333611488342 0.529411792755127 0.41960784792900085
0.2544334828853607 0.7929890751838684 0.9928853511810303 0.9176470637321472 0.9333333373069763 0.9450980424880981
0.35960590839385986 0.7238275408744812 0.9909090995788574 0.32156863808631897 0.3176470696926117 0.3019607961177826
0.44310346245765686 0.7966208457946777 0.2960474193096161 0.5333333611488342 0.5803921818733215 0.572549045085907
0.4689655303955078 0.7618821859359741 0.0035573123022913933 0.2235294133424759 0.21176470816135406 0.1764705926179886
0.4320197105407715 0.7959892749786377 0.9901185631752014 0.3529411852359772 0.35686275362968445 0.33725491166114807
0.46995073556900024 0.8124111890792847 0.3233201503753662 0.5137255191802979 0.5490196347236633 0.529411792755127
0.381280779838562 0.816200852394104 0.9909090995788574 0.27843138575553894 0.27450981736183167 0.25882354378700256
0.37142857909202576 0.7707247734069824 0.00830039568245411 0.26274511218070984 0.2549019753932953 0.2078431397676468
0.2463054209947586 0.8646770715713501 0.008695651777088642 0.6509804129600525 0.6627451181411743 0.5960784554481506
0.38620689511299133 0.7656718492507935 0.007509881630539894 0.27450981736183167 0.2666666805744171 0.21960784494876862
0.26773399114608765 0.8018316626548767 0.9924901127815247 0.8941176533699036 0.8980392217636108 0.9137254953384399
0.32684728503227234 0.768356204032898 0.008695651777088642 0.364705890417099 0.34117648005485535 0.27843138575553894
0.4596059024333954 0.7238275408744812 0.9905138611793518 0.29019609093666077 0.29411765933036804 0.26274511218070984
0.440640389919281 0.793936550617218 0.9901185631752014 0.32156863808631897 0.3176470696926117 0.30980393290519714
0.35985222458839417 0.7735670208930969 0.2972331941127777 0.5764706134796143 0.6039215922355652 0.6352941393852234
0.4288177192211151 0.723985493183136 0.2964426875114441 0.6274510025978088 0.6509804129600525 0.6509804129600525
0.3682265877723694 0.7441970705986023 0.9905138611793518 0.3333333432674408 0.33725491166114807 0.3176470696926117
0.2980295419692993 0.7844623327255249 0.00909090880304575 0.4941176474094391 0.47843137383461 0.37254902720451355
0.36231526732444763 0.8037264943122864 0.9909090995788574 0.32549020648002625 0.3294117748737335 0.30980393290519714
0.4926108419895172 0.7934628129005432 0.008695651777088642 0.3176470696926117 0.2980392277240753 0.2235294133424759
0.2825123071670532 0.7440391778945923 0.007905138656497002 0.5647059082984924 0.5647059082984924 0.47058823704719543
0.376600980758667 0.7116690278053284 0.2964426875114441 0.5058823823928833 0.5490196347236633 0.5647059082984924
0.3056650161743164 0.751618504524231 0.2972331941127777 0.800000011920929 0.8392156958580017 0.8470588326454163
0.3261083662509918 0.7672508955001831 0.2976284623146057 0.7647058963775635 0.7960784435272217 0.8078431487083435
0.3054187297821045 0.7538291215896606 0.2972331941127777 0.8117647171020508 0.843137264251709 0.8549019694328308
0.29950737953186035 0.713405966758728 0.9928853511810303 0.8549019694328308 0.8745098114013672 0.8980392217636108
0.3645320236682892 0.7386704683303833 0.00909090880304575 0.1882352977991104 0.1882352977991104 0.1568627506494522
0.33571428060531616 0.7536712288856506 0.9905138611793518 0.38823530077934265 0.3843137323856354 0.3686274588108063
0.45812806487083435 0.8236222863197327 0.9901185631752014 0.32156863808631897 0.32156863808631897 0.29019609093666077
0.3967980444431305 0.7167219519615173 0.0071146246045827866 0.3019607961177826 0.27843138575553894 0.23137255012989044
0.4238916337490082 0.7375651597976685 0.004347825888544321 0.20000000298023224 0.20000000298023224 0.16078431904315948
0.32684728503227234 0.768356204032898 0.008695651777088642 0.364705890417099 0.34117648005485535 0.27843138575553894
0.39162561297416687 0.7727774977684021 0.9905138611793518 0.34117648005485535 0.3450980484485626 0.32549020648002625
0.2502463161945343 0.8087794184684753 0.008695651777088642 0.7176470756530762 0.6980392336845398 0.6235294342041016
0.28004926443099976 0.7160903215408325 0.007905138656497002 0.5647059082984924 0.6078431606292725 0.545098066329956
0.26428571343421936 0.8345175981521606 0.008695651777088642 0.5176470875740051 0.5137255191802979 0.4431372582912445
0.2549261152744293 0.7966208457946777 0.008695651777088642 0.5803921818733215 0.572549045085907 0.4901960790157318
0.3374384343624115 0.7108795046806335 0.2960474193096161 0.46666666865348816 0.529411792755127 0.529411792755127
0.25 0.8621506690979004 0.9905138611793518 0.3921568691730499 0.3843137323856354 0.32549020648002625
0.4889162480831146 0.8004105687141418 0.9901185631752014 0.2666666805744171 0.2705882489681244 0.250980406999588
0.27266010642051697 0.8338859677314758 0.00909090880304575 0.6509804129600525 0.6470588445663452 0.5764706134796143
0.373399019241333 0.7708826661109924 0.9905138611793518 0.3607843220233917 0.35686275362968445 0.34117648005485535
0.41403940320014954 0.7268277406692505 0.0035573123022913933 0.2235294133424759 0.2235294133424759 0.1764705926179886
0.41477832198143005 0.7333017587661743 0.003952569328248501 0.250980406999588 0.25882354378700256 0.21568627655506134
0.3098522126674652 0.7784620523452759 0.2976284623146057 0.772549033164978 0.7921568751335144 0.8078431487083435
0.47512316703796387 0.8240960240364075 0.9897233247756958 0.32549020648002625 0.32549020648002625 0.29411765933036804
0.3376847207546234 0.8561503291130066 0.9909090995788574 0.35686275362968445 0.3607843220233917 0.3294117748737335
0.4366995096206665 0.8057792782783508 0.21501976251602173 0.07058823853731155 0.07450980693101883 0.054901961237192154
0.36724138259887695 0.7434075474739075 0.9905138611793518 0.34117648005485535 0.3450980484485626 0.32549020648002625
0.34384235739707947 0.7936207056045532 0.009881422854959965 0.4470588266849518 0.4470588266849518 0.4156862795352936
0.3645320236682892 0.7824096083641052 0.9905138611793518 0.3450980484485626 0.3490196168422699 0.3294117748737335
0.4009852111339569 0.8013579845428467 0.29525691270828247 0.4431372582912445 0.46666666865348816 0.46666666865348816
0.4807881712913513 0.7467235326766968 0.2960474193096161 0.501960813999176 0.5176470875740051 0.5137255191802979
0.3283251225948334 0.8537817597389221 0.9909090995788574 0.35686275362968445 0.3607843220233917 0.3294117748737335
0.309359610080719 0.7569872140884399 0.9909090995788574 0.4627451002597809 0.47843137383461 0.5215686559677124
0.475862056016922 0.8098847270011902 0.1715414971113205 0.14901961386203766 0.14901961386203766 0.1411764770746231
0.47413793206214905 0.805621325969696 0.2335968315601349 0.18431372940540314 0.1882352977991104 0.16470588743686676
0.4682266116142273 0.8600978851318359 0.9897233247756958 0.3294117748737335 0.33725491166114807 0.29411765933036804
0.3137930929660797 0.7612506151199341 0.9909090995788574 0.4588235318660736 0.47058823704719543 0.49803921580314636
0.274137943983078 0.730143666267395 0.007905138656497002 0.5882353186607361 0.6039215922355652 0.5137255191802979
0.472660094499588 0.7910942435264587 0.2956521809101105 0.49803921580314636 0.5333333611488342 0.529411792755127
0.3849753737449646 0.7333017587661743 0.9905138611793518 0.3490196168422699 0.3450980484485626 0.32549020648002625
