0.7862069010734558 0.5739775896072388 0.007905138656497002 0.5372549295425415 0.529411792755127 0.47058823704719543
0.8150246143341064 0.6027159094810486 0.0063241105526685715 0.5254902243614197 0.5333333611488342 0.4470588266849518
0.9820197224617004 0.5851886868476868 0.07944664359092712 0.658823549747467 0.6745098233222961 0.5764706134796143
0.9766010046005249 0.616295576095581 0.5671936869621277 0.6666666865348816 0.6705882549285889 0.6901960968971252
0.9704433679580688 0.49518394470214844 0.9893280863761902 0.3176470696926117 0.30588236451148987 0.24705882370471954
0.9701970219612122 0.4857097864151001 0.32015809416770935 0.43921568989753723 0.4431372582912445 0.37254902720451355
0.9243842363357544 0.5873993635177612 0.0063241105526685715 0.43921568989753723 0.4470588266849518 0.3607843220233917
0.8763546943664551 0.5641875863075256 0.9901185631752014 0.3843137323856354 0.37254902720451355 0.3450980484485626
0.9785714149475098 0.5439760088920593 0.7735177874565125 0.529411792755127 0.5411764979362488 0.49803921580314636
0.9054186940193176 0.6282961964607239 0.9901185631752014 0.40392157435417175 0.38823530077934265 0.34117648005485535
0.8391625881195068 0.5561345219612122 0.0063241105526685715 0.501960813999176 0.4941176474094391 0.4117647111415863
0.9847290515899658 0.5218695998191833 0.9387351870536804 0.43921568989753723 0.4117647111415863 0.33725491166114807
0.9746305346488953 0.627032995223999 0.313043475151062 0.5254902243614197 0.529411792755127 0.4588235318660736
0.8899014592170715 0.5779251456260681 0.005928853526711464 0.545098066329956 0.5529412031173706 0.47058823704719543
0.9677339792251587 0.5365545749664307 0.0063241105526685715 0.3529411852359772 0.3607843220233917 0.27843138575553894
0.9805418848991394 0.5588188767433167 0.3027667999267578 0.5568627715110779 0.5529412031173706 0.48235294222831726
0.9830049276351929 0.49044686555862427 0.8166007995605469 0.5686274766921997 0.5568627715110779 0.4274509847164154
0.9305418729782104 0.5308700203895569 0.0063241105526685715 0.3490196168422699 0.3333333432674408 0.22745098173618317
0.8517241477966309 0.5485551953315735 0.9897233247756958 0.2980392277240753 0.2862745225429535 0.25882354378700256
0.9763546586036682 0.5160271525382996 0.40830039978027344 0.6470588445663452 0.6705882549285889 0.6705882549285889
0.9751231670379639 0.5375019907951355 0.522529661655426 0.6470588445663452 0.6705882549285889 0.6705882549285889
0.8862069249153137 0.48065686225891113 0.0063241105526685715 0.5764706134796143 0.5882353186607361 0.4745098054409027
0.9839901328086853 0.5176061987876892 0.8699604868888855 0.5098039507865906 0.48627451062202454 0.3843137323856354
0.9770935773849487 0.49913153052330017 0.015810277312994003 0.29411765933036804 0.27450981736183167 0.20000000298023224
0.9834975600242615 0.494394451379776 0.8339921236038208 0.5372549295425415 0.5333333611488342 0.42352941632270813
0.9758620858192444 0.5272382497787476 0.45019763708114624 0.6431372761726379 0.6666666865348816 0.658823549747467
0.9751231670379639 0.5365545749664307 0.5221343636512756 0.6431372761726379 0.6666666865348816 0.6666666865348816
0.9768472909927368 0.610611081123352 0.42371541261672974 0.686274528503418 0.7058823704719543 0.7176470756530762
0.9812808036804199 0.5333964824676514 0.27312251925468445 0.6509804129600525 0.6627451181411743 0.5882353186607361
0.9458128213882446 0.5643454790115356 0.9901185631752014 0.3686274588108063 0.3529411852359772 0.30588236451148987
0.9770935773849487 0.49613136053085327 0.6818181872367859 0.5372549295425415 0.5607843399047852 0.5137255191802979
0.9206896424293518 0.5548713207244873 0.9901185631752014 0.3843137323856354 0.3686274588108063 0.32549020648002625
0.8817734122276306 0.47544607520103455 0.005928853526711464 0.5764706134796143 0.5686274766921997 0.47058823704719543
0.9694581031799316 0.5716090202331543 0.0063241105526685715 0.37254902720451355 0.3490196168422699 0.2862745225429535
0.9716748595237732 0.5179219841957092 0.0063241105526685715 0.5137255191802979 0.529411792755127 0.4313725531101227
0.9753694534301758 0.4917100965976715 0.5861660242080688 0.5803921818733215 0.6078431606292725 0.5803921818733215
0.9800492525100708 0.5319753885269165 0.037154149264097214 0.23529411852359772 0.2235294133424759 0.16470588743686676
0.9810344576835632 0.4849202632904053 0.11541502177715302 0.6784313917160034 0.6980392336845398 0.6196078658103943
0.8320196866989136 0.567977249622345 0.9897233247756958 0.35686275362968445 0.3450980484485626 0.3176470696926117
0.9770935773849487 0.6248223781585693 0.613043487071991 0.6470588445663452 0.6666666865348816 0.6784313917160034
0.802955687046051 0.4849202632904053 0.9897233247756958 0.21176470816135406 0.21176470816135406 0.18039216101169586
0.9849753975868225 0.6057161092758179 0.9162055253982544 0.48627451062202454 0.45490196347236633 0.37254902720451355
0.9807881712913513 0.48460444808006287 0.22213438153266907 0.686274528503418 0.7058823704719543 0.6196078658103943
0.9812808036804199 0.518237829208374 0.11541502177715302 0.6627451181411743 0.686274528503418 0.5764706134796143
0.9753694534301758 0.5147639513015747 0.48142293095588684 0.6196078658103943 0.6549019813537598 0.6509804129600525
0.9756157398223877 0.4738670587539673 0.45138341188430786 0.6235294342041016 0.658823549747467 0.6549019813537598
0.9852216839790344 0.6148744821548462 0.9189723134040833 0.48235294222831726 0.45098039507865906 0.3686274588108063
0.9687191843986511 0.6234012246131897 0.32055336236953735 0.4000000059604645 0.4117647111415863 0.3450980484485626
0.7923645377159119 0.48744669556617737 0.0071146246045827866 0.5215686559677124 0.5176470875740051 0.4000000059604645
0.9780788421630859 0.5447655320167542 0.7422924637794495 0.5490196347236633 0.5568627715110779 0.5058823823928833
0.984236478805542 0.5427127480506897 0.8909090757369995 0.4941176474094391 0.4745098054409027 0.3607843220233917
0.9812808036804199 0.5308700203895569 0.22569170594215393 0.6705882549285889 0.6823529601097107 0.6078431606292725
0.9758620858192444 0.5915048122406006 0.4837944805622101 0.6784313917160034 0.7019608020782471 0.7019608020782471
0.8418719172477722 0.5221853852272034 0.006719367578625679 0.6431372761726379 0.6666666865348816 0.5647059082984924
0.7475369572639465 0.5307121276855469 0.16482213139533997 0.14509804546833038 0.125490203499794 0.1411764770746231
0.9763546586036682 0.5851886868476868 0.4379446506500244 0.6823529601097107 0.6980392336845398 0.7019608020782471
0.8711822628974915 0.5273962020874023 0.9897233247756958 0.2823529541492462 0.2705882489681244 0.23529411852359772
0.7921182513237 0.5507658123970032 0.0063241105526685715 0.7098039388656616 0.7137255072593689 0.658823549747467
0.9768472909927368 0.48207801580429077 0.3501976430416107 0.7098039388656616 0.7333333492279053 0.7176470756530762
0.9758620858192444 0.6003473997116089 0.5280632376670837 0.6745098233222961 0.6901960968971252 0.6941176652908325
0.86231529712677 0.5480814576148987 0.9897233247756958 0.3333333432674408 0.32156863808631897 0.29411765933036804
0.9780788421630859 0.4992894232273102 0.747035562992096 0.545098066329956 0.5686274766921997 0.5137255191802979
0.9396551847457886 0.546344518661499 0.0063241105526685715 0.43529412150382996 0.4274509847164154 0.33725491166114807
0.8177340030670166 0.5692405104637146 0.006719367578625679 0.5921568870544434 0.5882353186607361 0.47058823704719543
0.9773399233818054 0.5965577363967896 0.3837944567203522 0.6901960968971252 0.7098039388656616 0.7215686440467834
0.743842363357544 0.48965734243392944 0.9897233247756958 0.3450980484485626 0.34117648005485535 0.3333333432674408
0.9773399233818054 0.573188066482544 0.020158102735877037 0.43921568989753723 0.4117647111415863 0.3490196168422699
0.8221675157546997 0.5780830383300781 0.006719367578625679 0.5490196347236633 0.5686274766921997 0.48235294222831726
0.9847290515899658 0.62134850025177 0.8782608509063721 0.529411792755127 0.5137255191802979 0.40784314274787903
0.929556667804718 0.5913469195365906 0.0063241105526685715 0.5176470875740051 0.5137255191802979 0.4313725531101227
0.8519704341888428 0.551713228225708 0.9897233247756958 0.3490196168422699 0.33725491166114807 0.3176470696926117
0.9810344576835632 0.47560396790504456 0.1146245077252388 0.6823529601097107 0.7019608020782471 0.6117647290229797
0.9773399233818054 0.5712932348251343 0.6600790619850159 0.6352941393852234 0.6392157077789307 0.6470588445663452
0.8041871786117554 0.6123480200767517 0.9897233247756958 0.40392157435417175 0.38823530077934265 0.3529411852359772
0.8647783398628235 0.6199273467063904 0.9901185631752014 0.45098039507865906 0.4431372582912445 0.3843137323856354
0.8036946058273315 0.4748144745826721 0.0071146246045827866 0.615686297416687 0.615686297416687 0.5215686559677124
0.9770935773849487 0.5760303139686584 0.3909091055393219 0.6901960968971252 0.7058823704719543 0.7019608020782471
0.9770935773849487 0.6170850992202759 0.4063241183757782 0.6901960968971252 0.7058823704719543 0.7176470756530762
0.9768472909927368 0.627032995223999 0.43399208784103394 0.6823529601097107 0.7019608020782471 0.7137255072593689
0.9822660088539124 0.5783988833427429 0.17509882152080536 0.6666666865348816 0.6823529601097107 0.5843137502670288
0.9748768210411072 0.5100268721580505 0.5268774628639221 0.6000000238418579 0.6352941393852234 0.6235294342041016
0.9756157398223877 0.4857097864151001 0.4529644250869751 0.6235294342041016 0.658823549747467 0.6549019813537598
0.8997536897659302 0.6186641454696655 0.005928853526711464 0.4274509847164154 0.4274509847164154 0.3333333432674408
0.9746305346488953 0.5153955221176147 0.007905138656497002 0.41960784792900085 0.40784314274787903 0.3333333432674408
0.9748768210411072 0.49613136053085327 0.5015810132026672 0.5921568870544434 0.6274510025978088 0.615686297416687
0.8692117929458618 0.5757145285606384 0.005928853526711464 0.5568627715110779 0.5529412031173706 0.43529412150382996
0.9790640473365784 0.5553449988365173 0.30395257472991943 0.5568627715110779 0.5529412031173706 0.48235294222831726
0.8972906470298767 0.6205589771270752 0.005928853526711464 0.40392157435417175 0.40392157435417175 0.30980393290519714
0.8167487978935242 0.5801358222961426 0.9897233247756958 0.34117648005485535 0.3294117748737335 0.30980393290519714
0.9756157398223877 0.627348780632019 0.008695651777088642 0.4274509847164154 0.40392157435417175 0.34117648005485535
0.9822660088539124 0.5856624245643616 0.11304347962141037 0.6352941393852234 0.658823549747467 0.5568627715110779
0.9770935773849487 0.5712932348251343 0.6454545259475708 0.6274510025978088 0.6431372761726379 0.6470588445663452
0.9746305346488953 0.4852360785007477 0.522529661655426 0.6078431606292725 0.6313725709915161 0.615686297416687
0.9817733764648438 0.5536080598831177 0.07391304522752762 0.7450980544090271 0.7686274647712708 0.658823549747467
0.9815270900726318 0.5123953819274902 0.07667984068393707 0.7019608020782471 0.7372549176216125 0.6235294342041016
0.9763546586036682 0.5052897334098816 0.6371541619300842 0.7411764860153198 0.7607843279838562 0.772549033164978
0.9822660088539124 0.5804516077041626 0.1826086938381195 0.658823549747467 0.6705882549285889 0.5882353186607361
0.9775862097740173 0.6202431917190552 0.3849802315235138 0.6941176652908325 0.7058823704719543 0.7254902124404907
0.9756157398223877 0.5742933750152588 0.5015810132026672 0.6705882549285889 0.7058823704719543 0.7019608020782471
0.9822660088539124 0.6000315546989441 0.12411066889762878 0.6470588445663452 0.6784313917160034 0.5843137502670288
0.9761083722114563 0.5029212236404419 0.425691694021225 0.6313725709915161 0.6666666865348816 0.6627451181411743
0.7600985169410706 0.5577135682106018 0.313043475151062 0.35686275362968445 0.364705890417099 0.3529411852359772
0.9270936250686646 0.5341860055923462 0.0063241105526685715 0.42352941632270813 0.42352941632270813 0.3137255012989044
0.9812808036804199 0.524238109588623 0.14268775284290314 0.6627451181411743 0.6784313917160034 0.5803921818733215
0.924876868724823 0.49849992990493774 0.9893280863761902 0.32549020648002625 0.3176470696926117 0.2705882489681244
0.7408866882324219 0.5583451986312866 0.2031620591878891 0.18039216101169586 0.1764705926179886 0.16078431904315948
0.9766010046005249 0.5428707003593445 0.6359683871269226 0.6039215922355652 0.6117647290229797 0.5921568870544434
0.8403940796852112 0.4863413870334625 0.9897233247756958 0.20000000298023224 0.1882352977991104 0.16078431904315948
0.9822660088539124 0.5862939953804016 0.10513833910226822 0.6470588445663452 0.6627451181411743 0.572549045085907
0.9751231670379639 0.5213958621025085 0.5415019989013672 0.6039215922355652 0.6470588445663452 0.6313725709915161
0.9748768210411072 0.49549975991249084 0.5375494360923767 0.5921568870544434 0.6274510025978088 0.615686297416687
0.9711822867393494 0.551081657409668 0.32648220658302307 0.45490196347236633 0.4627451002597809 0.4117647111415863
0.8485221862792969 0.6095057725906372 0.005928853526711464 0.5411764979362488 0.5411764979362488 0.4470588266849518
0.9810344576835632 0.5152376294136047 0.2185770720243454 0.6627451181411743 0.6823529601097107 0.5960784554481506
0.9768472909927368 0.507500410079956 0.365612655878067 0.6745098233222961 0.6980392336845398 0.6901960968971252
0.9041872024536133 0.5329228043556213 0.9897233247756958 0.3490196168422699 0.33725491166114807 0.3019607961177826
0.9665024876594543 0.5793462991714478 0.0063241105526685715 0.3764705955982208 0.3803921639919281 0.3176470696926117
0.8179802894592285 0.5161850452423096 0.0071146246045827866 0.6235294342041016 0.6117647290229797 0.4745098054409027
0.9142857193946838 0.6005052924156189 0.9901185631752014 0.41960784792900085 0.4117647111415863 0.3529411852359772
0.9766010046005249 0.49581557512283325 0.3750988245010376 0.658823549747467 0.6941176652908325 0.6901960968971252
0.9817733764648438 0.546028733253479 0.9379446506500244 0.4000000059604645 0.3764705955982208 0.32156863808631897
0.9756157398223877 0.5142902135848999 0.5794466137886047 0.5921568870544434 0.615686297416687 0.6000000238418579
0.8386699557304382 0.6178746223449707 0.005928853526711464 0.47843137383461 0.47843137383461 0.3764705955982208
0.9775862097740173 0.5892941951751709 0.6754940748214722 0.6431372761726379 0.658823549747467 0.6705882549285889
0.9113300442695618 0.6118742823600769 0.9901185631752014 0.43921568989753723 0.4313725531101227 0.3843137323856354
0.865517258644104 0.48365703225135803 0.005928853526711464 0.529411792755127 0.5529412031173706 0.4431372582912445
0.9766010046005249 0.4823938012123108 0.3837944567203522 0.6509804129600525 0.686274528503418 0.6666666865348816
0.9135468006134033 0.48713091015815735 0.0063241105526685715 0.572549045085907 0.5764706134796143 0.45098039507865906
0.7798029780387878 0.6077688336372375 0.007905138656497002 0.5647059082984924 0.5764706134796143 0.47058823704719543
0.9174876809120178 0.47497236728668213 0.0063241105526685715 0.4000000059604645 0.4117647111415863 0.30588236451148987
0.814039409160614 0.5384494066238403 0.0063241105526685715 0.615686297416687 0.6078431606292725 0.5098039507865906
0.9756157398223877 0.5210800766944885 0.5735177993774414 0.5921568870544434 0.6274510025978088 0.615686297416687
0.7911329865455627 0.4741828441619873 0.0071146246045827866 0.4941176474094391 0.48627451062202454 0.33725491166114807
0.984236478805542 0.47544607520103455 0.9201580882072449 0.4156862795352936 0.3921568691730499 0.3294117748737335
0.9815270900726318 0.5447655320167542 0.05415019765496254 0.7215686440467834 0.729411780834198 0.6352941393852234
0.75935959815979 0.5638718008995056 0.9893280863761902 0.32549020648002625 0.33725491166114807 0.3019607961177826
0.7780787944793701 0.5360808372497559 0.006719367578625679 0.48627451062202454 0.45490196347236633 0.37254902720451355
0.9763546586036682 0.551081657409668 0.6039525866508484 0.6117647290229797 0.6352941393852234 0.6274510025978088
0.7802955508232117 0.551397442817688 0.9897233247756958 0.33725491166114807 0.32549020648002625 0.30588236451148987
0.9768472909927368 0.4792357385158539 0.36205533146858215 0.6705882549285889 0.7058823704719543 0.6941176652908325
0.9662561416625977 0.4827096164226532 0.0063241105526685715 0.4470588266849518 0.4117647111415863 0.3450980484485626
0.9812808036804199 0.4792357385158539 0.041897233575582504 0.250980406999588 0.239215686917305 0.18039216101169586
0.9741379022598267 0.5867677330970764 0.33478260040283203 0.7137255072593689 0.7529411911964417 0.7568627595901489
0.8810344934463501 0.518237829208374 0.9897233247756958 0.20000000298023224 0.2078431397676468 0.1568627506494522
0.8546798229217529 0.5048160552978516 0.9897233247756958 0.23137255012989044 0.23137255012989044 0.1921568661928177
0.8411329984664917 0.5491868257522583 0.9897233247756958 0.32156863808631897 0.30980393290519714 0.2823529541492462
0.9743842482566833 0.4770251214504242 0.010276679880917072 0.45098039507865906 0.4313725531101227 0.3450980484485626
0.8073891401290894 0.6281383037567139 0.9897233247756958 0.43921568989753723 0.4313725531101227 0.3843137323856354
0.9815270900726318 0.5381335616111755 0.12766797840595245 0.6627451181411743 0.6823529601097107 0.5921568870544434
0.7522167563438416 0.5193431377410889 0.9897233247756958 0.32156863808631897 0.30980393290519714 0.29019609093666077
0.9044334888458252 0.6132954359054565 0.005928853526711464 0.40392157435417175 0.40392157435417175 0.30980393290519714
0.7408866882324219 0.4773409068584442 0.2557312250137329 0.2980392277240753 0.3019607961177826 0.2823529541492462
0.9768472909927368 0.5226590633392334 0.38695651292800903 0.6549019813537598 0.6784313917160034 0.6784313917160034
0.9820197224617004 0.5615032315254211 0.2454545497894287 0.658823549747467 0.6705882549285889 0.6039215922355652
0.9384236335754395 0.604926586151123 0.9905138611793518 0.4313725531101227 0.42352941632270813 0.3764705955982208
0.746798038482666 0.562450647354126 0.1762845814228058 0.14509804546833038 0.14509804546833038 0.13725490868091583
0.9766010046005249 0.5709774494171143 0.4166007936000824 0.6784313917160034 0.7019608020782471 0.7019608020782471
0.7960591316223145 0.6164534687995911 0.9897233247756958 0.37254902720451355 0.34117648005485535 0.3333333432674408
0.9812808036804199 0.535449206829071 0.23636363446712494 0.6627451181411743 0.6784313917160034 0.6117647290229797
0.9770935773849487 0.6041370630264282 0.626086950302124 0.6000000238418579 0.615686297416687 0.6196078658103943
0.7448275685310364 0.5221853852272034 0.29525691270828247 0.14901961386203766 0.1568627506494522 0.15294118225574493
0.7391625642776489 0.5177640914916992 0.17826086282730103 0.11764705926179886 0.13725490868091583 0.11372549086809158
0.7475369572639465 0.5278698801994324 0.30000001192092896 0.21568627655506134 0.21960784494876862 0.22745098173618317
0.982758641242981 0.5979788303375244 0.1924901157617569 0.6627451181411743 0.6823529601097107 0.6039215922355652
0.9778324961662292 0.5960839986801147 0.6936758756637573 0.6078431606292725 0.6117647290229797 0.6313725709915161
0.9751231670379639 0.524080216884613 0.5134387612342834 0.6313725709915161 0.6549019813537598 0.6549019813537598
0.943842351436615 0.5586609840393066 0.0063241105526685715 0.40392157435417175 0.4000000059604645 0.3176470696926117
0.982758641242981 0.5984525680541992 0.19881422817707062 0.6509804129600525 0.6784313917160034 0.6078431606292725
0.9637930989265442 0.6305068731307983 0.9905138611793518 0.3921568691730499 0.3764705955982208 0.3333333432674408
0.9761083722114563 0.5774514675140381 0.4584980309009552 0.686274528503418 0.7098039388656616 0.7098039388656616
0.7805418968200684 0.49234169721603394 0.007509881630539894 0.49803921580314636 0.48235294222831726 0.3843137323856354
0.8802955746650696 0.6200852394104004 0.005928853526711464 0.4588235318660736 0.4588235318660736 0.364705890417099
0.8113300204277039 0.4776567220687866 0.9897233247756958 0.20000000298023224 0.1882352977991104 0.16078431904315948
0.9756157398223877 0.4973945915699005 0.4628458619117737 0.6117647290229797 0.6549019813537598 0.6392157077789307
0.9847290515899658 0.5135006904602051 0.9462450742721558 0.42352941632270813 0.3960784375667572 0.32549020648002625
0.9034482836723328 0.6309805512428284 0.005928853526711464 0.5254902243614197 0.4941176474094391 0.40392157435417175
0.8194581270217896 0.5618190169334412 0.0071146246045827866 0.6470588445663452 0.6470588445663452 0.5372549295425415
0.9825122952461243 0.5160271525382996 0.9588932991027832 0.3843137323856354 0.364705890417099 0.29019609093666077
0.9815270900726318 0.6025580167770386 0.27826085686683655 0.6431372761726379 0.6509804129600525 0.5568627715110779
0.9753694534301758 0.5551871061325073 0.5252964496612549 0.6431372761726379 0.6666666865348816 0.6666666865348816
0.940640389919281 0.5716090202331543 0.9901185631752014 0.38823530077934265 0.3803921639919281 0.3294117748737335
0.9753694534301758 0.47813042998313904 0.45573121309280396 0.6196078658103943 0.6549019813537598 0.6509804129600525
0.8736453056335449 0.567661464214325 0.9901185631752014 0.3921568691730499 0.3803921639919281 0.3529411852359772
0.9763546586036682 0.6080846190452576 0.5660079121589661 0.6549019813537598 0.6705882549285889 0.6823529601097107
0.9549261331558228 0.6232433319091797 0.005928853526711464 0.3960784375667572 0.3843137323856354 0.32549020648002625
0.8285714387893677 0.5921364426612854 0.0063241105526685715 0.5882353186607361 0.5960784554481506 0.5137255191802979
0.7455664873123169 0.48160430788993835 0.14743083715438843 0.1411764770746231 0.13725490868091583 0.12941177189350128
0.9830049276351929 0.5318174362182617 0.8150197863578796 0.5490196347236633 0.545098066329956 0.42352941632270813
0.884482741355896 0.6085583567619324 0.9901185631752014 0.4313725531101227 0.4313725531101227 0.3843137323856354
0.9113300442695618 0.5573977828025818 0.0063241105526685715 0.4156862795352936 0.40784314274787903 0.3176470696926117
0.9788177609443665 0.616295576095581 0.7750988006591797 0.5411764979362488 0.5647059082984924 0.5568627715110779
0.8332512378692627 0.5796620845794678 0.9897233247756958 0.3529411852359772 0.34117648005485535 0.3137255012989044
0.9847290515899658 0.627190887928009 0.8778656125068665 0.5333333611488342 0.5176470875740051 0.4117647111415863
0.9756157398223877 0.6012948155403137 0.5003952383995056 0.6784313917160034 0.6980392336845398 0.6823529601097107
0.870197057723999 0.5313437581062317 0.0063241105526685715 0.48235294222831726 0.49803921580314636 0.40784314274787903
0.9763546586036682 0.5550292134284973 0.5960474014282227 0.6196078658103943 0.6392157077789307 0.6235294342041016
0.8118226528167725 0.4830254316329956 0.006719367578625679 0.5411764979362488 0.5490196347236633 0.45490196347236633
0.9768472909927368 0.5202905535697937 0.6660078763961792 0.7686274647712708 0.7882353067398071 0.772549033164978
0.8721674680709839 0.5796620845794678 0.005928853526711464 0.4745098054409027 0.48627451062202454 0.3803921639919281
0.9788177609443665 0.5220274925231934 0.021739130839705467 0.658823549747467 0.6392157077789307 0.5647059082984924
0.9775862097740173 0.49202588200569153 0.7138339877128601 0.5411764979362488 0.572549045085907 0.5137255191802979
0.9773399233818054 0.5648192167282104 0.6636363863945007 0.6235294342041016 0.6392157077789307 0.6352941393852234
0.7411330342292786 0.5343438982963562 0.25296443700790405 0.12156862765550613 0.12156862765550613 0.11372549086809158
0.9231526851654053 0.5262908339500427 0.0063241105526685715 0.49803921580314636 0.4941176474094391 0.4117647111415863
0.9241379499435425 0.5068687796592712 0.0063241105526685715 0.4627451002597809 0.47843137383461 0.37254902720451355
0.9805418848991394 0.5580293536186218 0.048221342265605927 0.25882354378700256 0.24705882370471954 0.1882352977991104
0.7394088506698608 0.4921838045120239 0.9897233247756958 0.3294117748737335 0.3137255012989044 0.30980393290519714
0.9773399233818054 0.5082899332046509 0.7043478488922119 0.5254902243614197 0.5490196347236633 0.4941176474094391
0.979556679725647 0.551081657409668 0.3027667999267578 0.545098066329956 0.5529412031173706 0.47058823704719543
0.751724123954773 0.5375019907951355 0.27826085686683655 0.12941177189350128 0.125490203499794 0.10980392247438431
0.9839901328086853 0.5689246654510498 0.8494071364402771 0.5215686559677124 0.5058823823928833 0.3921568691730499
0.7450739145278931 0.573188066482544 0.17075099050998688 0.16862745583057404 0.16862745583057404 0.16862745583057404
0.9802955389022827 0.5206063389778137 0.7932806611061096 0.529411792755127 0.5411764979362488 0.5058823823928833
0.9497537016868591 0.5555028915405273 0.9901185631752014 0.3803921639919281 0.35686275362968445 0.30980393290519714
0.9820197224617004 0.5698720812797546 0.239130437374115 0.6627451181411743 0.6784313917160034 0.6117647290229797
0.7911329865455627 0.5629243850708008 0.007509881630539894 0.529411792755127 0.5254902243614197 0.4470588266849518
0.9761083722114563 0.5580293536186218 0.5822134613990784 0.6392157077789307 0.658823549747467 0.6705882549285889
0.9810344576835632 0.4855518639087677 0.10830039530992508 0.6745098233222961 0.6941176652908325 0.6078431606292725
0.9780788421630859 0.551713228225708 0.7422924637794495 0.5490196347236633 0.5607843399047852 0.5176470875740051
0.9812808036804199 0.4797094464302063 0.0470355749130249 0.24313725531101227 0.23137255012989044 0.1568627506494522
0.7455664873123169 0.5804516077041626 0.29367589950561523 0.125490203499794 0.12941177189350128 0.10980392247438431
0.8133004903793335 0.48365703225135803 0.9897233247756958 0.18039216101169586 0.16862745583057404 0.1411764770746231
0.9825122952461243 0.5026053786277771 0.8118577003479004 0.5568627715110779 0.5529412031173706 0.43529412150382996
0.9810344576835632 0.4910784661769867 0.12371541559696198 0.6666666865348816 0.6980392336845398 0.6039215922355652
0.984236478805542 0.5885046720504761 0.8592885136604309 0.5333333611488342 0.5058823823928833 0.40392157435417175
0.9810344576835632 0.47576189041137695 0.0885375514626503 0.7098039388656616 0.7333333492279053 0.6235294342041016
0.9778324961662292 0.5190272927284241 0.7252964377403259 0.5333333611488342 0.5490196347236633 0.4941176474094391
0.9770935773849487 0.48065686225891113 0.6972332000732422 0.5490196347236633 0.5803921818733215 0.5372549295425415
0.9761083722114563 0.5714511275291443 0.5727272629737854 0.6392157077789307 0.658823549747467 0.6705882549285889
0.9778324961662292 0.5060792565345764 0.7280632257461548 0.545098066329956 0.5607843399047852 0.5058823823928833
0.9763546586036682 0.6090320348739624 0.31027668714523315 0.5333333611488342 0.545098066329956 0.4627451002597809
0.7931034564971924 0.6219801306724548 0.0071146246045827866 0.572549045085907 0.572549045085907 0.4627451002597809
0.8709359765052795 0.567661464214325 0.9897233247756958 0.3686274588108063 0.35686275362968445 0.3294117748737335
0.9012315273284912 0.49344703555107117 0.0063241105526685715 0.6000000238418579 0.6039215922355652 0.47843137383461
0.9758620858192444 0.627190887928009 0.49802371859550476 0.6941176652908325 0.6980392336845398 0.7176470756530762
0.7879310250282288 0.62119060754776 0.9897233247756958 0.37254902720451355 0.3686274588108063 0.3529411852359772
0.9785714149475098 0.6088741421699524 0.7454545497894287 0.5843137502670288 0.6078431606292725 0.6000000238418579
0.9756157398223877 0.5313437581062317 0.5632411241531372 0.615686297416687 0.6392157077789307 0.6313725709915161
0.9418719410896301 0.5657666325569153 0.9901185631752014 0.3764705955982208 0.3686274588108063 0.3176470696926117
0.9761083722114563 0.5305542349815369 0.9849802255630493 0.2980392277240753 0.2862745225429535 0.21960784494876862
0.9780788421630859 0.5783988833427429 0.7201581001281738 0.6117647290229797 0.6196078658103943 0.6078431606292725
0.8352216482162476 0.5717669129371643 0.9897233247756958 0.3529411852359772 0.34117648005485535 0.30588236451148987
0.9810344576835632 0.47560396790504456 0.1300395280122757 0.6941176652908325 0.7058823704719543 0.6235294342041016
0.8386699557304382 0.5067108869552612 0.9897233247756958 0.24705882370471954 0.24705882370471954 0.21568627655506134
0.7603448033332825 0.5476077795028687 0.0063241105526685715 0.3529411852359772 0.3450980484485626 0.2862745225429535
0.9369457960128784 0.5147639513015747 0.9897233247756958 0.3294117748737335 0.32156863808631897 0.2705882489681244
0.9766010046005249 0.5594505071640015 0.612252950668335 0.6196078658103943 0.6352941393852234 0.6392157077789307
0.9763546586036682 0.551081657409668 0.6039525866508484 0.6117647290229797 0.6352941393852234 0.6274510025978088
0.8495073914527893 0.4860255718231201 0.0063241105526685715 0.5960784554481506 0.5882353186607361 0.4901960790157318
0.9825122952461243 0.6107689738273621 0.17509882152080536 0.6549019813537598 0.6705882549285889 0.572549045085907
0.9761083722114563 0.49328911304473877 0.4229249060153961 0.6431372761726379 0.6666666865348816 0.6666666865348816
0.9305418729782104 0.5218695998191833 0.9897233247756958 0.33725491166114807 0.32156863808631897 0.27450981736183167
0.9770935773849487 0.5109742879867554 0.6830039620399475 0.5372549295425415 0.5607843399047852 0.5215686559677124
0.9778324961662292 0.5332385897636414 0.7237154245376587 0.5333333611488342 0.545098066329956 0.501960813999176
0.8068965673446655 0.6178746223449707 0.006719367578625679 0.43921568989753723 0.45490196347236633 0.3490196168422699
0.937438428401947 0.5725564360618591 0.0063241105526685715 0.4588235318660736 0.46666666865348816 0.3843137323856354
0.9701970219612122 0.4972366988658905 0.0063241105526685715 0.3960784375667572 0.3960784375667572 0.2862745225429535
0.9288177490234375 0.573188066482544 0.9901185631752014 0.3960784375667572 0.3803921639919281 0.33725491166114807
0.7677339911460876 0.5509237051010132 0.9897233247756958 0.32549020648002625 0.3137255012989044 0.29411765933036804
0.984236478805542 0.6107689738273621 0.8695651888847351 0.5254902243614197 0.501960813999176 0.40784314274787903
0.9800492525100708 0.626717209815979 0.7841897010803223 0.5568627715110779 0.5764706134796143 0.5921568870544434
0.829802930355072 0.5218695998191833 0.9897233247756958 0.20000000298023224 0.20000000298023224 0.15294118225574493
0.9731526970863342 0.5223432779312134 0.9897233247756958 0.32549020648002625 0.3137255012989044 0.24705882370471954
0.9435960650444031 0.49786829948425293 0.9893280863761902 0.33725491166114807 0.3294117748737335 0.27843138575553894
0.9753694534301758 0.5498183965682983 0.5308300256729126 0.6470588445663452 0.6705882549285889 0.6705882549285889
0.9775862097740173 0.5103426575660706 0.3015810251235962 0.5607843399047852 0.5647059082984924 0.4941176474094391
0.767241358757019 0.5008684396743774 0.9897233247756958 0.24313725531101227 0.22745098173618317 0.21568627655506134
0.9766010046005249 0.483499139547348 0.3695652186870575 0.6549019813537598 0.6901960968971252 0.686274528503418
0.9241379499435425 0.5389230847358704 0.0063241105526685715 0.43529412150382996 0.42352941632270813 0.3490196168422699
0.9753694534301758 0.49297332763671875 0.5857707262039185 0.5803921818733215 0.6078431606292725 0.5803921818733215
0.7628079056739807 0.5466603636741638 0.312648206949234 0.30980393290519714 0.3333333432674408 0.32549020648002625
0.7428571581840515 0.5539239048957825 0.2142292559146881 0.20000000298023224 0.19607843458652496 0.18039216101169586
0.8054187297821045 0.5695562958717346 0.007509881630539894 0.45490196347236633 0.4431372582912445 0.3686274588108063
0.8652709126472473 0.5918205976486206 0.005928853526711464 0.5176470875740051 0.5176470875740051 0.4156862795352936
0.9758620858192444 0.561976969242096 0.5584980249404907 0.6431372761726379 0.6666666865348816 0.6666666865348816
0.8724138140678406 0.4977104067802429 0.9897233247756958 0.20000000298023224 0.20000000298023224 0.15294118225574493
0.9773399233818054 0.54018634557724 0.6920948624610901 0.5176470875740051 0.5411764979362488 0.501960813999176
0.7416256070137024 0.5809252858161926 0.2972331941127777 0.2705882489681244 0.27843138575553894 0.27450981736183167
0.9699507355690002 0.5498183965682983 0.31897231936454773 0.4901960790157318 0.49803921580314636 0.4117647111415863
0.9773399233818054 0.5578714609146118 0.36086955666542053 0.7137255072593689 0.7333333492279053 0.7450980544090271
0.9822660088539124 0.5757145285606384 0.21541501581668854 0.6627451181411743 0.6823529601097107 0.5960784554481506
0.9096059203147888 0.5262908339500427 0.0063241105526685715 0.45490196347236633 0.5098039507865906 0.3803921639919281
0.9761083722114563 0.5693984031677246 0.34189721941947937 0.7529411911964417 0.7764706015586853 0.7607843279838562
0.9815270900726318 0.5267645716667175 0.06363636255264282 0.7529411911964417 0.7843137383460999 0.6901960968971252
0.9775862097740173 0.615664005279541 0.3841897249221802 0.6823529601097107 0.7176470756530762 0.7137255072593689
0.9852216839790344 0.6311385035514832 0.9090909361839294 0.5058823823928833 0.47843137383461 0.40392157435417175
0.883004903793335 0.5062371492385864 0.0063241105526685715 0.6274510025978088 0.6235294342041016 0.5058823823928833
0.9593595862388611 0.4853939712047577 0.9889327883720398 0.32156863808631897 0.30980393290519714 0.250980406999588
0.7736453413963318 0.6060318946838379 0.007905138656497002 0.5137255191802979 0.5215686559677124 0.46666666865348816
0.9810344576835632 0.5045002102851868 0.17351779341697693 0.6745098233222961 0.6901960968971252 0.5921568870544434
0.9044334888458252 0.5915048122406006 0.9901185631752014 0.3843137323856354 0.3764705955982208 0.3294117748737335
0.8206896781921387 0.4744986593723297 0.9897233247756958 0.20392157137393951 0.1921568661928177 0.16470588743686676
0.9756157398223877 0.5243960022926331 0.5786561369895935 0.5960784554481506 0.6196078658103943 0.6117647290229797
0.9820197224617004 0.6017684936523438 0.23162055015563965 0.6666666865348816 0.686274528503418 0.6078431606292725
0.9761083722114563 0.47828832268714905 0.6324110627174377 0.5843137502670288 0.6039215922355652 0.5803921818733215
0.9756157398223877 0.5829780697822571 0.49249011278152466 0.6823529601097107 0.7019608020782471 0.7137255072593689
0.7650246024131775 0.5689246654510498 0.9897233247756958 0.35686275362968445 0.3529411852359772 0.3333333432674408
0.9788177609443665 0.5525027513504028 0.9513834118843079 0.4000000059604645 0.3921568691730499 0.3450980484485626
0.7576354742050171 0.5956103205680847 0.9893280863761902 0.32156863808631897 0.3176470696926117 0.2980392277240753
0.9778324961662292 0.5376598834991455 0.7241106629371643 0.5333333611488342 0.5490196347236633 0.4901960790157318
0.9768472909927368 0.6069793105125427 0.4150197505950928 0.686274528503418 0.7098039388656616 0.7098039388656616
0.9751231670379639 0.5049739480018616 0.5003952383995056 0.6000000238418579 0.6352941393852234 0.6313725709915161
0.761083722114563 0.6084004640579224 0.00830039568245411 0.2823529541492462 0.2666666805744171 0.21960784494876862
0.9763546586036682 0.5193431377410889 0.30395257472991943 0.572549045085907 0.5647059082984924 0.5058823823928833
0.9766010046005249 0.6030317544937134 0.4308300316333771 0.6784313917160034 0.6980392336845398 0.7098039388656616
0.9837438464164734 0.4827096164226532 0.8826087117195129 0.47843137383461 0.45098039507865906 0.3764705955982208
0.9756157398223877 0.5054476261138916 0.4529644250869751 0.6196078658103943 0.6549019813537598 0.6431372761726379
0.9384236335754395 0.483499139547348 0.0063241105526685715 0.46666666865348816 0.4745098054409027 0.3803921639919281
0.9768472909927368 0.5278698801994324 0.3901185691356659 0.658823549747467 0.6823529601097107 0.6823529601097107
0.802955687046051 0.5987683534622192 0.0071146246045827866 0.48235294222831726 0.47843137383461 0.3960784375667572
0.9541872143745422 0.5929259657859802 0.0063241105526685715 0.5137255191802979 0.48627451062202454 0.4156862795352936
0.9800492525100708 0.5179219841957092 0.033596839755773544 0.24313725531101227 0.23137255012989044 0.1725490242242813
0.8524630665779114 0.5444496870040894 0.9897233247756958 0.30588236451148987 0.29411765933036804 0.2666666805744171
0.9817733764648438 0.5371861457824707 0.0675889328122139 0.729411780834198 0.7450980544090271 0.6549019813537598
0.7697044610977173 0.5133427977561951 0.007509881630539894 0.40784314274787903 0.3960784375667572 0.33725491166114807
0.9758620858192444 0.5414495468139648 0.4592885375022888 0.658823549747467 0.6823529601097107 0.6745098233222961
0.9753694534301758 0.4937628209590912 0.5841897130012512 0.5803921818733215 0.6078431606292725 0.5803921818733215
0.8955665230751038 0.5338702201843262 0.0063241105526685715 0.4627451002597809 0.48627451062202454 0.3843137323856354
0.9773399233818054 0.5360808372497559 0.3537549376487732 0.7333333492279053 0.7568627595901489 0.7490196228027344
0.9788177609443665 0.5534501671791077 0.9494071006774902 0.4588235318660736 0.4470588266849518 0.38823530077934265
0.9775862097740173 0.5343438982963562 0.7118577361106873 0.5254902243614197 0.5411764979362488 0.48627451062202454
0.9810344576835632 0.4800252616405487 0.2031620591878891 0.6901960968971252 0.6980392336845398 0.6039215922355652
0.9775862097740173 0.6246644854545593 0.6581027507781982 0.6392157077789307 0.658823549747467 0.6705882549285889
0.9753694534301758 0.5370282530784607 0.9845849871635437 0.2862745225429535 0.27450981736183167 0.2078431397676468
0.851477861404419 0.5981367230415344 0.005928853526711464 0.5372549295425415 0.5333333611488342 0.42352941632270813
0.9059113264083862 0.5266066789627075 0.0063241105526685715 0.40784314274787903 0.4274509847164154 0.30980393290519714
0.8418719172477722 0.6197694540023804 0.005928853526711464 0.38823530077934265 0.38823530077934265 0.29411765933036804
0.9748768210411072 0.5356071591377258 0.3391304314136505 0.7058823704719543 0.7254902124404907 0.7098039388656616
0.751477837562561 0.5605558156967163 0.3067193627357483 0.3490196168422699 0.364705890417099 0.3607843220233917
0.9815270900726318 0.5943470597267151 0.2699604630470276 0.6627451181411743 0.6745098233222961 0.6000000238418579
0.8268473148345947 0.5611874461174011 0.9897233247756958 0.3686274588108063 0.35686275362968445 0.33725491166114807
0.8539409041404724 0.6235591173171997 0.005928853526711464 0.5215686559677124 0.5215686559677124 0.41960784792900085
0.7694581151008606 0.4831833243370056 0.007509881630539894 0.364705890417099 0.3450980484485626 0.2705882489681244
0.9766010046005249 0.551239550113678 0.41857707500457764 0.658823549747467 0.6941176652908325 0.6823529601097107
0.9128078818321228 0.546028733253479 0.0063241105526685715 0.46666666865348816 0.4745098054409027 0.38823530077934265
0.9812808036804199 0.5367124676704407 0.23122529685497284 0.6666666865348816 0.6784313917160034 0.6039215922355652
0.881280779838562 0.5875572562217712 0.005928853526711464 0.501960813999176 0.501960813999176 0.40784314274787903
0.9820197224617004 0.5687667727470398 0.17272727191448212 0.6509804129600525 0.6823529601097107 0.5882353186607361
0.7568965554237366 0.5373440980911255 0.29486167430877686 0.13333334028720856 0.12941177189350128 0.10980392247438431
0.9807881712913513 0.48160430788993835 0.25177866220474243 0.686274528503418 0.6901960968971252 0.6274510025978088
0.9812808036804199 0.535133421421051 0.2035573124885559 0.6745098233222961 0.686274528503418 0.6117647290229797
0.9081280827522278 0.5136586427688599 0.9897233247756958 0.3490196168422699 0.3333333432674408 0.29019609093666077
0.8024630546569824 0.5117637515068054 0.0071146246045827866 0.5568627715110779 0.545098066329956 0.4156862795352936
0.9408866763114929 0.5883467793464661 0.9901185631752014 0.3960784375667572 0.3843137323856354 0.32549020648002625
0.8583743572235107 0.6072950959205627 0.9901185631752014 0.42352941632270813 0.4117647111415863 0.3764705955982208
0.9778324961662292 0.5322911739349365 0.3015810251235962 0.5568627715110779 0.5529412031173706 0.4745098054409027
0.9773399233818054 0.5196589231491089 0.6932806372642517 0.5137255191802979 0.5372549295425415 0.4901960790157318
0.9763546586036682 0.5313437581062317 0.6177865862846375 0.5882353186607361 0.6078431606292725 0.5921568870544434
0.9815270900726318 0.5453971028327942 0.23241107165813446 0.6627451181411743 0.6823529601097107 0.6039215922355652
0.9524630308151245 0.5725564360618591 0.9901185631752014 0.3803921639919281 0.3686274588108063 0.30980393290519714
0.9775862097740173 0.5393968224525452 0.015810277312994003 0.2823529541492462 0.27843138575553894 0.2078431397676468
0.746798038482666 0.5425548553466797 0.17272727191448212 0.14901961386203766 0.14901961386203766 0.1411764770746231
0.7399014830589294 0.567661464214325 0.25810277462005615 0.11764705926179886 0.11764705926179886 0.10980392247438431
0.9807881712913513 0.5986104607582092 0.04071146249771118 0.2980392277240753 0.2862745225429535 0.21176470816135406
0.9812808036804199 0.556450366973877 0.2964426875114441 0.48235294222831726 0.4745098054409027 0.3764705955982208
0.9093596339225769 0.4827096164226532 0.0063241105526685715 0.4745098054409027 0.4745098054409027 0.364705890417099
0.9704433679580688 0.5101847648620605 0.3185770809650421 0.5215686559677124 0.5098039507865906 0.43529412150382996
0.9761083722114563 0.49344703555107117 0.4225296378135681 0.6431372761726379 0.6666666865348816 0.6666666865348816
0.743596076965332 0.5395547151565552 0.9897233247756958 0.2980392277240753 0.29411765933036804 0.27450981736183167
0.7529556751251221 0.6024001240730286 0.008695651777088642 0.09019608050584793 0.0941176488995552 0.07058823853731155
0.984236478805542 0.5450813174247742 0.87312251329422 0.5098039507865906 0.49803921580314636 0.3764705955982208
0.9800492525100708 0.5030791163444519 0.030434781685471535 0.23137255012989044 0.2078431397676468 0.15294118225574493
0.9812808036804199 0.48444655537605286 0.06837944686412811 0.7372549176216125 0.7607843279838562 0.6509804129600525
0.9761083722114563 0.5608716011047363 0.5790513753890991 0.6313725709915161 0.6509804129600525 0.6627451181411743
0.9566502571105957 0.5851886868476868 0.9901185631752014 0.3843137323856354 0.37254902720451355 0.3137255012989044
0.9756157398223877 0.4977104067802429 0.4470355808734894 0.615686297416687 0.6509804129600525 0.6470588445663452
0.9763546586036682 0.47797253727912903 0.3837944567203522 0.6352941393852234 0.6705882549285889 0.658823549747467
0.7652709484100342 0.5638718008995056 0.9897233247756958 0.3137255012989044 0.3137255012989044 0.2823529541492462
0.9783251285552979 0.627032995223999 0.717391312122345 0.6235294342041016 0.6274510025978088 0.6431372761726379
0.9810344576835632 0.5149218440055847 0.20553359389305115 0.6666666865348816 0.686274528503418 0.6000000238418579
0.8458127975463867 0.6254539489746094 0.9901185631752014 0.4470588266849518 0.4431372582912445 0.37254902720451355
0.9837438464164734 0.5820306539535522 0.8264822363853455 0.5372549295425415 0.529411792755127 0.4470588266849518
0.9768472909927368 0.5433443784713745 0.38221344351768494 0.6823529601097107 0.6980392336845398 0.7098039388656616
0.9751231670379639 0.5427127480506897 0.5276679992675781 0.6470588445663452 0.6705882549285889 0.6705882549285889
0.9603448510169983 0.49786829948425293 0.0063241105526685715 0.4000000059604645 0.41960784792900085 0.3333333432674408
0.7800492644309998 0.6084004640579224 0.007905138656497002 0.5647059082984924 0.5764706134796143 0.47058823704719543
0.9810344576835632 0.6243486404418945 0.7948616743087769 0.5098039507865906 0.5137255191802979 0.48235294222831726
0.9810344576835632 0.4912363886833191 0.15968379378318787 0.6823529601097107 0.6980392336845398 0.6000000238418579
0.7573891878128052 0.5007105469703674 0.007905138656497002 0.1725490242242813 0.1725490242242813 0.1411764770746231
0.9756157398223877 0.5251855254173279 0.47075098752975464 0.6431372761726379 0.658823549747467 0.6549019813537598
0.7475369572639465 0.5259750485420227 0.16403162479400635 0.14509804546833038 0.12941177189350128 0.11764705926179886
0.9812808036804199 0.5431864857673645 0.9438735246658325 0.4000000059604645 0.3764705955982208 0.3137255012989044
0.7411330342292786 0.5892941951751709 0.9897233247756958 0.32156863808631897 0.3176470696926117 0.2980392277240753
0.9775862097740173 0.5897678732872009 0.664426863193512 0.6392157077789307 0.6549019813537598 0.6509804129600525
0.9763546586036682 0.562450647354126 0.6031620502471924 0.6117647290229797 0.6352941393852234 0.6274510025978088
0.8352216482162476 0.567819356918335 0.0063241105526685715 0.7411764860153198 0.7372549176216125 0.6274510025978088
0.9369457960128784 0.4776567220687866 0.0063241105526685715 0.5254902243614197 0.545098066329956 0.4274509847164154
0.9810344576835632 0.6169272065162659 0.7960474491119385 0.48235294222831726 0.48627451062202454 0.45490196347236633
0.9820197224617004 0.6153481602668762 0.21541501581668854 0.6666666865348816 0.6784313917160034 0.6039215922355652
0.9756157398223877 0.529448926448822 0.4786561131477356 0.6392157077789307 0.6745098233222961 0.6627451181411743
0.9825122952461243 0.529133141040802 0.947826087474823 0.41960784792900085 0.3921568691730499 0.3294117748737335
0.7637931108474731 0.5449234247207642 0.9897233247756958 0.3294117748737335 0.3176470696926117 0.2980392277240753
0.9123152494430542 0.6245065331459045 0.9905138611793518 0.3960784375667572 0.38823530077934265 0.33725491166114807
0.9766010046005249 0.4973945915699005 0.39209485054016113 0.6549019813537598 0.6784313917160034 0.6784313917160034
0.9810344576835632 0.48081478476524353 0.198023721575737 0.686274528503418 0.6941176652908325 0.6000000238418579
0.7849753499031067 0.5123953819274902 0.007509881630539894 0.47058823704719543 0.45098039507865906 0.33725491166114807
0.742118239402771 0.5638718008995056 0.3007905185222626 0.0313725508749485 0.0470588244497776 0.05098039284348488
0.7802955508232117 0.48997315764427185 0.9897233247756958 0.20392157137393951 0.1921568661928177 0.1568627506494522
0.9768472909927368 0.5147639513015747 0.38300395011901855 0.6549019813537598 0.6784313917160034 0.6784313917160034
0.7701970338821411 0.5078161954879761 0.9897233247756958 0.2078431397676468 0.19607843458652496 0.16862745583057404
0.984236478805542 0.4975525140762329 0.903557300567627 0.4588235318660736 0.4313725531101227 0.35686275362968445
0.9778324961662292 0.4940786361694336 0.7367588877677917 0.5529412031173706 0.5686274766921997 0.5098039507865906
0.9766010046005249 0.5114479660987854 0.6600790619850159 0.7764706015586853 0.7960784435272217 0.7803921699523926
0.9788177609443665 0.4822359085083008 0.7845849990844727 0.5333333611488342 0.5568627715110779 0.501960813999176
0.7842364311218262 0.518237829208374 0.9897233247756958 0.22745098173618317 0.21568627655506134 0.1882352977991104
0.9810344576835632 0.5163429379463196 0.2079051434993744 0.6666666865348816 0.686274528503418 0.6000000238418579
0.9761083722114563 0.5842412710189819 0.47154149413108826 0.6745098233222961 0.6980392336845398 0.6980392336845398
0.823399007320404 0.5387651920318604 0.9897233247756958 0.32156863808631897 0.30980393290519714 0.29019609093666077
0.9815270900726318 0.62166428565979 0.9762845635414124 0.3333333432674408 0.30588236451148987 0.23529411852359772
0.8179802894592285 0.5024474859237671 0.9897233247756958 0.2078431397676468 0.19607843458652496 0.16862745583057404
0.9780788421630859 0.5166587829589844 0.7498023509979248 0.5372549295425415 0.5529412031173706 0.49803921580314636
0.9820197224617004 0.5712932348251343 0.07075098901987076 0.7176470756530762 0.7411764860153198 0.6313725709915161
0.9768472909927368 0.6256119012832642 0.5924901366233826 0.6509804129600525 0.6823529601097107 0.6901960968971252
