0.3216748833656311 0.36696669459342957 0.006719367578625679 0.5882353186607361 0.5764706134796143 0.5490196347236633
0.2224137932062149 0.32922786474227905 0.0071146246045827866 0.5921568870544434 0.6117647290229797 0.5333333611488342
0.2142857164144516 0.28248855471611023 0.0071146246045827866 0.5215686559677124 0.5254902243614197 0.4627451002597809
0.2655172348022461 0.264645516872406 0.16482213139533997 0.21568627655506134 0.21568627655506134 0.2078431397676468
0.2704433500766754 0.29748934507369995 0.0071146246045827866 0.16470588743686676 0.16470588743686676 0.13333334028720856
0.15738916397094727 0.35165008902549744 0.9897233247756958 0.43921568989753723 0.41960784792900085 0.40784314274787903
0.16034482419490814 0.27759355306625366 0.007509881630539894 0.5529412031173706 0.545098066329956 0.48627451062202454
0.14778324961662292 0.24538134038448334 0.007905138656497002 0.6313725709915161 0.6392157077789307 0.5960784554481506
0.2509852349758148 0.25753986835479736 0.2292490154504776 0.1411764770746231 0.1411764770746231 0.13333334028720856
0.3573891520500183 0.26306647062301636 0.29525691270828247 0.5254902243614197 0.5333333611488342 0.529411792755127
0.2581280767917633 0.35512396693229675 0.006719367578625679 0.5921568870544434 0.6039215922355652 0.49803921580314636
0.31182265281677246 0.327333003282547 0.006719367578625679 0.6431372761726379 0.6823529601097107 0.5764706134796143
0.14433497190475464 0.38591504096984863 0.9901185631752014 0.3843137323856354 0.37254902720451355 0.3529411852359772
0.26822659373283386 0.28059372305870056 0.0071146246045827866 0.2980392277240753 0.27843138575553894 0.20392157137393951
0.1349753737449646 0.28564661741256714 0.007509881630539894 0.501960813999176 0.4941176474094391 0.4431372582912445
0.35812807083129883 0.32354333996772766 0.27865612506866455 0.0784313753247261 0.0784313753247261 0.07058823853731155
0.15763546526432037 0.36933523416519165 0.0071146246045827866 0.6078431606292725 0.5882353186607361 0.5647059082984924
0.2692118287086487 0.2668561637401581 0.25177866220474243 0.0784313753247261 0.0784313753247261 0.07058823853731155
0.2903940975666046 0.36917731165885925 0.006719367578625679 0.6078431606292725 0.615686297416687 0.5333333611488342
0.3485221564769745 0.2504342198371887 0.17786560952663422 0.0784313753247261 0.07450980693101883 0.06666667014360428
0.36650246381759644 0.316279798746109 0.9877470135688782 0.3019607961177826 0.3019607961177826 0.26274511218070984
0.34753695130348206 0.2900679111480713 0.9881423115730286 0.2862745225429535 0.29019609093666077 0.2705882489681244
0.22118227183818817 0.3412284851074219 0.0071146246045827866 0.572549045085907 0.5764706134796143 0.5058823823928833
0.25566503405570984 0.28327807784080505 0.9893280863761902 0.9607843160629272 0.9725490212440491 0.9921568632125854
0.20935960114002228 0.37186166644096375 0.006719367578625679 0.6352941393852234 0.6274510025978088 0.5803921818733215
0.3009852170944214 0.3443865478038788 0.006719367578625679 0.4901960790157318 0.5137255191802979 0.364705890417099
0.2502463161945343 0.26322439312934875 0.22292490303516388 0.16470588743686676 0.16470588743686676 0.1568627506494522
0.18054187297821045 0.3848097324371338 0.0071146246045827866 0.49803921580314636 0.48627451062202454 0.46666666865348816
0.18201971054077148 0.3159639835357666 0.9893280863761902 0.9019607901573181 0.9058823585510254 0.9137254953384399
0.3049260973930359 0.3559134602546692 0.0063241105526685715 0.6352941393852234 0.6549019813537598 0.5647059082984924
0.34802955389022827 0.30854254961013794 0.0071146246045827866 0.29019609093666077 0.2823529541492462 0.23137255012989044
0.27561575174331665 0.32970157265663147 0.006719367578625679 0.6784313917160034 0.6509804129600525 0.5803921818733215
0.36748769879341125 0.2501184344291687 0.006719367578625679 0.27450981736183167 0.27450981736183167 0.22745098173618317
0.3293103575706482 0.3942839205265045 0.9889327883720398 0.38823530077934265 0.3921568691730499 0.33725491166114807
0.14507389068603516 0.32022738456726074 0.007509881630539894 0.6392157077789307 0.6470588445663452 0.5960784554481506
0.22783251106739044 0.264645516872406 0.0071146246045827866 0.5333333611488342 0.5098039507865906 0.4156862795352936
0.3522167503833771 0.3154902756214142 0.28972330689430237 0.0784313753247261 0.0784313753247261 0.0784313753247261
0.3327586352825165 0.30301594734191895 0.0071146246045827866 0.37254902720451355 0.3333333432674408 0.29411765933036804
0.26428571343421936 0.28627821803092957 0.0071146246045827866 0.33725491166114807 0.34117648005485535 0.27843138575553894
0.1463054120540619 0.38307279348373413 0.0071146246045827866 0.4941176474094391 0.49803921580314636 0.43529412150382996
0.32733988761901855 0.24238118529319763 0.006719367578625679 0.25882354378700256 0.23529411852359772 0.18039216101169586
0.27660098671913147 0.26054003834724426 0.006719367578625679 0.48235294222831726 0.4627451002597809 0.3490196168422699
0.3418719172477722 0.2499605268239975 0.29486167430877686 0.5333333611488342 0.5490196347236633 0.545098066329956
0.28719210624694824 0.30664771795272827 0.9889327883720398 1.0 1.0 1.0
0.3527093529701233 0.3255960941314697 0.2853755056858063 0.07058823853731155 0.07058823853731155 0.062745101749897
0.2142857164144516 0.31722721457481384 0.0071146246045827866 0.6901960968971252 0.6784313917160034 0.6039215922355652
0.27118226885795593 0.31075319647789 0.9881423115730286 1.0 1.0 1.0
0.30812808871269226 0.37865149974823 0.0071146246045827866 0.615686297416687 0.6196078658103943 0.5490196347236633
0.31871920824050903 0.32654350996017456 0.0071146246045827866 0.6392157077789307 0.6549019813537598 0.5490196347236633
0.23916256427764893 0.3851255476474762 0.9897233247756958 0.3843137323856354 0.3764705955982208 0.3294117748737335
0.1507389098405838 0.37486183643341064 0.9901185631752014 0.40392157435417175 0.3921568691730499 0.37254902720451355
0.3091132938861847 0.26338228583335876 0.29407113790512085 0.5568627715110779 0.5647059082984924 0.5529412031173706
0.25591132044792175 0.24253907799720764 0.2027667909860611 0.12941177189350128 0.12941177189350128 0.12941177189350128
0.1628078818321228 0.270172119140625 0.9897233247756958 0.8666666746139526 0.8823529481887817 0.8941176533699036
0.16108374297618866 0.2786988914012909 0.9897233247756958 0.886274516582489 0.8901960849761963 0.9058823585510254
0.15788176655769348 0.2723827660083771 0.007509881630539894 0.6470588445663452 0.6313725709915161 0.5882353186607361
0.282019704580307 0.29733145236968994 0.15335968136787415 0.529411792755127 0.5098039507865906 0.4313725531101227
0.2926108241081238 0.2835938632488251 0.0071146246045827866 0.3490196168422699 0.33725491166114807 0.2705882489681244
0.20517241954803467 0.292278528213501 0.9889327883720398 0.9647058844566345 0.9686274528503418 0.9843137264251709
0.18866994976997375 0.37201958894729614 0.9897233247756958 0.42352941632270813 0.4117647111415863 0.3921568691730499
0.36256158351898193 0.32970157265663147 0.17984189093112946 0.21176470816135406 0.22745098173618317 0.2235294133424759
0.3403940796852112 0.25185537338256836 0.006719367578625679 0.33725491166114807 0.32549020648002625 0.29019609093666077
0.3453201949596405 0.2955945134162903 0.29446640610694885 0.5058823823928833 0.5137255191802979 0.4941176474094391
0.35886698961257935 0.3042791783809662 0.29486167430877686 0.5137255191802979 0.5333333611488342 0.5176470875740051
0.2502463161945343 0.32891204953193665 0.9885375499725342 1.0 1.0 1.0
0.35073891282081604 0.3383862376213074 0.31067192554473877 0.29019609093666077 0.30588236451148987 0.3176470696926117
0.2455665022134781 0.3655455410480499 0.006719367578625679 0.6078431606292725 0.615686297416687 0.5215686559677124
0.16945812106132507 0.33428075909614563 0.9897233247756958 0.8392156958580017 0.843137264251709 0.8627451062202454
0.2061576396226883 0.35828202962875366 0.0071146246045827866 0.6509804129600525 0.6274510025978088 0.5647059082984924
0.25172412395477295 0.3590715229511261 0.9889327883720398 0.40392157435417175 0.3921568691730499 0.364705890417099
0.2628078758716583 0.24048633873462677 0.006719367578625679 0.5137255191802979 0.4901960790157318 0.4274509847164154
0.22019705176353455 0.36349281668663025 0.9897233247756958 0.4000000059604645 0.3960784375667572 0.3764705955982208
0.1470443308353424 0.29733145236968994 0.007509881630539894 0.545098066329956 0.529411792755127 0.48235294222831726
0.25172412395477295 0.33743882179260254 0.006719367578625679 0.545098066329956 0.5372549295425415 0.47843137383461
0.2504926025867462 0.29748934507369995 0.0071146246045827866 0.2235294133424759 0.250980406999588 0.21960784494876862
0.3655172288417816 0.32875415682792664 0.22687746584415436 0.4627451002597809 0.48627451062202454 0.47843137383461
0.2854679822921753 0.2528027892112732 0.006719367578625679 0.3803921639919281 0.37254902720451355 0.32156863808631897
0.16798029839992523 0.35796621441841125 0.9897233247756958 0.4470588266849518 0.4313725531101227 0.4274509847164154
0.2652709484100342 0.27111953496932983 0.9905138611793518 0.9764705896377563 0.9803921580314636 1.0
0.2586206793785095 0.28280436992645264 0.28893280029296875 0.16078431904315948 0.1764705926179886 0.1882352977991104
0.3600985109806061 0.3655455410480499 0.20948617160320282 0.35686275362968445 0.37254902720451355 0.3686274588108063
0.29236453771591187 0.30380547046661377 0.0071146246045827866 0.47058823704719543 0.47058823704719543 0.3764705955982208
0.13399015367031097 0.29796305298805237 0.9897233247756958 0.4745098054409027 0.4627451002597809 0.4431372582912445
0.31527093052864075 0.28580451011657715 0.0071146246045827866 0.34117648005485535 0.33725491166114807 0.2549019753932953
0.3206896483898163 0.286594033241272 0.0071146246045827866 0.3921568691730499 0.38823530077934265 0.3176470696926117
0.3561576306819916 0.3499131500720978 0.21146245300769806 0.125490203499794 0.13333334028720856 0.12941177189350128
0.3566502332687378 0.3445444405078888 0.1513833999633789 0.2235294133424759 0.21568627655506134 0.21960784494876862
0.346059113740921 0.29117321968078613 0.29446640610694885 0.5058823823928833 0.5176470875740051 0.4901960790157318
0.35517242550849915 0.35812410712242126 0.3075098693370819 0.2078431397676468 0.21960784494876862 0.239215686917305
0.3009852170944214 0.30870047211647034 0.9885375499725342 0.40392157435417175 0.4156862795352936 0.4431372582912445
0.2650246322154999 0.29701563715934753 0.19920948147773743 0.239215686917305 0.24313725531101227 0.250980406999588
0.35911330580711365 0.36665087938308716 0.2339920997619629 0.13333334028720856 0.1411764770746231 0.12941177189350128
0.1391625553369522 0.25453969836235046 0.007905138656497002 0.5529412031173706 0.5568627715110779 0.501960813999176
0.23866994678974152 0.3388599455356598 0.006719367578625679 0.45098039507865906 0.4627451002597809 0.3803921639919281
0.3332512378692627 0.2848570942878723 0.9881423115730286 0.30588236451148987 0.30980393290519714 0.29019609093666077
0.21502463519573212 0.2738038897514343 0.9885375499725342 0.9607843160629272 0.9647058844566345 0.9803921580314636
0.33891624212265015 0.27948838472366333 0.9881423115730286 0.3176470696926117 0.32156863808631897 0.2980392277240753
0.2692118287086487 0.3912837505340576 0.006719367578625679 0.6313725709915161 0.6235294342041016 0.5254902243614197
0.35541871190071106 0.24332860112190247 0.29525691270828247 0.5490196347236633 0.572549045085907 0.5647059082984924
0.1465517282485962 0.30270013213157654 0.007509881630539894 0.529411792755127 0.529411792755127 0.48235294222831726
0.32019704580307007 0.31517449021339417 0.0071146246045827866 0.5215686559677124 0.5333333611488342 0.4274509847164154
0.2615763545036316 0.2619611620903015 0.290909081697464 0.1725490242242813 0.1764705926179886 0.1921568661928177
0.35492610931396484 0.3077530264854431 0.29446640610694885 0.5137255191802979 0.5215686559677124 0.501960813999176
0.26354679465293884 0.25406599044799805 0.2806324064731598 0.1568627506494522 0.16078431904315948 0.18039216101169586
0.254679799079895 0.2954365909099579 0.27905139327049255 0.1725490242242813 0.1764705926179886 0.1921568661928177
0.35837438702583313 0.3361755907535553 0.24229249358177185 0.125490203499794 0.125490203499794 0.11764705926179886
0.14408867061138153 0.3502289652824402 0.007509881630539894 0.529411792755127 0.5176470875740051 0.4901960790157318
0.3541871905326843 0.338228315114975 0.3063241243362427 0.2549019753932953 0.2823529541492462 0.30588236451148987
0.34384235739707947 0.25675034523010254 0.18063241243362427 0.0784313753247261 0.07450980693101883 0.06666667014360428
0.2827586233615875 0.305068701505661 0.0071146246045827866 0.47058823704719543 0.46666666865348816 0.3843137323856354
0.30394089221954346 0.3822832703590393 0.0071146246045827866 0.686274528503418 0.6980392336845398 0.6313725709915161
0.2729063928127289 0.264961302280426 0.17312252521514893 0.125490203499794 0.125490203499794 0.125490203499794
0.2615763545036316 0.23685456812381744 0.2869565188884735 0.18039216101169586 0.20000000298023224 0.18431372940540314
0.22733990848064423 0.25990840792655945 0.0071146246045827866 0.6196078658103943 0.5960784554481506 0.4941176474094391
0.22068965435028076 0.2722248435020447 0.9889327883720398 0.9921568632125854 0.9921568632125854 1.0
0.1426108330488205 0.2925943434238434 0.007509881630539894 0.4588235318660736 0.4627451002597809 0.40784314274787903
0.30369457602500916 0.26575082540512085 0.17351779341697693 0.2549019753932953 0.2705882489681244 0.2823529541492462
0.20000000298023224 0.3764408528804779 0.0071146246045827866 0.7215686440467834 0.7137255072593689 0.6549019813537598
0.32044336199760437 0.305226594209671 0.0071146246045827866 0.35686275362968445 0.3490196168422699 0.2980392277240753
0.3216748833656311 0.36001893877983093 0.9881423115730286 0.35686275362968445 0.35686275362968445 0.30980393290519714
0.29655173420906067 0.28312015533447266 0.9897233247756958 0.9764705896377563 0.9960784316062927 1.0
0.16477832198143005 0.31438496708869934 0.007509881630539894 0.7450980544090271 0.7607843279838562 0.7058823704719543
0.23940886557102203 0.3816516697406769 0.006719367578625679 0.658823549747467 0.6666666865348816 0.6117647290229797
0.1431034505367279 0.27727773785591125 0.007509881630539894 0.5882353186607361 0.5647059082984924 0.5176470875740051
0.17241379618644714 0.356702983379364 0.9897233247756958 0.4470588266849518 0.43529412150382996 0.4156862795352936
0.21921181678771973 0.2673298716545105 0.0071146246045827866 0.49803921580314636 0.49803921580314636 0.46666666865348816
0.25270935893058777 0.25722405314445496 0.19683794677257538 0.11764705926179886 0.11764705926179886 0.11764705926179886
0.2502463161945343 0.26243487000465393 0.22490118443965912 0.14901961386203766 0.14901961386203766 0.1411764770746231
0.282019704580307 0.3298594653606415 0.006719367578625679 0.6196078658103943 0.6392157077789307 0.5529412031173706
0.2581280767917633 0.24364440143108368 0.006719367578625679 0.40392157435417175 0.3960784375667572 0.3137255012989044
0.25665023922920227 0.3418600857257843 0.9885375499725342 0.33725491166114807 0.3333333432674408 0.3176470696926117
0.25615763664245605 0.24790778756141663 0.1881422996520996 0.07450980693101883 0.07450980693101883 0.06666667014360428
0.33522167801856995 0.3075951337814331 0.0071146246045827866 0.2666666805744171 0.2980392277240753 0.24705882370471954
0.2615763545036316 0.2698563039302826 0.15928854048252106 0.2235294133424759 0.2235294133424759 0.21568627655506134
0.28842365741729736 0.29464709758758545 0.14782609045505524 0.48235294222831726 0.47058823704719543 0.3490196168422699
0.25591132044792175 0.24774987995624542 0.19565217196941376 0.09019608050584793 0.09019608050584793 0.08235294371843338
0.36280786991119385 0.34343913197517395 0.2960474193096161 0.20392157137393951 0.20000000298023224 0.2235294133424759
0.254679799079895 0.25422391295433044 0.006719367578625679 0.5607843399047852 0.5411764979362488 0.4274509847164154
0.36724138259887695 0.3421759009361267 0.0063241105526685715 0.4745098054409027 0.4745098054409027 0.34117648005485535
0.3450738787651062 0.3156481981277466 0.28893280029296875 0.07450980693101883 0.07450980693101883 0.06666667014360428
0.3221674859523773 0.31170061230659485 0.29367589950561523 0.45098039507865906 0.45490196347236633 0.43529412150382996
0.16502462327480316 0.38954681158065796 0.0071146246045827866 0.5333333611488342 0.5333333611488342 0.4941176474094391
0.2302955687046051 0.26306647062301636 0.9897233247756958 0.9764705896377563 0.9803921580314636 0.9960784316062927
0.1982758641242981 0.3502289652824402 0.9897233247756958 0.43529412150382996 0.41960784792900085 0.40784314274787903
0.3576354682445526 0.38402020931243896 0.0071146246045827866 0.48235294222831726 0.5137255191802979 0.4313725531101227
0.2568965554237366 0.37170377373695374 0.006719367578625679 0.5921568870544434 0.5921568870544434 0.49803921580314636
0.31995072960853577 0.29480499029159546 0.17509882152080536 0.12941177189350128 0.13725490868091583 0.13333334028720856
0.13694581389427185 0.33475446701049805 0.9897233247756958 0.47058823704719543 0.4588235318660736 0.42352941632270813
0.2807881832122803 0.3158060908317566 0.9885375499725342 1.0 1.0 1.0
0.25985223054885864 0.3183325529098511 0.9885375499725342 1.0 1.0 1.0
0.3096058964729309 0.33491235971450806 0.006719367578625679 0.6000000238418579 0.6274510025978088 0.5647059082984924
0.2605911195278168 0.2723827660083771 0.006719367578625679 0.32549020648002625 0.29411765933036804 0.24313725531101227
0.21995073556900024 0.327017217874527 0.9889327883720398 0.8941176533699036 0.8980392217636108 0.9137254953384399
0.29581281542778015 0.25185537338256836 0.17391304671764374 0.1725490242242813 0.18039216101169586 0.1764705926179886
0.3482758700847626 0.3440707325935364 0.9877470135688782 0.3333333432674408 0.3333333432674408 0.29411765933036804
0.257881760597229 0.28596243262290955 0.19525691866874695 0.14901961386203766 0.14901961386203766 0.1411764770746231
0.277339905500412 0.24822358787059784 0.992094874382019 0.9921568632125854 1.0 0.9960784316062927
0.3027093708515167 0.33554399013519287 0.9881423115730286 0.30980393290519714 0.3176470696926117 0.2980392277240753
0.14458128809928894 0.35243961215019226 0.9897233247756958 0.4431372582912445 0.4313725531101227 0.4117647111415863
0.2731527090072632 0.2553292214870453 0.006719367578625679 0.35686275362968445 0.3294117748737335 0.2666666805744171
0.143349751830101 0.24569714069366455 0.007905138656497002 0.5411764979362488 0.5411764979362488 0.4941176474094391
0.3022167384624481 0.2619611620903015 0.17272727191448212 0.239215686917305 0.25882354378700256 0.27450981736183167
0.24802955985069275 0.3527553975582123 0.006719367578625679 0.7215686440467834 0.7333333492279053 0.6509804129600525
0.35886698961257935 0.34659719467163086 0.2395256906747818 0.10588235408067703 0.10588235408067703 0.09803921729326248
0.1231527104973793 0.27743566036224365 0.007905138656497002 0.5058823823928833 0.4941176474094391 0.43529412150382996
0.254679799079895 0.2870677411556244 0.26758894324302673 0.1764705926179886 0.1764705926179886 0.16862745583057404
0.1751231551170349 0.27175113558769226 0.007509881630539894 0.6078431606292725 0.6000000238418579 0.5529412031173706
0.26009851694107056 0.2925943434238434 0.20988142490386963 0.4431372582912445 0.45490196347236633 0.38823530077934265
0.29137930274009705 0.3420180082321167 0.9881423115730286 0.30980393290519714 0.30980393290519714 0.2705882489681244
0.2706896662712097 0.35133427381515503 0.006719367578625679 0.6431372761726379 0.6705882549285889 0.5411764979362488
0.1273398995399475 0.3709142506122589 0.007509881630539894 0.6431372761726379 0.6470588445663452 0.5764706134796143
0.36280786991119385 0.37549343705177307 0.291304349899292 0.5098039507865906 0.529411792755127 0.5529412031173706
0.341379314661026 0.28959420323371887 0.9881423115730286 0.2980392277240753 0.3019607961177826 0.2823529541492462
0.1785714328289032 0.33443865180015564 0.9897233247756958 0.8274509906768799 0.8313725590705872 0.8392156958580017
0.34359607100486755 0.35843992233276367 0.28893280029296875 0.10196078568696976 0.10196078568696976 0.0941176488995552
0.1551724076271057 0.3737565279006958 0.0071146246045827866 0.49803921580314636 0.4901960790157318 0.4431372582912445
0.33448275923728943 0.24917100369930267 0.006719367578625679 0.250980406999588 0.239215686917305 0.1725490242242813
0.29975369572639465 0.299699991941452 0.15731225907802582 0.41960784792900085 0.4000000059604645 0.3137255012989044
0.2778325080871582 0.24632875621318817 0.2245059311389923 0.686274528503418 0.658823549747467 0.6274510025978088
0.13546797633171082 0.26622453331947327 0.9893280863761902 0.43529412150382996 0.42352941632270813 0.40392157435417175
0.1431034505367279 0.3015948235988617 0.9897233247756958 0.4745098054409027 0.4588235318660736 0.45490196347236633
0.35123151540756226 0.34959733486175537 0.0063241105526685715 0.4901960790157318 0.5098039507865906 0.3921568691730499
0.25123152136802673 0.2526448667049408 0.24071146547794342 0.1411764770746231 0.1411764770746231 0.13333334028720856
0.3142857253551483 0.25169745087623596 0.006719367578625679 0.30588236451148987 0.29019609093666077 0.24313725531101227
0.3541871905326843 0.2589609920978546 0.9881423115730286 0.3176470696926117 0.30588236451148987 0.2862745225429535
0.2224137932062149 0.2927522361278534 0.0071146246045827866 0.545098066329956 0.5372549295425415 0.47843137383461
0.3019704520702362 0.28312015533447266 0.17549407482147217 0.2549019753932953 0.2705882489681244 0.2823529541492462
0.15270936489105225 0.3387020230293274 0.007509881630539894 0.5960784554481506 0.5960784554481506 0.5568627715110779
0.17364531755447388 0.3398073613643646 0.0071146246045827866 0.5921568870544434 0.6000000238418579 0.5568627715110779
0.17339901626110077 0.38402020931243896 0.0071146246045827866 0.6549019813537598 0.6509804129600525 0.6313725709915161
0.3211822807788849 0.37170377373695374 0.9885375499725342 0.37254902720451355 0.3764705955982208 0.32156863808631897
0.27660098671913147 0.26054003834724426 0.006719367578625679 0.48235294222831726 0.4627451002597809 0.3490196168422699
0.2729063928127289 0.31801673769950867 0.9881423115730286 1.0 1.0 1.0
0.2623152732849121 0.28375178575515747 0.9893280863761902 0.9764705896377563 0.9803921580314636 0.9960784316062927
0.3573891520500183 0.32606980204582214 0.2770751118659973 0.07058823853731155 0.07058823853731155 0.062745101749897
0.26773399114608765 0.35480815172195435 0.9889327883720398 0.38823530077934265 0.3764705955982208 0.3490196168422699
0.26428571343421936 0.2616453468799591 0.27826085686683655 0.1411764770746231 0.1568627506494522 0.16862745583057404
0.336699515581131 0.3124901354312897 0.9881423115730286 0.3333333432674408 0.3137255012989044 0.2980392277240753
0.3455665111541748 0.34391283988952637 0.3011857569217682 0.09019608050584793 0.09019608050584793 0.08235294371843338
0.2704433500766754 0.27411970496177673 0.20948617160320282 0.08235294371843338 0.08627451211214066 0.06666667014360428
0.1948275864124298 0.2785409688949585 0.9889327883720398 0.9411764740943909 0.9450980424880981 0.9647058844566345
0.29211822152137756 0.24064424633979797 0.17826086282730103 0.16470588743686676 0.18039216101169586 0.1764705926179886
0.2935960590839386 0.27490919828414917 0.9905138611793518 0.8745098114013672 0.929411768913269 0.9725490212440491
0.31083744764328003 0.27775144577026367 0.29407113790512085 0.4901960790157318 0.5098039507865906 0.48627451062202454
0.3167487680912018 0.36665087938308716 0.006719367578625679 0.5843137502670288 0.615686297416687 0.5333333611488342
0.12783251702785492 0.2955945134162903 0.9897233247756958 0.4313725531101227 0.41960784792900085 0.3921568691730499
0.3059113323688507 0.3424917161464691 0.006719367578625679 0.5529412031173706 0.5647059082984924 0.48235294222831726
0.26847290992736816 0.2665403485298157 0.260869562625885 0.10588235408067703 0.10588235408067703 0.10588235408067703
0.31921181082725525 0.356860876083374 0.9881423115730286 0.3529411852359772 0.3450980484485626 0.2980392277240753
0.12364532053470612 0.32906994223594666 0.007509881630539894 0.5372549295425415 0.545098066329956 0.4941176474094391
0.12758620083332062 0.35433444380760193 0.007509881630539894 0.545098066329956 0.5529412031173706 0.5098039507865906
0.28349754214286804 0.36033475399017334 0.9885375499725342 0.29019609093666077 0.2980392277240753 0.2549019753932953
0.29137930274009705 0.3304910659790039 0.9881423115730286 0.9725490212440491 0.9921568632125854 1.0
0.36798030138015747 0.2820148468017578 0.9881423115730286 0.2862745225429535 0.29019609093666077 0.2666666805744171
0.2507389187812805 0.24238118529319763 0.28774702548980713 0.12941177189350128 0.12941177189350128 0.12156862765550613
0.1583743840456009 0.2897520959377289 0.9897233247756958 0.8784313797950745 0.9058823585510254 0.929411768913269
0.24704433977603912 0.33191221952438354 0.006719367578625679 0.529411792755127 0.5372549295425415 0.4431372582912445
0.3655172288417816 0.2726985514163971 0.0071146246045827866 0.239215686917305 0.23137255012989044 0.18431372940540314
0.1315270960330963 0.32670140266418457 0.9897233247756958 0.4745098054409027 0.4588235318660736 0.4470588266849518
0.25246304273605347 0.2704879343509674 0.18893280625343323 0.16078431904315948 0.1764705926179886 0.1725490242242813
0.33571428060531616 0.2613295316696167 0.9881423115730286 0.3333333432674408 0.3294117748737335 0.30980393290519714
0.35911330580711365 0.38307279348373413 0.15256917476654053 0.5686274766921997 0.5882353186607361 0.6039215922355652
0.18152709305286407 0.2723827660083771 0.0071146246045827866 0.46666666865348816 0.45098039507865906 0.40392157435417175
0.3206896483898163 0.2387494146823883 0.006719367578625679 0.27843138575553894 0.2705882489681244 0.2235294133424759
0.34753695130348206 0.31754302978515625 0.9877470135688782 0.2980392277240753 0.2862745225429535 0.250980406999588
0.2576354742050171 0.2534343898296356 0.29920947551727295 0.1921568661928177 0.19607843458652496 0.21568627655506134
0.20394088327884674 0.3334912359714508 0.9893280863761902 0.8666666746139526 0.8705882430076599 0.886274516582489
0.29064038395881653 0.2693825960159302 0.991304337978363 0.9843137264251709 0.9882352948188782 0.9960784316062927
0.3103448152542114 0.2835938632488251 0.1770751029253006 0.239215686917305 0.2549019753932953 0.2666666805744171
0.23152709007263184 0.34549185633659363 0.9893280863761902 0.34117648005485535 0.32549020648002625 0.3137255012989044
0.2694581151008606 0.3012790083885193 0.0071146246045827866 0.37254902720451355 0.3764705955982208 0.3450980484485626
0.2465517222881317 0.3014369308948517 0.9885375499725342 0.9333333373069763 0.9372549057006836 0.95686274766922
0.27118226885795593 0.2989104688167572 0.15691699087619781 0.4901960790157318 0.48235294222831726 0.4000000059604645
0.22142857313156128 0.345649778842926 0.9893280863761902 0.3294117748737335 0.3137255012989044 0.30980393290519714
0.18522167205810547 0.3077530264854431 0.007509881630539894 0.6745098233222961 0.6745098233222961 0.6274510025978088
0.25221675634384155 0.23685456812381744 0.2758893370628357 0.12941177189350128 0.12941177189350128 0.12156862765550613
0.17290639877319336 0.3827569782733917 0.0071146246045827866 0.5137255191802979 0.5254902243614197 0.4431372582912445
0.27266010642051697 0.2835938632488251 0.20988142490386963 0.0941176488995552 0.09019608050584793 0.08235294371843338
0.22290641069412231 0.35528185963630676 0.9893280863761902 0.40784314274787903 0.3960784375667572 0.3764705955982208
0.14433497190475464 0.31138479709625244 0.9897233247756958 0.47058823704719543 0.45490196347236633 0.4431372582912445
0.35935959219932556 0.37186166644096375 0.30000001192092896 0.18431372940540314 0.19607843458652496 0.21568627655506134
0.3221674859523773 0.2872256338596344 0.29407113790512085 0.4627451002597809 0.48235294222831726 0.4588235318660736
0.2701970338821411 0.2723827660083771 0.16877470910549164 0.1764705926179886 0.1764705926179886 0.16862745583057404
0.27241379022598267 0.28264644742012024 0.2134387344121933 0.10196078568696976 0.08627451211214066 0.08235294371843338
0.12561576068401337 0.31517449021339417 0.9897233247756958 0.47843137383461 0.4588235318660736 0.43529412150382996
0.17192117869853973 0.3244907557964325 0.007509881630539894 0.6274510025978088 0.6117647290229797 0.5686274766921997
0.1551724076271057 0.3530712127685547 0.9897233247756958 0.4274509847164154 0.4117647111415863 0.4000000059604645
0.349261075258255 0.23969683051109314 0.9885375499725342 0.2862745225429535 0.29019609093666077 0.2705882489681244
0.2694581151008606 0.2763303220272064 0.19090908765792847 0.09019608050584793 0.09803921729326248 0.08627451211214066
0.36231526732444763 0.33475446701049805 0.21660079061985016 0.15294118225574493 0.14901961386203766 0.12941177189350128
0.3605911433696747 0.23985472321510315 0.29525691270828247 0.5490196347236633 0.572549045085907 0.5647059082984924
0.22906403243541718 0.2671719491481781 0.9893280863761902 0.9803921580314636 0.9843137264251709 1.0
0.3009852170944214 0.30870047211647034 0.9885375499725342 0.40392157435417175 0.4156862795352936 0.4431372582912445
0.13669951260089874 0.3740723133087158 0.9897233247756958 0.4156862795352936 0.40392157435417175 0.3843137323856354
0.16945812106132507 0.2722248435020447 0.007509881630539894 0.615686297416687 0.5960784554481506 0.572549045085907
0.3285714387893677 0.34628137946128845 0.0063241105526685715 0.5607843399047852 0.5568627715110779 0.4470588266849518
0.29605910181999207 0.38086214661598206 0.006719367578625679 0.6431372761726379 0.6392157077789307 0.5686274766921997
0.22832512855529785 0.2815411388874054 0.0071146246045827866 0.5764706134796143 0.6000000238418579 0.46666666865348816
0.22906403243541718 0.25169745087623596 0.0071146246045827866 0.6117647290229797 0.6000000238418579 0.5333333611488342
0.3453201949596405 0.2583293914794922 0.9881423115730286 0.2980392277240753 0.3019607961177826 0.2823529541492462
0.2064039409160614 0.281225323677063 0.9889327883720398 0.95686274766922 0.9607843160629272 0.9764705896377563
0.17783251404762268 0.37738826870918274 0.9897233247756958 0.41960784792900085 0.40784314274787903 0.38823530077934265
0.3608374297618866 0.3241749703884125 0.27351778745651245 0.07450980693101883 0.07450980693101883 0.06666667014360428
0.18891625106334686 0.2558029294013977 0.0071146246045827866 0.47843137383461 0.4627451002597809 0.4156862795352936
0.35591134428977966 0.3281225264072418 0.1711462438106537 0.16470588743686676 0.1725490242242813 0.16862745583057404
0.3364531993865967 0.26890888810157776 0.006719367578625679 0.4274509847164154 0.41960784792900085 0.3686274588108063
0.2418719232082367 0.23795989155769348 0.006719367578625679 0.6313725709915161 0.6313725709915161 0.529411792755127
0.1591133028268814 0.2989104688167572 0.9897233247756958 0.8980392217636108 0.9098039269447327 0.9372549057006836
0.30000001192092896 0.2674877643585205 0.9893280863761902 0.40784314274787903 0.4000000059604645 0.40392157435417175
0.3618226647377014 0.3699668347835541 0.24822133779525757 0.125490203499794 0.12156862765550613 0.11372549086809158
0.20541872084140778 0.3274909257888794 0.9893280863761902 0.9058823585510254 0.9098039269447327 0.9254902005195618
0.25665023922920227 0.3418600857257843 0.9885375499725342 0.33725491166114807 0.3333333432674408 0.3176470696926117
0.26428571343421936 0.27490919828414917 0.2806324064731598 0.1411764770746231 0.1568627506494522 0.16862745583057404
0.2628078758716583 0.24348649382591248 0.29169961810112 0.1764705926179886 0.1882352977991104 0.2078431397676468
0.2807881832122803 0.2924364507198334 0.9897233247756958 1.0 1.0 1.0
0.278817743062973 0.25075003504753113 0.22173912823200226 0.18039216101169586 0.16078431904315948 0.14901961386203766
0.3450738787651062 0.36001893877983093 0.006719367578625679 0.5529412031173706 0.545098066329956 0.4941176474094391
0.16847290098667145 0.2957524061203003 0.007509881630539894 0.6274510025978088 0.6078431606292725 0.5333333611488342
0.3209359645843506 0.38370439410209656 0.9885375499725342 0.38823530077934265 0.3803921639919281 0.3333333432674408
0.2549261152744293 0.23701247572898865 0.22094862163066864 0.250980406999588 0.250980406999588 0.24313725531101227
0.22881773114204407 0.36317700147628784 0.006719367578625679 0.5960784554481506 0.5921568870544434 0.5098039507865906
0.3600985109806061 0.3500710427761078 0.18853755295276642 0.05098039284348488 0.05098039284348488 0.05098039284348488
0.33103448152542114 0.25075003504753113 0.29486167430877686 0.5607843399047852 0.5843137502670288 0.5686274766921997
0.3295566439628601 0.25690826773643494 0.17786560952663422 0.09019608050584793 0.09019608050584793 0.08235294371843338
0.24876847863197327 0.2929101586341858 0.16837944090366364 0.04313725605607033 0.04313725605607033 0.03529411926865578
0.14876846969127655 0.38654667139053345 0.9901185631752014 0.40392157435417175 0.3921568691730499 0.364705890417099
0.28842365741729736 0.29733145236968994 0.0071146246045827866 0.2862745225429535 0.27843138575553894 0.22745098173618317
0.1945812851190567 0.2521711587905884 0.9893280863761902 1.0 1.0 1.0
0.31477832794189453 0.3882835805416107 0.9889327883720398 0.38823530077934265 0.3803921639919281 0.3333333432674408
0.3266009986400604 0.39207327365875244 0.9889327883720398 0.37254902720451355 0.37254902720451355 0.32549020648002625
0.24876847863197327 0.2760145366191864 0.24703557789325714 0.16862745583057404 0.16470588743686676 0.14901961386203766
0.28719210624694824 0.3197536766529083 0.0071146246045827866 0.5686274766921997 0.5843137502670288 0.4941176474094391
0.34458127617836 0.27206695079803467 0.29486167430877686 0.501960813999176 0.5098039507865906 0.49803921580314636
0.26822659373283386 0.29985788464546204 0.15889328718185425 0.3490196168422699 0.3176470696926117 0.2666666805744171
0.2940886616706848 0.27443549036979675 0.006719367578625679 0.32549020648002625 0.2980392277240753 0.22745098173618317
0.33078816533088684 0.33443865180015564 0.9877470135688782 0.29019609093666077 0.27843138575553894 0.250980406999588
0.20517241954803467 0.29480499029159546 0.0071146246045827866 0.5529412031173706 0.5568627715110779 0.4941176474094391
0.25541871786117554 0.2880151569843292 0.18300394713878632 0.21568627655506134 0.2235294133424759 0.21960784494876862
0.3007389307022095 0.39286279678344727 0.0071146246045827866 0.5333333611488342 0.5254902243614197 0.43529412150382996
0.3541871905326843 0.3413863778114319 0.27272728085517883 0.08627451211214066 0.08627451211214066 0.0784313753247261
0.25295567512512207 0.38638874888420105 0.9897233247756958 0.42352941632270813 0.4117647111415863 0.3764705955982208
0.289901465177536 0.3762829601764679 0.9889327883720398 0.3607843220233917 0.3607843220233917 0.3137255012989044
0.25295567512512207 0.2610137462615967 0.9905138611793518 0.95686274766922 0.9686274528503418 0.9882352948188782
0.1903940886259079 0.2621190547943115 0.9889327883720398 0.9333333373069763 0.9372549057006836 0.95686274766922
0.2731527090072632 0.29701563715934753 0.16403162479400635 0.0941176488995552 0.0941176488995552 0.10196078568696976
0.23645320534706116 0.3278067409992218 0.0071146246045827866 0.545098066329956 0.5372549295425415 0.45490196347236633
0.18940886855125427 0.351018488407135 0.0071146246045827866 0.6039215922355652 0.6039215922355652 0.5647059082984924
0.21773399412631989 0.3423337936401367 0.9893280863761902 0.3803921639919281 0.3764705955982208 0.3686274588108063
0.1743842363357544 0.3874940872192383 0.0071146246045827866 0.6509804129600525 0.6392157077789307 0.6039215922355652
0.2706896662712097 0.281225323677063 0.2296442687511444 0.08627451211214066 0.08627451211214066 0.0784313753247261
0.2662561535835266 0.3129638433456421 0.9881423115730286 1.0 1.0 1.0
0.28399014472961426 0.37723037600517273 0.006719367578625679 0.6666666865348816 0.6745098233222961 0.5921568870544434
0.23694580793380737 0.25722405314445496 0.0071146246045827866 0.5098039507865906 0.4901960790157318 0.37254902720451355
0.2509852349758148 0.2471182644367218 0.26284584403038025 0.13725490868091583 0.13725490868091583 0.12941177189350128
0.35566502809524536 0.26843518018722534 0.0071146246045827866 0.2078431397676468 0.1921568661928177 0.14509804546833038
0.21305418014526367 0.36033475399017334 0.9897233247756958 0.3921568691730499 0.3764705955982208 0.364705890417099
0.2785714268684387 0.24190746247768402 0.17826086282730103 0.16862745583057404 0.1764705926179886 0.1725490242242813
0.20270936191082 0.35243961215019226 0.9897233247756958 0.43529412150382996 0.41960784792900085 0.40784314274787903
0.170689657330513 0.3615979850292206 0.9897233247756958 0.4588235318660736 0.4431372582912445 0.43921568989753723
0.15541872382164001 0.3240170478820801 0.9897233247756958 0.6392157077789307 0.6627451181411743 0.7176470756530762
0.2610837519168854 0.30617401003837585 0.9881423115730286 0.9176470637321472 0.9215686321258545 0.9372549057006836
0.25985223054885864 0.28564661741256714 0.0071146246045827866 0.46666666865348816 0.45098039507865906 0.3450980484485626
0.2497536987066269 0.2529606819152832 0.2719367444515228 0.15294118225574493 0.15294118225574493 0.14509804546833038
0.35935959219932556 0.29764723777770996 0.9881423115730286 0.30588236451148987 0.30588236451148987 0.27450981736183167
0.2497536987066269 0.26227694749832153 0.9901185631752014 0.95686274766922 0.9686274528503418 0.9882352948188782
0.2785714268684387 0.34296542406082153 0.006719367578625679 0.5647059082984924 0.5960784554481506 0.5372549295425415
0.2337438464164734 0.2966998219490051 0.9885375499725342 0.95686274766922 0.9607843160629272 0.9764705896377563
0.3253694474697113 0.35196590423583984 0.0063241105526685715 0.5529412031173706 0.5568627715110779 0.43529412150382996
0.3610837459564209 0.2790146768093109 0.17944663763046265 0.07058823853731155 0.062745101749897 0.06666667014360428
0.16453202068805695 0.3740723133087158 0.0071146246045827866 0.6274510025978088 0.615686297416687 0.5882353186607361
0.2534482777118683 0.24585504829883575 0.21739129722118378 0.2078431397676468 0.2078431397676468 0.20000000298023224
0.35591134428977966 0.34675508737564087 0.0063241105526685715 0.5960784554481506 0.6078431606292725 0.5411764979362488
0.2704433500766754 0.26322439312934875 0.006719367578625679 0.2862745225429535 0.26274511218070984 0.21568627655506134
0.12783251702785492 0.29496288299560547 0.9897233247756958 0.45490196347236633 0.4431372582912445 0.4156862795352936
0.2068965584039688 0.3483341336250305 0.0071146246045827866 0.6745098233222961 0.6666666865348816 0.6196078658103943
0.28325122594833374 0.2409600466489792 0.006719367578625679 0.3294117748737335 0.30588236451148987 0.250980406999588
0.2807881832122803 0.2924364507198334 0.9897233247756958 1.0 1.0 1.0
0.34359607100486755 0.31517449021339417 0.0071146246045827866 0.0470588244497776 0.06666667014360428 0.05098039284348488
0.13990147411823273 0.34659719467163086 0.9897233247756958 0.4313725531101227 0.41960784792900085 0.3921568691730499
0.3009852170944214 0.3154902756214142 0.9885375499725342 0.3607843220233917 0.3803921639919281 0.3921568691730499
0.25295567512512207 0.26243487000465393 0.3027667999267578 0.1764705926179886 0.19607843458652496 0.21960784494876862
0.24113300442695618 0.37265118956565857 0.9893280863761902 0.4117647111415863 0.4117647111415863 0.364705890417099
0.36674878001213074 0.27443549036979675 0.29525691270828247 0.5058823823928833 0.5254902243614197 0.501960813999176
0.36280786991119385 0.2793304920196533 0.0071146246045827866 0.250980406999588 0.24313725531101227 0.19607843458652496
0.23078817129135132 0.30001577734947205 0.0071146246045827866 0.5215686559677124 0.5215686559677124 0.41960784792900085
0.2864531874656677 0.3909679353237152 0.9893280863761902 0.38823530077934265 0.3803921639919281 0.3333333432674408
0.3103448152542114 0.3769145607948303 0.006719367578625679 0.5254902243614197 0.545098066329956 0.45490196347236633
0.16921181976795197 0.3420180082321167 0.9897233247756958 0.45490196347236633 0.45098039507865906 0.4431372582912445
0.31182265281677246 0.2471182644367218 0.9881423115730286 0.37254902720451355 0.3686274588108063 0.3607843220233917
0.257881760597229 0.28612032532691956 0.2023715376853943 0.1764705926179886 0.18431372940540314 0.1725490242242813
0.31896552443504333 0.2780672609806061 0.9881423115730286 0.3764705955982208 0.3803921639919281 0.3607843220233917
0.2625615894794464 0.37833571434020996 0.9893280863761902 0.37254902720451355 0.37254902720451355 0.3333333432674408
0.35960590839385986 0.3540186285972595 0.239130437374115 0.10980392247438431 0.10980392247438431 0.10980392247438431
0.30689653754234314 0.26054003834724426 0.9881423115730286 0.3686274588108063 0.3607843220233917 0.37254902720451355
0.1709359586238861 0.3306489884853363 0.007509881630539894 0.5568627715110779 0.5490196347236633 0.49803921580314636
0.29581281542778015 0.29733145236968994 0.1671936810016632 0.09019608050584793 0.09019608050584793 0.09803921729326248
0.1982758641242981 0.373124897480011 0.0071146246045827866 0.6392157077789307 0.6313725709915161 0.5843137502670288
0.30788177251815796 0.28296226263046265 0.9881423115730286 0.4000000059604645 0.40392157435417175 0.3843137323856354
0.336699515581131 0.3398073613643646 0.0063241105526685715 0.5372549295425415 0.5607843399047852 0.45098039507865906
0.349261075258255 0.34943944215774536 0.9877470135688782 0.35686275362968445 0.3490196168422699 0.29019609093666077
0.25640395283699036 0.2842254936695099 0.291304349899292 0.1764705926179886 0.18039216101169586 0.20000000298023224
0.19236452877521515 0.3851255476474762 0.9897233247756958 0.3960784375667572 0.3803921639919281 0.3686274588108063
0.254679799079895 0.2411179542541504 0.1774703562259674 0.21176470816135406 0.21960784494876862 0.21568627655506134
0.22906403243541718 0.2704879343509674 0.0071146246045827866 0.5058823823928833 0.4901960790157318 0.3921568691730499
0.3482758700847626 0.3361755907535553 0.005928853526711464 0.45490196347236633 0.4313725531101227 0.33725491166114807
0.2103448212146759 0.3930206894874573 0.9897233247756958 0.4117647111415863 0.4000000059604645 0.3803921639919281
0.25665023922920227 0.28327807784080505 0.21620553731918335 0.20000000298023224 0.19607843458652496 0.18039216101169586
0.18448275327682495 0.38686245679855347 0.9897233247756958 0.42352941632270813 0.4117647111415863 0.3921568691730499
0.15147782862186432 0.2671719491481781 0.007509881630539894 0.501960813999176 0.4745098054409027 0.43529412150382996
0.3524630665779114 0.36965101957321167 0.14743083715438843 0.19607843458652496 0.19607843458652496 0.20392157137393951
0.3652709424495697 0.3739144206047058 0.24387352168560028 0.12941177189350128 0.12941177189350128 0.12156862765550613
0.33940887451171875 0.37801989912986755 0.0071146246045827866 0.6941176652908325 0.7176470756530762 0.615686297416687
0.33990147709846497 0.3129638433456421 0.29407113790512085 0.16862745583057404 0.16862745583057404 0.16078431904315948
0.3682265877723694 0.241749569773674 0.29525691270828247 0.5333333611488342 0.5568627715110779 0.5490196347236633
0.26428571343421936 0.2616453468799591 0.27826085686683655 0.1411764770746231 0.1568627506494522 0.16862745583057404
0.2704433500766754 0.27190905809402466 0.23201580345630646 0.0784313753247261 0.07450980693101883 0.06666667014360428
0.321921169757843 0.31406915187835693 0.0071146246045827866 0.4745098054409027 0.45490196347236633 0.3803921639919281
0.17389161884784698 0.30080530047416687 0.007509881630539894 0.5607843399047852 0.5215686559677124 0.48627451062202454
0.16896551847457886 0.24759197235107422 0.007509881630539894 0.5960784554481506 0.5686274766921997 0.529411792755127
0.32684728503227234 0.34959733486175537 0.0063241105526685715 0.6627451181411743 0.6666666865348816 0.6039215922355652
0.3263546824455261 0.23780198395252228 0.9885375499725342 0.35686275362968445 0.3490196168422699 0.3529411852359772
0.36379310488700867 0.37786200642585754 0.27984189987182617 0.09019608050584793 0.09019608050584793 0.08235294371843338
0.27906402945518494 0.39459970593452454 0.9893280863761902 0.3921568691730499 0.3843137323856354 0.33725491166114807
0.24827586114406586 0.2562766373157501 0.28972330689430237 0.1411764770746231 0.16078431904315948 0.1725490242242813
0.3096058964729309 0.24238118529319763 0.17430830001831055 0.1568627506494522 0.16470588743686676 0.16078431904315948
0.3209359645843506 0.3023843467235565 0.0071146246045827866 0.37254902720451355 0.3843137323856354 0.27843138575553894
0.20073892176151276 0.3131217360496521 0.0071146246045827866 0.6470588445663452 0.6352941393852234 0.6000000238418579
0.35049259662628174 0.3011211156845093 0.29446640610694885 0.501960813999176 0.5176470875740051 0.5137255191802979
0.27684730291366577 0.2850149869918823 0.0071146246045827866 0.364705890417099 0.35686275362968445 0.27450981736183167
0.1470443308353424 0.2589609920978546 0.9897233247756958 0.43921568989753723 0.4274509847164154 0.3921568691730499
0.1472906470298767 0.35449233651161194 0.007509881630539894 0.5215686559677124 0.529411792755127 0.47843137383461
0.312561571598053 0.2835938632488251 0.1774703562259674 0.23529411852359772 0.250980406999588 0.2549019753932953
0.3578817844390869 0.3154902756214142 0.28893280029296875 0.07450980693101883 0.07450980693101883 0.07450980693101883
0.34753695130348206 0.31059530377388 0.29446640610694885 0.46666666865348816 0.4745098054409027 0.45490196347236633
0.29113301634788513 0.2559608519077301 0.991304337978363 0.8980392217636108 0.9254902005195618 0.95686274766922
0.36379310488700867 0.34675508737564087 0.16521738469600677 0.250980406999588 0.29019609093666077 0.29411765933036804
0.2620689570903778 0.3159639835357666 0.006719367578625679 0.5411764979362488 0.5333333611488342 0.4431372582912445
0.16403940320014954 0.33475446701049805 0.007509881630539894 0.5843137502670288 0.5843137502670288 0.5372549295425415
0.3692118227481842 0.35733458399772644 0.29407113790512085 0.48627451062202454 0.5215686559677124 0.5411764979362488
0.25147783756256104 0.26827728748321533 0.18972331285476685 0.20392157137393951 0.20392157137393951 0.20392157137393951
0.24458128213882446 0.31185850501060486 0.9885375499725342 0.9960784316062927 0.9960784316062927 0.9960784316062927
0.14605911076068878 0.36586135625839233 0.007509881630539894 0.7254902124404907 0.7098039388656616 0.6745098233222961
0.1546798050403595 0.3426496088504791 0.9897233247756958 0.4156862795352936 0.40784314274787903 0.4117647111415863
0.16527093946933746 0.3169114291667938 0.007509881630539894 0.6078431606292725 0.6117647290229797 0.5568627715110779
0.27561575174331665 0.24332860112190247 0.25770750641822815 0.5098039507865906 0.5137255191802979 0.48235294222831726
0.16773399710655212 0.34975525736808777 0.9897233247756958 0.4627451002597809 0.43921568989753723 0.43921568989753723
0.3608374297618866 0.3685457110404968 0.2031620591878891 0.09803921729326248 0.11372549086809158 0.10980392247438431
0.3288177251815796 0.25106585025787354 0.9881423115730286 0.35686275362968445 0.3490196168422699 0.3529411852359772
0.17315271496772766 0.3079109489917755 0.9897233247756958 0.8980392217636108 0.9019607901573181 0.9176470637321472
0.18325123190879822 0.32670140266418457 0.0071146246045827866 0.6117647290229797 0.615686297416687 0.5607843399047852
0.36724138259887695 0.2698563039302826 0.9881423115730286 0.29019609093666077 0.2862745225429535 0.2705882489681244
0.35098522901535034 0.3309647738933563 0.9877470135688782 0.29019609093666077 0.29411765933036804 0.239215686917305
