0.4714285731315613 0.4560239911079407 0.007509881630539894 0.19607843458652496 0.20392157137393951 0.20000000298023224
0.4049261212348938 0.4403916001319885 0.17549407482147217 0.3686274588108063 0.37254902720451355 0.3490196168422699
0.5847290754318237 0.44354966282844543 0.29407113790512085 0.11764705926179886 0.13725490868091583 0.12156862765550613
0.5076354742050171 0.4103900194168091 0.2960474193096161 0.5843137502670288 0.5843137502670288 0.5764706134796143
0.4795566499233246 0.41544291377067566 0.2956521809101105 0.5882353186607361 0.6117647290229797 0.6117647290229797
0.5103448033332825 0.5048160552978516 0.9881423115730286 0.4000000059604645 0.4000000059604645 0.3529411852359772
0.47068965435028076 0.4501815736293793 0.2956521809101105 0.5843137502670288 0.6039215922355652 0.6274510025978088
0.37167486548423767 0.5395547151565552 0.007905138656497002 0.3333333432674408 0.34117648005485535 0.29019609093666077
0.4167487621307373 0.5070266723632812 0.1667984127998352 0.48627451062202454 0.4901960790157318 0.46666666865348816
0.4684728980064392 0.43549659848213196 0.29525691270828247 0.6117647290229797 0.6117647290229797 0.658823549747467
0.37832513451576233 0.4861834943294525 0.20039525628089905 0.09803921729326248 0.11372549086809158 0.125490203499794
0.49802955985069275 0.4459182024002075 0.010276679880917072 0.40784314274787903 0.4470588266849518 0.4431372582912445
0.5842364430427551 0.5196589231491089 0.2920948565006256 0.125490203499794 0.16862745583057404 0.15294118225574493
0.5349753499031067 0.5161850452423096 0.9885375499725342 0.4156862795352936 0.4000000059604645 0.3529411852359772
0.45492610335350037 0.46928784251213074 0.1873517781496048 0.2666666805744171 0.2705882489681244 0.250980406999588
0.40985220670700073 0.5266066789627075 0.9901185631752014 0.3529411852359772 0.3450980484485626 0.2980392277240753
0.39926108717918396 0.40060004591941833 0.29446640610694885 0.6196078658103943 0.6313725709915161 0.6901960968971252
0.42266011238098145 0.47860413789749146 0.9897233247756958 0.42352941632270813 0.4156862795352936 0.364705890417099
0.5536946058273315 0.4710247814655304 0.008695651777088642 0.35686275362968445 0.3960784375667572 0.3607843220233917
0.39088669419288635 0.5435022711753845 0.9909090995788574 0.40784314274787903 0.3960784375667572 0.3607843220233917
0.6142857074737549 0.47860413789749146 0.008695651777088642 0.21176470816135406 0.21960784494876862 0.2078431397676468
0.47339901328086853 0.40612664818763733 0.005533596966415644 0.13725490868091583 0.14509804546833038 0.1411764770746231
0.5413793325424194 0.5273962020874023 0.9889327883720398 0.3803921639919281 0.37254902720451355 0.32549020648002625
0.5477832555770874 0.44149690866470337 0.9897233247756958 0.4156862795352936 0.4000000059604645 0.364705890417099
0.43103447556495667 0.45223432779312134 0.29486167430877686 0.5686274766921997 0.5843137502670288 0.6196078658103943
0.6027093529701233 0.402494877576828 0.007509881630539894 0.08627451211214066 0.08235294371843338 0.07450980693101883
0.3931034505367279 0.44418126344680786 0.15770751237869263 0.3686274588108063 0.37254902720451355 0.3490196168422699
0.40197044610977173 0.45791885256767273 0.007905138656497002 0.3450980484485626 0.3333333432674408 0.27450981736183167
0.4672413766384125 0.4054950177669525 0.9885375499725342 0.40392157435417175 0.3843137323856354 0.3686274588108063
0.5694581270217896 0.5054476261138916 0.9893280863761902 0.4156862795352936 0.40784314274787903 0.35686275362968445
0.3958128094673157 0.4138638973236084 0.9889327883720398 0.3960784375667572 0.3843137323856354 0.3490196168422699
0.3778325021266937 0.4887099266052246 0.00909090880304575 0.24705882370471954 0.2549019753932953 0.20392157137393951
0.5088669657707214 0.43518081307411194 0.011067193932831287 0.3921568691730499 0.4156862795352936 0.40784314274787903
0.4677339792251587 0.3998105227947235 0.005928853526711464 0.1411764770746231 0.14509804546833038 0.15294118225574493
0.3997536897659302 0.4768671989440918 0.9901185631752014 0.41960784792900085 0.4117647111415863 0.364705890417099
0.39408865571022034 0.45539239048957825 0.29407113790512085 0.572549045085907 0.5882353186607361 0.5921568870544434
0.4014778435230255 0.4964471757411957 0.00830039568245411 0.054901961237192154 0.062745101749897 0.05882352963089943
0.5921182036399841 0.44686561822891235 0.2968379557132721 0.1921568661928177 0.19607843458652496 0.20392157137393951
0.49876847863197327 0.41512709856033325 0.005533596966415644 0.2235294133424759 0.23137255012989044 0.21176470816135406
0.4837438464164734 0.4427601397037506 0.00909090880304575 0.2980392277240753 0.32156863808631897 0.3137255012989044
0.38743841648101807 0.49913153052330017 0.14387351274490356 0.4117647111415863 0.4156862795352936 0.3921568691730499
0.6150246262550354 0.551239550113678 0.9901185631752014 0.3921568691730499 0.3803921639919281 0.3450980484485626
0.6150246262550354 0.41181114315986633 0.29960474371910095 0.48627451062202454 0.4941176474094391 0.4745098054409027
0.3884236514568329 0.4332859516143799 0.15415020287036896 0.3686274588108063 0.37254902720451355 0.3490196168422699
0.39088669419288635 0.44449707865715027 0.007905138656497002 0.4156862795352936 0.4000000059604645 0.35686275362968445
0.45862069725990295 0.4253908097743988 0.9893280863761902 0.4000000059604645 0.38823530077934265 0.3529411852359772
0.5894088745117188 0.4855518639087677 0.2972331941127777 0.5607843399047852 0.5568627715110779 0.5372549295425415
0.5022167563438416 0.5040265321731567 0.9885375499725342 0.42352941632270813 0.40784314274787903 0.364705890417099
0.39901477098464966 0.4972366988658905 0.18102766573429108 0.06666667014360428 0.06666667014360428 0.07450980693101883
0.4197044372558594 0.41481131315231323 0.29486167430877686 0.6039215922355652 0.615686297416687 0.6352941393852234
0.41502463817596436 0.4681825339794159 0.29446640610694885 0.5254902243614197 0.5411764979362488 0.545098066329956
0.4078817665576935 0.44086530804634094 0.29446640610694885 0.6039215922355652 0.615686297416687 0.6352941393852234
0.5485221743583679 0.4804989695549011 0.9893280863761902 0.32156863808631897 0.3294117748737335 0.2862745225429535
0.41921183466911316 0.4906047582626343 0.9897233247756958 0.4117647111415863 0.3960784375667572 0.3490196168422699
0.403940886259079 0.4102321267127991 0.9889327883720398 0.4000000059604645 0.4000000059604645 0.3607843220233917
0.5049260854721069 0.43533870577812195 0.011462450958788395 0.37254902720451355 0.3960784375667572 0.38823530077934265
0.3721674978733063 0.5223432779312134 0.1664031594991684 0.5843137502670288 0.5960784554481506 0.5686274766921997
0.5849753618240356 0.40060004591941833 0.2853755056858063 0.03529411926865578 0.05098039284348488 0.062745101749897
0.5918719172477722 0.4304437041282654 0.2960474193096161 0.16862745583057404 0.1568627506494522 0.12156862765550613
0.504679799079895 0.49881571531295776 0.2968379557132721 0.5254902243614197 0.5333333611488342 0.5215686559677124
0.6125615835189819 0.48760461807250977 0.005928853526711464 0.21960784494876862 0.22745098173618317 0.21568627655506134
0.546798050403595 0.44354966282844543 0.9897233247756958 0.38823530077934265 0.37254902720451355 0.33725491166114807
0.4477832615375519 0.5333964824676514 0.004743082914501429 0.40392157435417175 0.4156862795352936 0.3490196168422699
0.4128078818321228 0.5395547151565552 0.29525691270828247 0.501960813999176 0.5372549295425415 0.5254902243614197
0.378078818321228 0.4721301198005676 0.1359683722257614 0.3686274588108063 0.37254902720451355 0.3490196168422699
0.48226600885391235 0.424601286649704 0.2956521809101105 0.6235294342041016 0.6235294342041016 0.6549019813537598
0.5990147590637207 0.5207642316818237 0.2964426875114441 0.6000000238418579 0.615686297416687 0.6196078658103943
0.4529556632041931 0.48128849267959595 0.9893280863761902 0.3686274588108063 0.3607843220233917 0.30980393290519714
0.379802942276001 0.545712947845459 0.007509881630539894 0.26274511218070984 0.2549019753932953 0.20392157137393951
0.49778324365615845 0.5259750485420227 0.9889327883720398 0.3921568691730499 0.3843137323856354 0.33725491166114807
0.5748768448829651 0.4711827039718628 0.009881422854959965 0.3019607961177826 0.30980393290519714 0.29019609093666077
0.5263546705245972 0.4517606198787689 0.9893280863761902 0.40784314274787903 0.3921568691730499 0.3490196168422699
0.44950738549232483 0.535291314125061 0.004743082914501429 0.4156862795352936 0.41960784792900085 0.35686275362968445
0.5995073914527893 0.4906047582626343 0.0031620552763342857 0.1882352977991104 0.19607843458652496 0.1921568661928177
0.5261083841323853 0.41275855898857117 0.9889327883720398 0.40784314274787903 0.38823530077934265 0.37254902720451355
0.3997536897659302 0.47007736563682556 0.9901185631752014 0.4117647111415863 0.4000000059604645 0.364705890417099
0.4440886676311493 0.47323542833328247 0.9897233247756958 0.4117647111415863 0.40392157435417175 0.35686275362968445
0.5642856955528259 0.546186625957489 0.00830039568245411 0.3490196168422699 0.3686274588108063 0.34117648005485535
0.5724138021469116 0.4771830141544342 0.005533596966415644 0.2705882489681244 0.29019609093666077 0.2666666805744171
0.5334975123405457 0.551555335521698 0.005138339940458536 0.4000000059604645 0.43529412150382996 0.4156862795352936
0.5197044610977173 0.4656561017036438 0.9893280863761902 0.3137255012989044 0.30980393290519714 0.29019609093666077
0.6088669896125793 0.4132322669029236 0.29960474371910095 0.48627451062202454 0.4901960790157318 0.46666666865348816
0.4201970398426056 0.4249171018600464 0.00830039568245411 0.12941177189350128 0.13333334028720856 0.11372549086809158
0.6157635450363159 0.4482867419719696 0.9897233247756958 0.4000000059604645 0.38823530077934265 0.3607843220233917
0.4125615656375885 0.4288646876811981 0.9893280863761902 0.4117647111415863 0.4000000059604645 0.37254902720451355
0.571921169757843 0.5258171558380127 0.9893280863761902 0.3921568691730499 0.3843137323856354 0.3333333432674408
0.614039421081543 0.49297332763671875 0.004347825888544321 0.21960784494876862 0.22745098173618317 0.2235294133424759
0.5298029780387878 0.44354966282844543 0.9893280863761902 0.4431372582912445 0.43529412150382996 0.3843137323856354
0.5938423871994019 0.4419706165790558 0.01067193690687418 0.2705882489681244 0.27450981736183167 0.2549019753932953
0.575123131275177 0.39475762844085693 0.004743082914501429 0.22745098173618317 0.21568627655506134 0.1882352977991104
0.42955663800239563 0.4774988293647766 0.007509881630539894 0.21568627655506134 0.2078431397676468 0.1568627506494522
0.4044334888458252 0.5466603636741638 0.1608695685863495 0.09019608050584793 0.09019608050584793 0.09019608050584793
0.5549260973930359 0.5393968224525452 0.008695651777088642 0.3921568691730499 0.41960784792900085 0.38823530077934265
0.42586207389831543 0.4332859516143799 0.29486167430877686 0.6000000238418579 0.6000000238418579 0.6313725709915161
0.5581280589103699 0.4111795425415039 0.9893280863761902 0.3803921639919281 0.3686274588108063 0.3490196168422699
0.45369458198547363 0.5003947615623474 0.29525691270828247 0.49803921580314636 0.5215686559677124 0.5058823823928833
0.463300496339798 0.4359703063964844 0.29525691270828247 0.6117647290229797 0.6117647290229797 0.6431372761726379
0.6046798229217529 0.4088110029697418 0.29960474371910095 0.5882353186607361 0.6039215922355652 0.615686297416687
0.5273398756980896 0.44402337074279785 0.011857707053422928 0.4588235318660736 0.4941176474094391 0.48235294222831726
0.46206897497177124 0.44718143343925476 0.005928853526711464 0.13333334028720856 0.13725490868091583 0.14509804546833038
0.5485221743583679 0.47228801250457764 0.007509881630539894 0.4274509847164154 0.45490196347236633 0.42352941632270813
0.5544335246086121 0.47860413789749146 0.0035573123022913933 0.3764705955982208 0.40392157435417175 0.37254902720451355
0.3810344934463501 0.48760461807250977 0.29288536310195923 0.2980392277240753 0.3450980484485626 0.3450980484485626
0.42635467648506165 0.5063951015472412 0.1671936810016632 0.22745098173618317 0.20000000298023224 0.16862745583057404
0.5044335126876831 0.5206063389778137 0.29288536310195923 0.4313725531101227 0.4313725531101227 0.4313725531101227
0.3839901387691498 0.4373914301395416 0.14703556895256042 0.3686274588108063 0.37254902720451355 0.3490196168422699
0.39162561297416687 0.48760461807250977 0.18616600334644318 0.04313725605607033 0.03921568766236305 0.0313725508749485
0.39827585220336914 0.4568135142326355 0.29407113790512085 0.5568627715110779 0.572549045085907 0.5843137502670288
0.45517241954803467 0.47276172041893005 0.005138339940458536 0.501960813999176 0.5098039507865906 0.45490196347236633
0.5381773114204407 0.4108637273311615 0.9889327883720398 0.3960784375667572 0.3843137323856354 0.35686275362968445
0.49729064106941223 0.529291033744812 0.0031620552763342857 0.16470588743686676 0.16862745583057404 0.1764705926179886
0.5325123071670532 0.39838939905166626 0.9889327883720398 0.3764705955982208 0.35686275362968445 0.34117648005485535
0.40344828367233276 0.4396020770072937 0.18656127154827118 0.03529411926865578 0.03529411926865578 0.03529411926865578
0.45812806487083435 0.551239550113678 0.2968379557132721 0.572549045085907 0.5843137502670288 0.6117647290229797
0.5674876570701599 0.5076583027839661 0.9893280863761902 0.4117647111415863 0.40392157435417175 0.3529411852359772
0.4288177192211151 0.4708668887615204 0.17470355331897736 0.2980392277240753 0.3019607961177826 0.27843138575553894
0.6083743572235107 0.44418126344680786 0.010276679880917072 0.10980392247438431 0.10980392247438431 0.10980392247438431
0.4556650221347809 0.48365703225135803 0.18972331285476685 0.019607843831181526 0.03529411926865578 0.03921568766236305
0.6009852290153503 0.5248697400093079 0.2964426875114441 0.5960784554481506 0.6117647290229797 0.6078431606292725
0.5036945939064026 0.5079740881919861 0.0015810276381671429 0.5372549295425415 0.5843137502670288 0.5686274766921997
0.3931034505367279 0.43186482787132263 0.29446640610694885 0.6470588445663452 0.658823549747467 0.686274528503418
0.4802955687046051 0.4222327470779419 0.9889327883720398 0.3607843220233917 0.3529411852359772 0.30588236451148987
0.4322659969329834 0.5063951015472412 0.007905138656497002 0.3686274588108063 0.3803921639919281 0.33725491166114807
0.5650246143341064 0.465182363986969 0.011462450958788395 0.40392157435417175 0.42352941632270813 0.4000000059604645
0.5278325080871582 0.48097267746925354 0.9885375499725342 0.3137255012989044 0.32156863808631897 0.3019607961177826
0.37167486548423767 0.49297332763671875 0.2035573124885559 0.10588235408067703 0.10980392247438431 0.125490203499794
0.44999998807907104 0.5043423175811768 0.9893280863761902 0.3686274588108063 0.37254902720451355 0.3176470696926117
0.4995073974132538 0.4590241611003876 0.2960474193096161 0.5372549295425415 0.5529412031173706 0.5490196347236633
0.3741379380226135 0.4661298096179962 0.1351778656244278 0.3686274588108063 0.37254902720451355 0.3490196168422699
0.4884236454963684 0.545870840549469 0.9901185631752014 0.3686274588108063 0.35686275362968445 0.32156863808631897
0.3849753737449646 0.4849202632904053 0.29328063130378723 0.47843137383461 0.5215686559677124 0.5058823823928833
0.5859605669975281 0.49549975991249084 0.0023715414572507143 0.1921568661928177 0.20000000298023224 0.1882352977991104
0.3931034505367279 0.4334438741207123 0.29446640610694885 0.6196078658103943 0.6313725709915161 0.658823549747467
0.4241379201412201 0.4819200932979584 0.9897233247756958 0.4274509847164154 0.4313725531101227 0.3764705955982208
0.5519704222679138 0.48997315764427185 0.9893280863761902 0.3176470696926117 0.3294117748737335 0.2862745225429535
0.38719213008880615 0.5425548553466797 0.156521737575531 0.06666667014360428 0.06666667014360428 0.06666667014360428
0.4157635569572449 0.48697298765182495 0.29328063130378723 0.4745098054409027 0.4901960790157318 0.48627451062202454
0.39458128809928894 0.5307121276855469 0.29446640610694885 0.4901960790157318 0.5098039507865906 0.48627451062202454
0.47364532947540283 0.47007736563682556 0.0063241105526685715 0.45490196347236633 0.47843137383461 0.47843137383461
0.3736453056335449 0.5261329412460327 0.18102766573429108 0.30588236451148987 0.32549020648002625 0.33725491166114807
0.5007389187812805 0.44402337074279785 0.01067193690687418 0.40784314274787903 0.4470588266849518 0.4431372582912445
0.5662561655044556 0.5480814576148987 0.007905138656497002 0.30980393290519714 0.3294117748737335 0.3019607961177826
0.5266009569168091 0.4258645176887512 0.9893280863761902 0.3294117748737335 0.3176470696926117 0.2823529541492462
0.503201961517334 0.49913153052330017 0.2968379557132721 0.5137255191802979 0.529411792755127 0.5254902243614197
0.4881773293018341 0.5330806970596313 0.9893280863761902 0.33725491166114807 0.3294117748737335 0.2823529541492462
0.5869458317756653 0.5390809774398804 0.9897233247756958 0.3960784375667572 0.3960784375667572 0.3490196168422699
0.4332512319087982 0.4741828441619873 0.29486167430877686 0.5215686559677124 0.5372549295425415 0.5490196347236633
0.5896551609039307 0.54018634557724 0.2964426875114441 0.6666666865348816 0.6823529601097107 0.686274528503418
0.5886699557304382 0.5430285930633545 0.2964426875114441 0.6431372761726379 0.658823549747467 0.6705882549285889
0.48669952154159546 0.5308700203895569 0.2972331941127777 0.5647059082984924 0.5882353186607361 0.5803921818733215
0.38669949769973755 0.5225011706352234 0.29367589950561523 0.46666666865348816 0.5058823823928833 0.47058823704719543
0.40344828367233276 0.46707722544670105 0.15810276567935944 0.3450980484485626 0.3490196168422699 0.32549020648002625
0.3933497667312622 0.5035527944564819 0.1561264842748642 0.43921568989753723 0.4431372582912445 0.41960784792900085
0.4157635569572449 0.46155059337615967 0.17035573720932007 0.34117648005485535 0.3450980484485626 0.32156863808631897
0.4990147650241852 0.4830254316329956 0.9889327883720398 0.4156862795352936 0.4156862795352936 0.3764705955982208
0.4197044372558594 0.46691930294036865 0.29446640610694885 0.5333333611488342 0.5568627715110779 0.5568627715110779
0.4290640354156494 0.5390809774398804 0.006719367578625679 0.13333334028720856 0.13725490868091583 0.11764705926179886
0.5199507474899292 0.5315016508102417 0.0035573123022913933 0.15294118225574493 0.16862745583057404 0.1725490242242813
0.6049261093139648 0.5521869659423828 0.2964426875114441 0.6392157077789307 0.658823549747467 0.6745098233222961
0.3891625702381134 0.47039318084716797 0.9901185631752014 0.4156862795352936 0.40784314274787903 0.3607843220233917
0.5610837340354919 0.47544607520103455 0.0063241105526685715 0.3764705955982208 0.40392157435417175 0.37254902720451355
0.4278325140476227 0.48413074016571045 0.007509881630539894 0.2823529541492462 0.27450981736183167 0.2235294133424759
0.4081280827522278 0.40075793862342834 0.9885375499725342 0.37254902720451355 0.364705890417099 0.3176470696926117
0.4017241299152374 0.45191851258277893 0.18656127154827118 0.019607843831181526 0.019607843831181526 0.019607843831181526
0.39064040780067444 0.46360334753990173 0.9901185631752014 0.43529412150382996 0.4274509847164154 0.3803921639919281
0.44630542397499084 0.5525027513504028 0.005533596966415644 0.41960784792900085 0.4117647111415863 0.3607843220233917
0.3894088566303253 0.5030791163444519 0.008695651777088642 0.062745101749897 0.054901961237192154 0.05882352963089943
0.4123152792453766 0.44749724864959717 0.1762845814228058 0.3607843220233917 0.364705890417099 0.34117648005485535
0.4881773293018341 0.44954997301101685 0.009486165829002857 0.42352941632270813 0.46666666865348816 0.45098039507865906
0.3775862157344818 0.45539239048957825 0.19486166536808014 0.10196078568696976 0.09803921729326248 0.09019608050584793
0.45812806487083435 0.4426022469997406 0.29525691270828247 0.5921568870544434 0.6000000238418579 0.6470588445663452
0.5426108241081238 0.5147639513015747 0.9885375499725342 0.3960784375667572 0.3843137323856354 0.3490196168422699
0.5918719172477722 0.5052897334098816 0.9901185631752014 0.41960784792900085 0.4117647111415863 0.3529411852359772
0.43152710795402527 0.45239222049713135 0.1818181872367859 0.3529411852359772 0.35686275362968445 0.3333333432674408
0.5812807679176331 0.49834200739860535 0.0019762846641242504 0.20392157137393951 0.21176470816135406 0.20000000298023224
0.5091133117675781 0.39807358384132385 0.0019762846641242504 0.21176470816135406 0.21568627655506134 0.19607843458652496
0.43448275327682495 0.47781461477279663 0.18893280625343323 0.03529411926865578 0.03529411926865578 0.03529411926865578
0.41034483909606934 0.48397284746170044 0.9897233247756958 0.40784314274787903 0.4000000059604645 0.3529411852359772
0.4997536838054657 0.44639191031455994 0.010276679880917072 0.41960784792900085 0.46666666865348816 0.4588235318660736
0.40566501021385193 0.5490288734436035 0.17351779341697693 0.06666667014360428 0.06666667014360428 0.06666667014360428
0.5371921062469482 0.529764711856842 0.9893280863761902 0.3764705955982208 0.3607843220233917 0.3176470696926117
0.4869458079338074 0.4623401165008545 0.2960474193096161 0.5333333611488342 0.5647059082984924 0.572549045085907
0.6049261093139648 0.5106584429740906 0.9901185631752014 0.38823530077934265 0.3803921639919281 0.3294117748737335
0.39901477098464966 0.5338702201843262 0.16047431528568268 0.0941176488995552 0.0941176488995552 0.0941176488995552
0.47758620977401733 0.5082899332046509 0.2964426875114441 0.5176470875740051 0.5333333611488342 0.5372549295425415
0.4517241418361664 0.4849202632904053 0.9893280863761902 0.3843137323856354 0.3764705955982208 0.3294117748737335
0.40665024518966675 0.46755093336105347 0.186956524848938 0.019607843831181526 0.019607843831181526 0.019607843831181526
0.47512316703796387 0.4048634171485901 0.2956521809101105 0.5882353186607361 0.6039215922355652 0.615686297416687
0.45344826579093933 0.5157113671302795 0.9893280863761902 0.34117648005485535 0.3333333432674408 0.2823529541492462
0.45344826579093933 0.45239222049713135 0.29525691270828247 0.5803921818733215 0.5960784554481506 0.6392157077789307
0.44950738549232483 0.4683404266834259 0.18616600334644318 0.27843138575553894 0.2823529541492462 0.26274511218070984
0.506157636642456 0.518711507320404 0.2972331941127777 0.6039215922355652 0.6039215922355652 0.6117647290229797
0.5027093887329102 0.48460444808006287 0.9889327883720398 0.3176470696926117 0.32549020648002625 0.27450981736183167
0.5231527090072632 0.49044686555862427 0.9885375499725342 0.3137255012989044 0.3176470696926117 0.2862745225429535
0.43128079175949097 0.5253434181213379 0.0071146246045827866 0.3843137323856354 0.3960784375667572 0.3607843220233917
0.42561575770378113 0.43770724534988403 0.9897233247756958 0.4431372582912445 0.43529412150382996 0.38823530077934265
0.5923645496368408 0.5098689198493958 0.003952569328248501 0.19607843458652496 0.19607843458652496 0.1882352977991104
0.4371921122074127 0.397126168012619 0.9885375499725342 0.364705890417099 0.3529411852359772 0.3176470696926117
0.42955663800239563 0.47623559832572937 0.29446640610694885 0.5176470875740051 0.5333333611488342 0.5372549295425415
0.511083722114563 0.546028733253479 0.2865612506866455 0.545098066329956 0.5411764979362488 0.5254902243614197
0.40221676230430603 0.4392862915992737 0.007509881630539894 0.3529411852359772 0.34117648005485535 0.30588236451148987
0.4805418848991394 0.48397284746170044 0.2956521809101105 0.5215686559677124 0.5372549295425415 0.5411764979362488
0.49876847863197327 0.41512709856033325 0.005533596966415644 0.2235294133424759 0.23137255012989044 0.21176470816135406
0.5059113502502441 0.5127111673355103 0.9885375499725342 0.3803921639919281 0.37254902720451355 0.3137255012989044
0.5288177132606506 0.4721301198005676 0.0071146246045827866 0.48627451062202454 0.529411792755127 0.5058823823928833
0.5652709603309631 0.5283436179161072 0.004743082914501429 0.054901961237192154 0.05098039284348488 0.04313725605607033
0.6034482717514038 0.42949628829956055 0.005928853526711464 0.27843138575553894 0.2666666805744171 0.239215686917305
0.38620689511299133 0.5030791163444519 0.00909090880304575 0.08627451211214066 0.08235294371843338 0.07450980693101883
0.5197044610977173 0.4544449746608734 0.012252964079380035 0.46666666865348816 0.5058823823928833 0.501960813999176
0.4605911374092102 0.4770251214504242 0.18972331285476685 0.12156862765550613 0.10196078568696976 0.0784313753247261
0.4450739026069641 0.4940786361694336 0.18339921534061432 0.0470588244497776 0.0470588244497776 0.0470588244497776
0.49039408564567566 0.40707406401634216 0.9885375499725342 0.3921568691730499 0.3803921639919281 0.3450980484485626
0.4640394151210785 0.49013105034828186 0.29525691270828247 0.501960813999176 0.5254902243614197 0.5098039507865906
0.4613300561904907 0.4910784661769867 0.00830039568245411 0.05882352963089943 0.06666667014360428 0.0470588244497776
0.5320196747779846 0.46928784251213074 0.9889327883720398 0.3137255012989044 0.32549020648002625 0.2980392277240753
0.39064040780067444 0.5308700203895569 0.16956521570682526 0.05882352963089943 0.05882352963089943 0.05882352963089943
0.39605912566185 0.5248697400093079 0.16007904708385468 0.09019608050584793 0.09019608050584793 0.09019608050584793
0.44950738549232483 0.49865782260894775 0.9889327883720398 0.3921568691730499 0.3843137323856354 0.32549020648002625
0.495320200920105 0.5190272927284241 0.9889327883720398 0.4117647111415863 0.4156862795352936 0.3529411852359772
0.5386699438095093 0.45586609840393066 0.9897233247756958 0.38823530077934265 0.3843137323856354 0.364705890417099
0.4926108419895172 0.5315016508102417 0.0035573123022913933 0.11372549086809158 0.11372549086809158 0.12156862765550613
0.39827585220336914 0.49834200739860535 0.1505928784608841 0.42352941632270813 0.4274509847164154 0.40392157435417175
0.47783252596855164 0.4568135142326355 0.9897233247756958 0.40784314274787903 0.4000000059604645 0.3529411852359772
0.5088669657707214 0.39791569113731384 0.9885375499725342 0.3490196168422699 0.33725491166114807 0.3176470696926117
0.5307881832122803 0.518711507320404 0.0063241105526685715 0.18039216101169586 0.19607843458652496 0.1921568661928177
0.4078817665576935 0.5452392101287842 0.0071146246045827866 0.20000000298023224 0.1882352977991104 0.15294118225574493
0.4655172526836395 0.42428550124168396 0.9889327883720398 0.4117647111415863 0.4117647111415863 0.37254902720451355
0.378078818321228 0.3968103528022766 0.007509881630539894 0.2980392277240753 0.30980393290519714 0.24313725531101227
0.5273398756980896 0.46155059337615967 0.01304347813129425 0.4627451002597809 0.501960813999176 0.49803921580314636
0.3852216601371765 0.5037107467651367 0.00909090880304575 0.05098039284348488 0.0470588244497776 0.03921568766236305
0.3896551728248596 0.489025741815567 0.14150197803974152 0.3803921639919281 0.3843137323856354 0.3607843220233917
0.4689655303955078 0.4200221002101898 0.0063241105526685715 0.1411764770746231 0.14901961386203766 0.14509804546833038
0.4201970398426056 0.4939207434654236 0.156521737575531 0.4117647111415863 0.42352941632270813 0.38823530077934265
0.3881773352622986 0.5033949017524719 0.9901185631752014 0.3764705955982208 0.364705890417099 0.3294117748737335
0.5344827771186829 0.47813042998313904 0.9889327883720398 0.3176470696926117 0.3294117748737335 0.29411765933036804
0.43423646688461304 0.48081478476524353 0.29407113790512085 0.501960813999176 0.5254902243614197 0.5176470875740051
0.42216747999191284 0.5011842846870422 0.15928854048252106 0.47843137383461 0.48627451062202454 0.46666666865348816
0.4408867061138153 0.5081319808959961 0.007509881630539894 0.33725491166114807 0.3607843220233917 0.30588236451148987
0.4603448212146759 0.4514448046684265 0.29525691270828247 0.5803921818733215 0.5960784554481506 0.6313725709915161
0.3802955746650696 0.44165483117103577 0.14308300614356995 0.3686274588108063 0.37254902720451355 0.3490196168422699
0.37167486548423767 0.5037107467651367 0.2905138432979584 0.4274509847164154 0.45490196347236633 0.4274509847164154
0.46280789375305176 0.48081478476524353 0.00909090880304575 0.5215686559677124 0.5411764979362488 0.5176470875740051
0.3896551728248596 0.5495026111602783 0.29446640610694885 0.5254902243614197 0.5686274766921997 0.5843137502670288
0.45123153924942017 0.5521869659423828 0.2964426875114441 0.572549045085907 0.5843137502670288 0.6117647290229797
0.45049262046813965 0.4688141345977783 0.005533596966415644 0.3764705955982208 0.3921568691730499 0.32549020648002625
0.47487685084342957 0.5411337614059448 0.2968379557132721 0.5490196347236633 0.5686274766921997 0.5843137502670288
0.5088669657707214 0.44149690866470337 0.011462450958788395 0.4274509847164154 0.4627451002597809 0.4588235318660736
0.4078817665576935 0.39523133635520935 0.9885375499725342 0.35686275362968445 0.34117648005485535 0.30588236451148987
0.6078817844390869 0.5161850452423096 0.005138339940458536 0.20000000298023224 0.2078431397676468 0.19607843458652496
0.4322659969329834 0.42696982622146606 0.9893280863761902 0.40784314274787903 0.40784314274787903 0.3764705955982208
0.5229064226150513 0.4419706165790558 0.011857707053422928 0.4627451002597809 0.49803921580314636 0.4941176474094391
0.3933497667312622 0.45491868257522583 0.29407113790512085 0.5764706134796143 0.5921568870544434 0.5960784554481506
0.6068965792655945 0.4144954979419708 0.9893280863761902 0.364705890417099 0.3529411852359772 0.3333333432674408
0.4012315273284912 0.45555028319358826 0.007905138656497002 0.29411765933036804 0.27843138575553894 0.23137255012989044
0.4810344874858856 0.5026053786277771 0.9885375499725342 0.3843137323856354 0.3843137323856354 0.3450980484485626
0.37881773710250854 0.4250749945640564 0.1774703562259674 0.5176470875740051 0.5411764979362488 0.5333333611488342
0.5236453413963318 0.5363966226577759 0.003952569328248501 0.22745098173618317 0.24313725531101227 0.239215686917305
0.5253694653511047 0.4045476019382477 0.9889327883720398 0.40784314274787903 0.3960784375667572 0.3607843220233917
0.43916255235671997 0.4855518639087677 0.1766798347234726 0.2235294133424759 0.22745098173618317 0.20392157137393951
0.6000000238418579 0.4631296396255493 0.29802370071411133 0.4627451002597809 0.48627451062202454 0.4313725531101227
0.40665024518966675 0.4797094464302063 0.1873517781496048 0.027450980618596077 0.027450980618596077 0.027450980618596077
0.6133005023002625 0.4708668887615204 0.9901185631752014 0.4313725531101227 0.42352941632270813 0.3764705955982208
0.3928571343421936 0.42744356393814087 0.007905138656497002 0.10980392247438431 0.10588235408067703 0.09803921729326248
0.44630542397499084 0.5065529942512512 0.9893280863761902 0.4156862795352936 0.40784314274787903 0.35686275362968445
0.5660098791122437 0.40375807881355286 0.005138339940458536 0.34117648005485535 0.34117648005485535 0.29411765933036804
0.5027093887329102 0.3991788923740387 0.9885375499725342 0.4000000059604645 0.3686274588108063 0.35686275362968445
0.43842363357543945 0.4451286792755127 0.18616600334644318 0.3607843220233917 0.364705890417099 0.34117648005485535
0.5581280589103699 0.47528818249702454 0.9897233247756958 0.3176470696926117 0.32549020648002625 0.27450981736183167
0.5371921062469482 0.4659718871116638 0.9893280863761902 0.32156863808631897 0.3333333432674408 0.30588236451148987
0.3886699378490448 0.41796937584877014 0.29446640610694885 0.658823549747467 0.6784313917160034 0.7019608020782471
0.5967980027198792 0.5477656722068787 0.005928853526711464 0.19607843458652496 0.20392157137393951 0.20000000298023224
0.39852216839790344 0.4367598295211792 0.17075099050998688 0.3686274588108063 0.37254902720451355 0.3490196168422699
0.408620685338974 0.4940786361694336 0.9897233247756958 0.3921568691730499 0.3803921639919281 0.3450980484485626
0.4177339971065521 0.4217590391635895 0.9893280863761902 0.40392157435417175 0.3921568691730499 0.364705890417099
0.37068966031074524 0.44939208030700684 0.13280633091926575 0.3686274588108063 0.37254902720451355 0.3490196168422699
0.4000000059604645 0.5180798768997192 0.9901185631752014 0.4156862795352936 0.40784314274787903 0.3607843220233917
0.4655172526836395 0.4656561017036438 0.0063241105526685715 0.4117647111415863 0.4313725531101227 0.4156862795352936
0.3810344934463501 0.4258645176887512 0.17509882152080536 0.4745098054409027 0.5098039507865906 0.5058823823928833
0.47807881236076355 0.4544449746608734 0.9897233247756958 0.41960784792900085 0.4117647111415863 0.364705890417099
0.376600980758667 0.4171798527240753 0.29446640610694885 0.658823549747467 0.686274528503418 0.7098039388656616
0.49334976077079773 0.5114479660987854 0.9885375499725342 0.4117647111415863 0.40392157435417175 0.3529411852359772
0.44581282138824463 0.43533870577812195 0.29525691270828247 0.6078431606292725 0.6078431606292725 0.6392157077789307
0.5448275804519653 0.4572872221469879 0.9897233247756958 0.4156862795352936 0.4156862795352936 0.3843137323856354
0.4403941035270691 0.4501815736293793 0.0071146246045827866 0.40784314274787903 0.3843137323856354 0.3294117748737335
0.5551724433898926 0.4257066249847412 0.003952569328248501 0.29411765933036804 0.2980392277240753 0.27450981736183167
0.4795566499233246 0.5431864857673645 0.2972331941127777 0.5686274766921997 0.5843137502670288 0.5960784554481506
0.4440886676311493 0.4803410768508911 0.0063241105526685715 0.12941177189350128 0.13333334028720856 0.0784313753247261
0.4078817665576935 0.49897363781929016 0.15375493466854095 0.43921568989753723 0.45098039507865906 0.42352941632270813
0.5652709603309631 0.4132322669029236 0.9893280863761902 0.3921568691730499 0.37254902720451355 0.3490196168422699
0.5921182036399841 0.5488709807395935 0.2964426875114441 0.6745098233222961 0.6745098233222961 0.7058823704719543
0.5337438583374023 0.5141323208808899 0.9885375499725342 0.3921568691730499 0.3843137323856354 0.32549020648002625
0.41551724076271057 0.5493447184562683 0.16442687809467316 0.11372549086809158 0.12156862765550613 0.11764705926179886
0.39901477098464966 0.5122374892234802 0.00830039568245411 0.07450980693101883 0.07450980693101883 0.06666667014360428
0.43152710795402527 0.40328437089920044 0.006719367578625679 0.0784313753247261 0.08235294371843338 0.062745101749897
0.3891625702381134 0.4309174120426178 0.9893280863761902 0.42352941632270813 0.4156862795352936 0.3686274588108063
0.475862056016922 0.3988631069660187 0.2956521809101105 0.6235294342041016 0.6392157077789307 0.6509804129600525
0.37487685680389404 0.5188694000244141 0.9905138611793518 0.3686274588108063 0.35686275362968445 0.32156863808631897
0.41847291588783264 0.535291314125061 0.0071146246045827866 0.21176470816135406 0.21960784494876862 0.1764705926179886
0.4275861978530884 0.49913153052330017 0.15889328718185425 0.46666666865348816 0.48627451062202454 0.4588235318660736
0.5852216482162476 0.5472919344902039 0.29288536310195923 0.14509804546833038 0.14509804546833038 0.14509804546833038
0.4802955687046051 0.4222327470779419 0.9889327883720398 0.3607843220233917 0.3529411852359772 0.30588236451148987
0.6081280708312988 0.4563398063182831 0.9897233247756958 0.38823530077934265 0.3764705955982208 0.34117648005485535
0.4635468125343323 0.4542870819568634 0.0063241105526685715 0.2549019753932953 0.26274511218070984 0.25882354378700256
0.5049260854721069 0.4170219600200653 0.2960474193096161 0.5647059082984924 0.5647059082984924 0.5568627715110779
0.41871920228004456 0.5319753885269165 0.9901185631752014 0.3686274588108063 0.35686275362968445 0.3294117748737335
0.5980295538902283 0.39823147654533386 0.2972331941127777 0.5254902243614197 0.5333333611488342 0.529411792755127
0.40615764260292053 0.5248697400093079 0.007905138656497002 0.239215686917305 0.239215686917305 0.1921568661928177
0.48152709007263184 0.5019738078117371 0.9885375499725342 0.3960784375667572 0.38823530077934265 0.34117648005485535
0.3810344934463501 0.45586609840393066 0.1932806372642517 0.08627451211214066 0.08627451211214066 0.0784313753247261
0.4004926085472107 0.5390809774398804 0.17312252521514893 0.07058823853731155 0.07058823853731155 0.07058823853731155
0.4369458258152008 0.5409758687019348 0.9901185631752014 0.35686275362968445 0.364705890417099 0.32156863808631897
0.3800492584705353 0.5180798768997192 0.008695651777088642 0.2823529541492462 0.2705882489681244 0.24313725531101227
0.45443350076675415 0.535291314125061 0.004743082914501429 0.5098039507865906 0.5215686559677124 0.4470588266849518
0.550000011920929 0.5395547151565552 0.9897233247756958 0.3843137323856354 0.3843137323856354 0.33725491166114807
0.5421182513237 0.4143376052379608 0.004347825888544321 0.49803921580314636 0.4901960790157318 0.43921568989753723
0.5992611050605774 0.4913942813873291 0.9901185631752014 0.4000000059604645 0.3843137323856354 0.34117648005485535
0.4682266116142273 0.535291314125061 0.005533596966415644 0.49803921580314636 0.5098039507865906 0.48235294222831726
0.5965517163276672 0.419074684381485 0.004347825888544321 0.08235294371843338 0.08235294371843338 0.07450980693101883
0.3886699378490448 0.45207643508911133 0.9897233247756958 0.3803921639919281 0.3686274588108063 0.3333333432674408
0.5911329984664917 0.5141323208808899 0.28458496928215027 0.42352941632270813 0.4431372582912445 0.45490196347236633
0.4096059203147888 0.47828832268714905 0.29407113790512085 0.4901960790157318 0.5098039507865906 0.5215686559677124
0.4201970398426056 0.41228485107421875 0.008695651777088642 0.13725490868091583 0.11764705926179886 0.10196078568696976
0.49334976077079773 0.5193431377410889 0.9889327883720398 0.3686274588108063 0.37254902720451355 0.30980393290519714
0.47783252596855164 0.4230222702026367 0.2956521809101105 0.6078431606292725 0.6352941393852234 0.6666666865348816
0.3928571343421936 0.4257066249847412 0.007905138656497002 0.09019608050584793 0.08627451211214066 0.07058823853731155
0.5399014949798584 0.42918047308921814 0.9893280863761902 0.40392157435417175 0.3921568691730499 0.35686275362968445
0.6039409041404724 0.5255013704299927 0.005138339940458536 0.18431372940540314 0.18431372940540314 0.1764705926179886
0.39926108717918396 0.448602557182312 0.29446640610694885 0.5921568870544434 0.6039215922355652 0.6313725709915161
0.4610837399959564 0.3991788923740387 0.2956521809101105 0.6078431606292725 0.6274510025978088 0.6392157077789307
0.3738916218280792 0.5477656722068787 0.29407113790512085 0.545098066329956 0.5803921818733215 0.6078431606292725
0.4519704580307007 0.47781461477279663 0.1881422996520996 0.14901961386203766 0.15294118225574493 0.13333334028720856
0.45492610335350037 0.42081162333488464 0.29525691270828247 0.6196078658103943 0.6196078658103943 0.6509804129600525
0.5221675038337708 0.47039318084716797 0.2968379557132721 0.08235294371843338 0.08235294371843338 0.08235294371843338
0.5256157517433167 0.5441339015960693 0.004347825888544321 0.32549020648002625 0.3490196168422699 0.3333333432674408
0.3697044253349304 0.4681825339794159 0.29446640610694885 0.2980392277240753 0.32156863808631897 0.32156863808631897
0.44605910778045654 0.4454444944858551 0.18932805955410004 0.03921568766236305 0.03921568766236305 0.03921568766236305
0.6125615835189819 0.40612664818763733 0.29960474371910095 0.501960813999176 0.501960813999176 0.5098039507865906
0.4320197105407715 0.5441339015960693 0.17351779341697693 0.1921568661928177 0.2078431397676468 0.21176470816135406
0.5837438702583313 0.5176061987876892 0.0035573123022913933 0.21568627655506134 0.21960784494876862 0.20000000298023224
0.41921183466911316 0.397126168012619 0.0063241105526685715 0.15294118225574493 0.14901961386203766 0.1411764770746231
0.376600980758667 0.40060004591941833 0.007509881630539894 0.10196078568696976 0.09803921729326248 0.08235294371843338
0.3849753737449646 0.4918679893016815 0.9901185631752014 0.4000000059604645 0.4000000059604645 0.3529411852359772
0.6083743572235107 0.546186625957489 0.004347825888544321 0.1764705926179886 0.20392157137393951 0.1764705926179886
0.43103447556495667 0.45033949613571167 0.18893280625343323 0.0313725508749485 0.0313725508749485 0.0313725508749485
0.43522167205810547 0.4684983491897583 0.17865613102912903 0.2980392277240753 0.3019607961177826 0.27843138575553894
0.4137931168079376 0.5201326608657837 0.007509881630539894 0.2235294133424759 0.22745098173618317 0.19607843458652496
0.38743841648101807 0.5109742879867554 0.008695651777088642 0.14509804546833038 0.13333334028720856 0.11372549086809158
0.42241379618644714 0.4906047582626343 0.15889328718185425 0.3960784375667572 0.4000000059604645 0.3686274588108063
0.4253694713115692 0.5213958621025085 0.9901185631752014 0.40392157435417175 0.40392157435417175 0.35686275362968445
0.6103448271751404 0.443075954914093 0.9897233247756958 0.3803921639919281 0.364705890417099 0.32156863808631897
0.4278325140476227 0.43470707535743713 0.9893280863761902 0.3960784375667572 0.3843137323856354 0.35686275362968445
0.411822646856308 0.5040265321731567 0.00830039568245411 0.2980392277240753 0.2980392277240753 0.250980406999588
0.5475369691848755 0.5232906937599182 0.9889327883720398 0.40784314274787903 0.3960784375667572 0.33725491166114807
0.5586206912994385 0.46376124024391174 0.9897233247756958 0.3294117748737335 0.3333333432674408 0.3019607961177826
0.5337438583374023 0.46091899275779724 0.01462450623512268 0.45098039507865906 0.4941176474094391 0.47843137383461
0.5394088625907898 0.4309174120426178 0.9893280863761902 0.38823530077934265 0.3764705955982208 0.34117648005485535
0.3726601004600525 0.4950260519981384 0.29169961810112 0.2235294133424759 0.24705882370471954 0.24705882370471954
0.48201969265937805 0.5303963422775269 0.005138339940458536 0.12156862765550613 0.12156862765550613 0.12941177189350128
0.5059113502502441 0.5359229445457458 0.28972330689430237 0.0941176488995552 0.0941176488995552 0.0941176488995552
0.49704432487487793 0.44986578822135925 0.2960474193096161 0.5607843399047852 0.5647059082984924 0.5803921818733215
0.4293103516101837 0.47860413789749146 0.17075099050998688 0.2666666805744171 0.2705882489681244 0.24705882370471954
0.3921182155609131 0.4427601397037506 0.29446640610694885 0.6000000238418579 0.6196078658103943 0.6352941393852234
0.4288177192211151 0.44102320075035095 0.29486167430877686 0.5843137502670288 0.6000000238418579 0.6352941393852234
0.47512316703796387 0.5487130880355835 0.2972331941127777 0.5764706134796143 0.5882353186607361 0.615686297416687
0.49458128213882446 0.5086057186126709 0.005928853526711464 0.5568627715110779 0.5686274766921997 0.5254902243614197
0.4293103516101837 0.4509710967540741 0.18893280625343323 0.027450980618596077 0.027450980618596077 0.027450980618596077
0.38694581389427185 0.4563398063182831 0.00830039568245411 0.40392157435417175 0.3960784375667572 0.3490196168422699
0.41108375787734985 0.4422864317893982 0.29446640610694885 0.5960784554481506 0.6078431606292725 0.6352941393852234
0.6103448271751404 0.5019738078117371 0.2968379557132721 0.5843137502670288 0.6078431606292725 0.6000000238418579
0.4955665171146393 0.4418127238750458 0.01067193690687418 0.3607843220233917 0.3960784375667572 0.3921568691730499
0.48990148305892944 0.4317069351673126 0.2960474193096161 0.572549045085907 0.5647059082984924 0.5843137502670288
0.5470443367958069 0.4369177222251892 0.011462450958788395 0.4941176474094391 0.5176470875740051 0.5098039507865906
0.5768473148345947 0.5084478259086609 0.002766798483207822 0.2078431397676468 0.21176470816135406 0.1921568661928177
0.4566502571105957 0.43533870577812195 0.9893280863761902 0.38823530077934265 0.37254902720451355 0.3294117748737335
0.5137931108474731 0.4776567220687866 0.0019762846641242504 0.49803921580314636 0.5372549295425415 0.5333333611488342
0.6039409041404724 0.4361282289028168 0.009486165829002857 0.21960784494876862 0.21568627655506134 0.19607843458652496
0.5408867001533508 0.437549352645874 0.9893280863761902 0.3490196168422699 0.33725491166114807 0.3019607961177826
0.5916256308555603 0.49549975991249084 0.002766798483207822 0.1882352977991104 0.19607843458652496 0.18431372940540314
0.5357142686843872 0.4659718871116638 0.9893280863761902 0.30588236451148987 0.3333333432674408 0.30588236451148987
0.440640389919281 0.5472919344902039 0.2960474193096161 0.545098066329956 0.5803921818733215 0.5764706134796143
0.6002463102340698 0.5037107467651367 0.2968379557132721 0.572549045085907 0.5882353186607361 0.5921568870544434
0.44211822748184204 0.42602241039276123 0.9893280863761902 0.4000000059604645 0.3803921639919281 0.35686275362968445
0.3815270960330963 0.5116058588027954 0.2920948565006256 0.4156862795352936 0.4431372582912445 0.4156862795352936
0.47857141494750977 0.4860255718231201 0.2956521809101105 0.5137255191802979 0.529411792755127 0.5411764979362488
0.5036945939064026 0.529448926448822 0.2964426875114441 0.5843137502670288 0.5843137502670288 0.5764706134796143
0.46305418014526367 0.4819200932979584 0.01067193690687418 0.658823549747467 0.6705882549285889 0.6352941393852234
0.5007389187812805 0.49565765261650085 0.9885375499725342 0.3137255012989044 0.30980393290519714 0.29019609093666077
0.43916255235671997 0.49249961972236633 0.18893280625343323 0.05882352963089943 0.05882352963089943 0.05882352963089943
0.37463054060935974 0.518711507320404 0.2924901247024536 0.45098039507865906 0.4901960790157318 0.45490196347236633
0.5635467767715454 0.4852360785007477 0.9897233247756958 0.41960784792900085 0.40784314274787903 0.37254902720451355
0.3810344934463501 0.5493447184562683 0.17351779341697693 0.10980392247438431 0.10980392247438431 0.10980392247438431
0.5613300204277039 0.4800252616405487 0.9897233247756958 0.40784314274787903 0.4156862795352936 0.37254902720451355
0.3736453056335449 0.4391283690929413 0.00830039568245411 0.4470588266849518 0.43529412150382996 0.3764705955982208
0.49408867955207825 0.5101847648620605 0.2968379557132721 0.529411792755127 0.5490196347236633 0.5333333611488342
0.42586207389831543 0.5393968224525452 0.006719367578625679 0.16470588743686676 0.16078431904315948 0.1411764770746231
0.46995073556900024 0.43265435099601746 0.2956521809101105 0.615686297416687 0.615686297416687 0.6627451181411743
0.5039408802986145 0.47023528814315796 0.9893280863761902 0.30588236451148987 0.3176470696926117 0.27450981736183167
0.6135467886924744 0.5247118473052979 0.9901185631752014 0.3803921639919281 0.3803921639919281 0.3333333432674408
0.4036945700645447 0.5520290732383728 0.006719367578625679 0.16078431904315948 0.16078431904315948 0.12941177189350128
0.43103447556495667 0.45807674527168274 0.007509881630539894 0.32156863808631897 0.3137255012989044 0.2666666805744171
0.496798038482666 0.4200221002101898 0.2960474193096161 0.572549045085907 0.572549045085907 0.572549045085907
0.38226601481437683 0.45791885256767273 0.13952569663524628 0.3686274588108063 0.37254902720451355 0.3490196168422699
0.39039409160614014 0.43028581142425537 0.9893280863761902 0.4274509847164154 0.41960784792900085 0.37254902720451355
0.5965517163276672 0.4825517237186432 0.2976284623146057 0.529411792755127 0.5490196347236633 0.5333333611488342
0.4160098433494568 0.5259750485420227 0.9901185631752014 0.3960784375667572 0.38823530077934265 0.33725491166114807
0.4692118167877197 0.5123953819274902 0.004743082914501429 0.19607843458652496 0.2078431397676468 0.1725490242242813
0.5426108241081238 0.4020211696624756 0.003952569328248501 0.529411792755127 0.529411792755127 0.4901960790157318
0.4837438464164734 0.43486499786376953 0.009881422854959965 0.25882354378700256 0.27450981736183167 0.2705882489681244
0.39014777541160583 0.5158692598342896 0.29328063130378723 0.45490196347236633 0.4901960790157318 0.47843137383461
