0.6130542159080505 0.42128533124923706 0.29920947551727295 0.45490196347236633 0.46666666865348816 0.43921568989753723
0.6448276042938232 0.4160745441913605 0.0063241105526685715 0.32156863808631897 0.3176470696926117 0.2980392277240753
0.6504926085472107 0.43833884596824646 0.008695651777088642 0.0941176488995552 0.09803921729326248 0.10588235408067703
0.734236478805542 0.4369177222251892 0.9901185631752014 0.3450980484485626 0.34117648005485535 0.3333333432674408
0.5903940796852112 0.4230222702026367 0.29525691270828247 0.13333334028720856 0.13725490868091583 0.14509804546833038
0.6948275566101074 0.3514921963214874 0.29960474371910095 0.5843137502670288 0.6196078658103943 0.6078431606292725
0.7229064106941223 0.3274909257888794 0.17786560952663422 0.062745101749897 0.062745101749897 0.07058823853731155
0.6884236335754395 0.3855992555618286 0.17075099050998688 0.03921568766236305 0.0470588244497776 0.04313725605607033
0.6881773471832275 0.34628137946128845 0.29920947551727295 0.5647059082984924 0.6000000238418579 0.5882353186607361
0.5822660326957703 0.40154746174812317 0.005928853526711464 0.09019608050584793 0.08627451211214066 0.06666667014360428
0.7325122952461243 0.34628137946128845 0.15256917476654053 0.062745101749897 0.06666667014360428 0.08627451211214066
0.701724112033844 0.37770408391952515 0.29960474371910095 0.6117647290229797 0.6274510025978088 0.6235294342041016
0.5566502213478088 0.3442286550998688 0.003952569328248501 0.3843137323856354 0.3803921639919281 0.37254902720451355
0.573399007320404 0.39728406071662903 0.9889327883720398 0.37254902720451355 0.3607843220233917 0.34117648005485535
0.6167487502098083 0.36949312686920166 0.9889327883720398 0.3529411852359772 0.33725491166114807 0.3333333432674408
0.6339901685714722 0.4708668887615204 0.9901185631752014 0.40392157435417175 0.40392157435417175 0.37254902720451355
0.5113300681114197 0.42618033289909363 0.2964426875114441 0.364705890417099 0.37254902720451355 0.3686274588108063
0.7349753975868225 0.3363334834575653 0.30000001192092896 0.5529412031173706 0.5921568870544434 0.5882353186607361
0.6192117929458618 0.46423494815826416 0.9901185631752014 0.42352941632270813 0.4117647111415863 0.3843137323856354
0.5007389187812805 0.45933997631073 0.00909090880304575 0.4745098054409027 0.529411792755127 0.529411792755127
0.49334976077079773 0.40123164653778076 0.2960474193096161 0.6000000238418579 0.5960784554481506 0.6196078658103943
0.49704432487487793 0.3336491286754608 0.2956521809101105 0.6000000238418579 0.6196078658103943 0.6431372761726379
0.699999988079071 0.3592294454574585 0.1664031594991684 0.05882352963089943 0.05882352963089943 0.05882352963089943
0.5081281065940857 0.36365070939064026 0.003952569328248501 0.6392157077789307 0.615686297416687 0.5529412031173706
0.6413792967796326 0.44149690866470337 0.29841896891593933 0.4470588266849518 0.45098039507865906 0.41960784792900085
0.6214285492897034 0.3701247572898865 0.9889327883720398 0.3450980484485626 0.3294117748737335 0.32549020648002625
0.6455665230751038 0.44639191031455994 0.29841896891593933 0.41960784792900085 0.4431372582912445 0.40392157435417175
0.5935960412025452 0.32638558745384216 0.9885375499725342 0.3176470696926117 0.3137255012989044 0.2980392277240753
0.6189655065536499 0.3442286550998688 0.0035573123022913933 0.239215686917305 0.23529411852359772 0.21960784494876862
0.5322660207748413 0.4623401165008545 0.013438735157251358 0.4588235318660736 0.501960813999176 0.48627451062202454
0.7226601243019104 0.36001893877983093 0.17470355331897736 0.062745101749897 0.07058823853731155 0.05882352963089943
0.6253694295883179 0.3540186285972595 0.29802370071411133 0.6117647290229797 0.6274510025978088 0.6392157077789307
0.7076354622840881 0.44418126344680786 0.006719367578625679 0.3764705955982208 0.3686274588108063 0.32156863808631897
0.6724137663841248 0.3852834403514862 0.9901185631752014 0.38823530077934265 0.37254902720451355 0.3764705955982208
0.6332512497901917 0.3426496088504791 0.0035573123022913933 0.34117648005485535 0.3490196168422699 0.30588236451148987
0.49729064106941223 0.3158060908317566 0.003952569328248501 0.4156862795352936 0.40784314274787903 0.3490196168422699
0.5960590839385986 0.34596556425094604 0.9885375499725342 0.29411765933036804 0.29411765933036804 0.26274511218070984
0.6943349838256836 0.32591187953948975 0.9932806491851807 0.7960784435272217 0.8274509906768799 0.8392156958580017
0.6699507236480713 0.4714984893798828 0.9901185631752014 0.3843137323856354 0.3803921639919281 0.364705890417099
0.6837438344955444 0.45791885256767273 0.9901185631752014 0.364705890417099 0.3607843220233917 0.3529411852359772
0.5044335126876831 0.4691299498081207 0.9893280863761902 0.3176470696926117 0.3294117748737335 0.29411765933036804
0.6036945581436157 0.3939681053161621 0.29881423711776733 0.5411764979362488 0.5411764979362488 0.5490196347236633
0.5544335246086121 0.42649611830711365 0.9893280863761902 0.3803921639919281 0.3686274588108063 0.3333333432674408
0.7192118167877197 0.3996526002883911 0.15335968136787415 0.062745101749897 0.07058823853731155 0.06666667014360428
0.5421182513237 0.4143376052379608 0.004347825888544321 0.49803921580314636 0.4901960790157318 0.43921568989753723
0.5566502213478088 0.36317700147628784 0.0031620552763342857 0.4588235318660736 0.4313725531101227 0.4000000059604645
0.6647783517837524 0.33507025241851807 0.9905138611793518 0.2666666805744171 0.2823529541492462 0.29411765933036804
0.5534482598304749 0.3702826499938965 0.9885375499725342 0.37254902720451355 0.35686275362968445 0.3450980484485626
0.5544335246086121 0.34864991903305054 0.0035573123022913933 0.07058823853731155 0.08627451211214066 0.08235294371843338
0.625123143196106 0.35465025901794434 0.9889327883720398 0.3333333432674408 0.3294117748737335 0.3137255012989044
0.543596088886261 0.40707406401634216 0.003952569328248501 0.07450980693101883 0.0784313753247261 0.0470588244497776
0.7133004665374756 0.36949312686920166 0.29960474371910095 0.5803921818733215 0.6039215922355652 0.5960784554481506
0.7073891758918762 0.42665404081344604 0.0063241105526685715 0.09019608050584793 0.0941176488995552 0.07450980693101883
0.6150246262550354 0.3184904456138611 0.9897233247756958 0.9529411792755127 0.9882352948188782 1.0
0.7086206674575806 0.4564976990222931 0.17470355331897736 0.07058823853731155 0.0784313753247261 0.07450980693101883
0.6943349838256836 0.3527553975582123 0.17549407482147217 0.05098039284348488 0.054901961237192154 0.062745101749897
0.5103448033332825 0.47197219729423523 0.2964426875114441 0.3176470696926117 0.33725491166114807 0.32156863808631897
0.6433497667312622 0.38323068618774414 0.30000001192092896 0.615686297416687 0.6196078658103943 0.6274510025978088
0.7083743810653687 0.45539239048957825 0.9897233247756958 0.32549020648002625 0.30980393290519714 0.30588236451148987
0.7155172228813171 0.40012630820274353 0.1557312309741974 0.062745101749897 0.07058823853731155 0.06666667014360428
0.6443349719047546 0.367440402507782 0.29920947551727295 0.6431372761726379 0.6627451181411743 0.6784313917160034
0.5394088625907898 0.3882835805416107 0.002766798483207822 0.48627451062202454 0.48235294222831726 0.40392157435417175
0.695320188999176 0.3336491286754608 0.9916995763778687 0.6901960968971252 0.7098039388656616 0.7254902124404907
0.6544334888458252 0.4086530804634094 0.29960474371910095 0.5137255191802979 0.5176470875740051 0.5333333611488342
0.7206896543502808 0.40154746174812317 0.16996046900749207 0.09803921729326248 0.10196078568696976 0.10980392247438431
0.6283251047134399 0.419232577085495 0.29920947551727295 0.4588235318660736 0.46666666865348816 0.4470588266849518
0.5406404137611389 0.4197063148021698 0.9893280863761902 0.40392157435417175 0.3921568691730499 0.364705890417099
0.6960591077804565 0.40438970923423767 0.29960474371910095 0.5686274766921997 0.5803921818733215 0.6078431606292725
0.5448275804519653 0.4572872221469879 0.9897233247756958 0.4156862795352936 0.4156862795352936 0.3843137323856354
0.679556667804718 0.4255487024784088 0.29881423711776733 0.42352941632270813 0.45098039507865906 0.41960784792900085
0.5596058964729309 0.4512869119644165 0.9897233247756958 0.40784314274787903 0.3921568691730499 0.3490196168422699
0.6862068772315979 0.35417652130126953 0.006719367578625679 0.49803921580314636 0.5215686559677124 0.38823530077934265
0.625123143196106 0.3309647738933563 0.9905138611793518 0.8274509906768799 0.843137264251709 0.886274516582489
0.665517270565033 0.3508605659008026 0.9905138611793518 0.3137255012989044 0.29019609093666077 0.29019609093666077
0.5948275923728943 0.3938102126121521 0.9893280863761902 0.38823530077934265 0.3843137323856354 0.3686274588108063
0.6325123310089111 0.44402337074279785 0.29841896891593933 0.4274509847164154 0.43921568989753723 0.40392157435417175
0.7093595862388611 0.4372335374355316 0.29841896891593933 0.48627451062202454 0.5137255191802979 0.48235294222831726
0.5128079056739807 0.3333333432674408 0.004743082914501429 0.529411792755127 0.5215686559677124 0.42352941632270813
0.6628078818321228 0.37801989912986755 0.9901185631752014 0.3764705955982208 0.3764705955982208 0.3764705955982208
0.631280779838562 0.43533870577812195 0.004743082914501429 0.5058823823928833 0.25882354378700256 0.1921568661928177
0.6295566558837891 0.3251223862171173 0.2968379557132721 0.49803921580314636 0.529411792755127 0.5372549295425415
0.7115763425827026 0.4656561017036438 0.16916996240615845 0.08235294371843338 0.08235294371843338 0.08235294371843338
0.6935960650444031 0.3873361647129059 0.16245059669017792 0.062745101749897 0.062745101749897 0.062745101749897
0.6285714507102966 0.4258645176887512 0.9897233247756958 0.4000000059604645 0.3843137323856354 0.37254902720451355
0.6652709245681763 0.43486499786376953 0.008695651777088642 0.6274510025978088 0.6313725709915161 0.6509804129600525
0.5463054180145264 0.4086530804634094 0.0035573123022913933 0.40392157435417175 0.37254902720451355 0.32156863808631897
0.6948275566101074 0.36365070939064026 0.006719367578625679 0.43921568989753723 0.45490196347236633 0.3490196168422699
0.5197044610977173 0.3657034635543823 0.2924901247024536 0.09803921729326248 0.09803921729326248 0.09803921729326248
0.7379310131072998 0.39207327365875244 0.0063241105526685715 0.20392157137393951 0.1921568661928177 0.16470588743686676
0.6963053941726685 0.3383862376213074 0.1715414971113205 0.054901961237192154 0.054901961237192154 0.054901961237192154
0.7096059322357178 0.32591187953948975 0.9936758875846863 0.8470588326454163 0.8666666746139526 0.8784313797950745
0.6216748952865601 0.3336491286754608 0.9901185631752014 0.5843137502670288 0.6000000238418579 0.6039215922355652
0.5012315511703491 0.38149377703666687 0.0031620552763342857 0.14509804546833038 0.15294118225574493 0.14901961386203766
0.5152709484100342 0.351018488407135 0.0035573123022913933 0.5882353186607361 0.5921568870544434 0.47058823704719543
0.6847290396690369 0.3844939172267914 0.1715414971113205 0.0470588244497776 0.054901961237192154 0.05098039284348488
0.6334975361824036 0.42112743854522705 0.9897233247756958 0.3803921639919281 0.364705890417099 0.3607843220233917
0.6384236216545105 0.32085898518562317 0.2968379557132721 0.46666666865348816 0.501960813999176 0.49803921580314636
0.5039408802986145 0.4340754747390747 0.2960474193096161 0.5490196347236633 0.5490196347236633 0.5490196347236633
0.7258620858192444 0.39823147654533386 0.17984189093112946 0.04313725605607033 0.05098039284348488 0.0470588244497776
0.5406404137611389 0.37249329686164856 0.9885375499725342 0.364705890417099 0.3490196168422699 0.33725491166114807
0.511083722114563 0.3938102126121521 0.9885375499725342 0.364705890417099 0.3529411852359772 0.3176470696926117
0.5270935893058777 0.39491552114486694 0.002766798483207822 0.46666666865348816 0.47058823704719543 0.4156862795352936
0.6504926085472107 0.36870360374450684 0.004347825888544321 0.3843137323856354 0.3764705955982208 0.3176470696926117
0.5275862216949463 0.3672824800014496 0.002766798483207822 0.0784313753247261 0.08627451211214066 0.06666667014360428
0.679556667804718 0.44386547803878784 0.29841896891593933 0.46666666865348816 0.4745098054409027 0.45490196347236633
0.6662561297416687 0.37454602122306824 0.005138339940458536 0.3921568691730499 0.40784314274787903 0.3529411852359772
0.6238916516304016 0.3470709025859833 0.9885375499725342 0.30588236451148987 0.29411765933036804 0.27450981736183167
0.7088670134544373 0.39775776863098145 0.15454545617103577 0.062745101749897 0.07058823853731155 0.06666667014360428
0.6320196986198425 0.3846518099308014 0.29960474371910095 0.6078431606292725 0.6117647290229797 0.6274510025978088
0.6071428656578064 0.4307595193386078 0.9897233247756958 0.3686274588108063 0.3490196168422699 0.32549020648002625
0.557635486125946 0.4476551413536072 0.9897233247756958 0.40784314274787903 0.4000000059604645 0.3529411852359772
0.5219211578369141 0.44165483117103577 0.9893280863761902 0.4156862795352936 0.40784314274787903 0.35686275362968445
0.7214285731315613 0.3792831301689148 0.992094874382019 0.4156862795352936 0.41960784792900085 0.4000000059604645
0.640640377998352 0.321490615606308 0.9928853511810303 0.8980392217636108 0.9137254953384399 0.9490196108818054
0.6394088864326477 0.3361755907535553 0.9897233247756958 0.25882354378700256 0.26274511218070984 0.239215686917305
0.7258620858192444 0.38370439410209656 0.29960474371910095 0.6235294342041016 0.6431372761726379 0.6274510025978088
0.5411329865455627 0.351018488407135 0.003952569328248501 0.4313725531101227 0.4313725531101227 0.4000000059604645
0.6948275566101074 0.4304437041282654 0.29881423711776733 0.46666666865348816 0.47058823704719543 0.43921568989753723
0.5162561535835266 0.3540186285972595 0.2968379557132721 0.27450981736183167 0.3019607961177826 0.34117648005485535
0.7049261331558228 0.4369177222251892 0.0063241105526685715 0.4431372582912445 0.43529412150382996 0.3764705955982208
0.7266010046005249 0.45033949613571167 0.18893280625343323 0.5921568870544434 0.5764706134796143 0.5333333611488342
0.7362068891525269 0.35243961215019226 0.29960474371910095 0.6117647290229797 0.6549019813537598 0.6705882549285889
0.5169950723648071 0.4309174120426178 0.2964426875114441 0.08627451211214066 0.08627451211214066 0.08627451211214066
0.7229064106941223 0.3999684154987335 0.991304337978363 0.3686274588108063 0.3607843220233917 0.3803921639919281
0.5785714387893677 0.36586135625839233 0.002766798483207822 0.18039216101169586 0.18039216101169586 0.1411764770746231
0.6965517401695251 0.4427601397037506 0.29841896891593933 0.4941176474094391 0.5176470875740051 0.47843137383461
0.6729063987731934 0.4287067651748657 0.29881423711776733 0.4313725531101227 0.4431372582912445 0.40784314274787903
0.7130541801452637 0.4568135142326355 0.0071146246045827866 0.5490196347236633 0.5529412031173706 0.529411792755127
0.617241382598877 0.4048634171485901 0.008695651777088642 0.11372549086809158 0.125490203499794 0.09803921729326248
0.5054187178611755 0.40960049629211426 0.2960474193096161 0.5882353186607361 0.5803921818733215 0.5843137502670288
0.5987684726715088 0.44165483117103577 0.29881423711776733 0.4941176474094391 0.5137255191802979 0.4901960790157318
0.5310344696044922 0.345649778842926 0.005138339940458536 0.5960784554481506 0.6039215922355652 0.5098039507865906
0.7231526970863342 0.40091583132743835 0.1660079061985016 0.10588235408067703 0.10588235408067703 0.11372549086809158
0.6115763783454895 0.396968275308609 0.0071146246045827866 0.15294118225574493 0.14901961386203766 0.12941177189350128
0.6889162659645081 0.3412284851074219 0.29920947551727295 0.5333333611488342 0.5686274766921997 0.5647059082984924
0.6618226766586304 0.45255014300346375 0.012252964079380035 0.29411765933036804 0.2980392277240753 0.27843138575553894
0.5258620977401733 0.43770724534988403 0.009881422854959965 0.46666666865348816 0.4901960790157318 0.48235294222831726
0.6982758641242981 0.3623875081539154 0.006719367578625679 0.3921568691730499 0.4000000059604645 0.3490196168422699
0.50935959815979 0.34296542406082153 0.004347825888544321 0.5254902243614197 0.5333333611488342 0.4470588266849518
0.6238916516304016 0.3276488184928894 0.004347825888544321 0.2980392277240753 0.2862745225429535 0.250980406999588
0.6081280708312988 0.36301910877227783 0.0031620552763342857 0.1411764770746231 0.12941177189350128 0.10196078568696976
0.7236453294754028 0.4677088260650635 0.9897233247756958 0.3803921639919281 0.3764705955982208 0.3686274588108063
0.6935960650444031 0.3794410228729248 0.1762845814228058 0.0313725508749485 0.0313725508749485 0.0313725508749485
0.5694581270217896 0.4501815736293793 0.9897233247756958 0.4117647111415863 0.40392157435417175 0.35686275362968445
0.5411329865455627 0.3188062608242035 0.005138339940458536 0.3294117748737335 0.3333333432674408 0.26274511218070984
0.6783251166343689 0.3357018828392029 0.29841896891593933 0.5137255191802979 0.5490196347236633 0.545098066329956
0.496798038482666 0.4546028673648834 0.009881422854959965 0.4470588266849518 0.5098039507865906 0.49803921580314636
0.6152709126472473 0.4402337074279785 0.29881423711776733 0.4117647111415863 0.4156862795352936 0.3843137323856354
0.601477861404419 0.4618664085865021 0.9897233247756958 0.33725491166114807 0.32549020648002625 0.2980392277240753
0.6049261093139648 0.4511290192604065 0.9897233247756958 0.3764705955982208 0.3843137323856354 0.3333333432674408
0.6788177490234375 0.4396020770072937 0.008695651777088642 0.5921568870544434 0.5960784554481506 0.5254902243614197
0.5258620977401733 0.3769145607948303 0.29169961810112 0.03529411926865578 0.03529411926865578 0.03529411926865578
0.5428571701049805 0.35528185963630676 0.0031620552763342857 0.07058823853731155 0.0784313753247261 0.05882352963089943
0.6337438225746155 0.3799147307872772 0.9893280863761902 0.3529411852359772 0.3490196168422699 0.34117648005485535
0.5416256189346313 0.41544291377067566 0.004743082914501429 0.5215686559677124 0.5137255191802979 0.46666666865348816
0.6064039468765259 0.3311226963996887 0.9885375499725342 0.3450980484485626 0.3490196168422699 0.3294117748737335
0.5923645496368408 0.34912362694740295 0.0031620552763342857 0.11764705926179886 0.11372549086809158 0.0941176488995552
0.5224137902259827 0.37754619121551514 0.2964426875114441 0.09019608050584793 0.09019608050584793 0.09019608050584793
0.5445812940597534 0.3939681053161621 0.9889327883720398 0.3843137323856354 0.37254902720451355 0.3529411852359772
0.7305418848991394 0.3903363347053528 0.2335968315601349 0.1411764770746231 0.1411764770746231 0.13333334028720856
0.6332512497901917 0.42996999621391296 0.29881423711776733 0.4156862795352936 0.4274509847164154 0.3921568691730499
0.684482753276825 0.36949312686920166 0.1770751029253006 0.054901961237192154 0.054901961237192154 0.054901961237192154
0.506157636642456 0.396968275308609 0.0019762846641242504 0.1568627506494522 0.1568627506494522 0.1568627506494522
0.7366995215415955 0.4476551413536072 0.9901185631752014 0.3607843220233917 0.3529411852359772 0.35686275362968445
0.7130541801452637 0.4424443244934082 0.9901185631752014 0.38823530077934265 0.37254902720451355 0.3686274588108063
0.7278324961662292 0.3443865478038788 0.19960474967956543 0.027450980618596077 0.03529411926865578 0.0313725508749485
0.7238916158676147 0.3417021930217743 0.15810276567935944 0.062745101749897 0.05882352963089943 0.0784313753247261
0.5899015069007874 0.35417652130126953 0.2924901247024536 0.6039215922355652 0.6235294342041016 0.6392157077789307
0.552955687046051 0.3816516697406769 0.0031620552763342857 0.5333333611488342 0.529411792755127 0.41960784792900085
0.5682265758514404 0.32859623432159424 0.004347825888544321 0.07058823853731155 0.06666667014360428 0.0470588244497776
0.6472906470298767 0.35496604442596436 0.004347825888544321 0.3450980484485626 0.3450980484485626 0.2980392277240753
0.7216748595237732 0.4304437041282654 0.006719367578625679 0.27450981736183167 0.27450981736183167 0.24313725531101227
0.5007389187812805 0.3879677951335907 0.2960474193096161 0.6039215922355652 0.6039215922355652 0.6039215922355652
0.5987684726715088 0.43470707535743713 0.9897233247756958 0.33725491166114807 0.32549020648002625 0.29019609093666077
0.7169950604438782 0.35749250650405884 0.006719367578625679 0.34117648005485535 0.3490196168422699 0.3294117748737335
0.6751231551170349 0.34928154945373535 0.9905138611793518 0.2980392277240753 0.2823529541492462 0.2862745225429535
0.7049261331558228 0.3415443003177643 0.1667984127998352 0.054901961237192154 0.054901961237192154 0.054901961237192154
0.6778324842453003 0.3679141104221344 0.17430830001831055 0.05882352963089943 0.05882352963089943 0.05882352963089943
0.5972906351089478 0.33143851161003113 0.004347825888544321 0.0784313753247261 0.07450980693101883 0.06666667014360428
0.5790640115737915 0.4735512435436249 0.008695651777088642 0.24705882370471954 0.2549019753932953 0.23529411852359772
0.6820197105407715 0.36380863189697266 0.9909090995788574 0.3686274588108063 0.3686274588108063 0.3764705955982208
0.7204433679580688 0.39254698157310486 0.29960474371910095 0.6352941393852234 0.6509804129600525 0.6549019813537598
0.7197044491767883 0.3450181484222412 0.9924901127815247 0.42352941632270813 0.4156862795352936 0.41960784792900085
0.6948275566101074 0.3514921963214874 0.29960474371910095 0.5843137502670288 0.6196078658103943 0.6078431606292725
0.7352216839790344 0.3961787521839142 0.991304337978363 0.40392157435417175 0.4000000059604645 0.3843137323856354
0.571921169757843 0.4280751645565033 0.0063241105526685715 0.3960784375667572 0.40784314274787903 0.3803921639919281
0.610837459564209 0.31770092248916626 0.9885375499725342 0.6666666865348816 0.7019608020782471 0.7215686440467834
0.546798050403595 0.4369177222251892 0.011462450958788395 0.48627451062202454 0.5098039507865906 0.501960813999176
0.6315270662307739 0.45207643508911133 0.29841896891593933 0.45098039507865906 0.4627451002597809 0.41960784792900085
0.7147783041000366 0.45965576171875 0.0071146246045827866 0.3137255012989044 0.3176470696926117 0.29411765933036804
0.5475369691848755 0.47276172041893005 0.9893280863761902 0.33725491166114807 0.3490196168422699 0.30588236451148987
0.5805418491363525 0.3936522901058197 0.290909081697464 0.10588235408067703 0.08627451211214066 0.10196078568696976
0.5332512259483337 0.40707406401634216 0.007509881630539894 0.501960813999176 0.4941176474094391 0.4431372582912445
0.6738916039466858 0.465182363986969 0.29802370071411133 0.5372549295425415 0.5607843399047852 0.545098066329956
0.5229064226150513 0.45002368092536926 0.012252964079380035 0.47058823704719543 0.5058823823928833 0.501960813999176
0.6662561297416687 0.32338544726371765 0.005928853526711464 0.23529411852359772 0.24705882370471954 0.21960784494876862
0.6295566558837891 0.3383862376213074 0.0035573123022913933 0.2705882489681244 0.2705882489681244 0.2235294133424759
0.7179803252220154 0.3680720031261444 0.29960474371910095 0.5647059082984924 0.5882353186607361 0.5882353186607361
0.6645320057868958 0.34580767154693604 0.9905138611793518 0.29019609093666077 0.2705882489681244 0.2862745225429535
0.7376847267150879 0.3934943974018097 0.1818181872367859 0.08235294371843338 0.08235294371843338 0.08235294371843338
0.6130542159080505 0.3735986053943634 0.29881423711776733 0.6117647290229797 0.6235294342041016 0.6509804129600525
0.7044335007667542 0.3560713827610016 0.0071146246045827866 0.34117648005485535 0.3490196168422699 0.29411765933036804
0.5123152732849121 0.36301910877227783 0.9881423115730286 0.3803921639919281 0.3686274588108063 0.3490196168422699
0.6987684965133667 0.3533870279788971 0.9916995763778687 0.40392157435417175 0.4000000059604645 0.3921568691730499
0.5980295538902283 0.4107058346271515 0.9893280863761902 0.3843137323856354 0.3803921639919281 0.364705890417099
0.7354679703712463 0.419232577085495 0.17944663763046265 0.1764705926179886 0.18039216101169586 0.1882352977991104
0.7189655303955078 0.45570820569992065 0.16363635659217834 0.08627451211214066 0.08627451211214066 0.08627451211214066
0.6162561774253845 0.43581241369247437 0.29881423711776733 0.3921568691730499 0.40392157435417175 0.3764705955982208
0.701724112033844 0.39759987592697144 0.29960474371910095 0.6196078658103943 0.6235294342041016 0.6392157077789307
0.6105911135673523 0.3709142506122589 0.29841896891593933 0.6274510025978088 0.6313725709915161 0.6509804129600525
0.6770936250686646 0.43486499786376953 0.9901185631752014 0.364705890417099 0.3490196168422699 0.33725491166114807
0.6078817844390869 0.38607296347618103 0.005928853526711464 0.12156862765550613 0.11764705926179886 0.09803921729326248
0.7339901328086853 0.36617717146873474 0.1509881466627121 0.0313725508749485 0.0313725508749485 0.0313725508749485
0.6002463102340698 0.419232577085495 0.9893280863761902 0.4117647111415863 0.4000000059604645 0.37254902720451355
0.4931034445762634 0.3243328630924225 0.003952569328248501 0.34117648005485535 0.35686275362968445 0.29019609093666077
0.5371921062469482 0.38938891887664795 0.9885375499725342 0.38823530077934265 0.3607843220233917 0.33725491166114807
0.5906403660774231 0.413548082113266 0.29525691270828247 0.16078431904315948 0.15294118225574493 0.16470588743686676
0.5837438702583313 0.45791885256767273 0.2905138432979584 0.16470588743686676 0.16862745583057404 0.14901961386203766
0.6399014592170715 0.3241749703884125 0.004347825888544321 0.16470588743686676 0.18431372940540314 0.1568627506494522
0.6610837578773499 0.46170851588249207 0.007509881630539894 0.40392157435417175 0.40784314274787903 0.3843137323856354
0.4990147650241852 0.3364914059638977 0.2960474193096161 0.501960813999176 0.529411792755127 0.5607843399047852
0.5145320296287537 0.32101690769195557 0.004743082914501429 0.38823530077934265 0.3843137323856354 0.3137255012989044
0.6933497786521912 0.3829149007797241 0.0063241105526685715 0.4000000059604645 0.40784314274787903 0.3960784375667572
0.7039408683776855 0.38323068618774414 0.15533596277236938 0.06666667014360428 0.06666667014360428 0.06666667014360428
0.6830049157142639 0.36333492398262024 0.0063241105526685715 0.43529412150382996 0.4470588266849518 0.3803921639919281
0.7381773591041565 0.3181746304035187 0.007509881630539894 0.2862745225429535 0.27450981736183167 0.24705882370471954
0.5275862216949463 0.3672824800014496 0.002766798483207822 0.0784313753247261 0.08627451211214066 0.06666667014360428
0.5332512259483337 0.4195483922958374 0.9889327883720398 0.4000000059604645 0.3803921639919281 0.35686275362968445
0.7300492525100708 0.36949312686920166 0.19486166536808014 0.13725490868091583 0.14509804546833038 0.13333334028720856
0.7359606027603149 0.4287067651748657 0.21067193150520325 0.13725490868091583 0.13725490868091583 0.12941177189350128
0.7100985050201416 0.40060004591941833 0.16916996240615845 0.054901961237192154 0.05882352963089943 0.06666667014360428
0.7243842482566833 0.34580767154693604 0.1561264842748642 0.05882352963089943 0.054901961237192154 0.07450980693101883
0.6209359765052795 0.4247592091560364 0.9897233247756958 0.364705890417099 0.3529411852359772 0.3333333432674408
0.7169950604438782 0.3734407126903534 0.17430830001831055 0.03921568766236305 0.0470588244497776 0.04313725605607033
0.5199507474899292 0.3304910659790039 0.004743082914501429 0.3960784375667572 0.4156862795352936 0.33725491166114807
0.573645293712616 0.42065373063087463 0.004743082914501429 0.15294118225574493 0.1411764770746231 0.12156862765550613
0.5972906351089478 0.32622769474983215 0.004347825888544321 0.06666667014360428 0.06666667014360428 0.06666667014360428
0.5211822390556335 0.316279798746109 0.004743082914501429 0.40392157435417175 0.4117647111415863 0.35686275362968445
0.6928571462631226 0.4714984893798828 0.9901185631752014 0.364705890417099 0.3607843220233917 0.3450980484485626
0.7307881712913513 0.4623401165008545 0.9897233247756958 0.364705890417099 0.3607843220233917 0.3450980484485626
0.6081280708312988 0.37486183643341064 0.29881423711776733 0.6117647290229797 0.6117647290229797 0.6509804129600525
0.6152709126472473 0.44370755553245544 0.010276679880917072 0.06666667014360428 0.062745101749897 0.054901961237192154
0.7051724195480347 0.3598610460758209 0.17509882152080536 0.16078431904315948 0.16078431904315948 0.16078431904315948
0.6371921300888062 0.40596872568130493 0.9893280863761902 0.3960784375667572 0.3803921639919281 0.3764705955982208
0.7007389068603516 0.4023369550704956 0.29960474371910095 0.5960784554481506 0.5960784554481506 0.6274510025978088
0.7347290515899658 0.44939208030700684 0.007509881630539894 0.18431372940540314 0.16470588743686676 0.1411764770746231
0.6184729337692261 0.38054633140563965 0.005928853526711464 0.22745098173618317 0.23137255012989044 0.1764705926179886
0.7194581031799316 0.46644559502601624 0.2976284623146057 0.6117647290229797 0.6274510025978088 0.6313725709915161
0.6044334769248962 0.43297016620635986 0.9897233247756958 0.3843137323856354 0.37254902720451355 0.33725491166114807
0.5295566320419312 0.35180798172950745 0.9881423115730286 0.364705890417099 0.3529411852359772 0.3333333432674408
0.5731527209281921 0.4511290192604065 0.9897233247756958 0.4117647111415863 0.40392157435417175 0.3529411852359772
0.5330049395561218 0.408179372549057 0.9889327883720398 0.38823530077934265 0.3764705955982208 0.35686275362968445
0.6374384164810181 0.40896889567375183 0.9897233247756958 0.3921568691730499 0.3764705955982208 0.37254902720451355
0.7187191843986511 0.3769145607948303 0.15770751237869263 0.08235294371843338 0.08235294371843338 0.08235294371843338
0.6394088864326477 0.408179372549057 0.00909090880304575 0.06666667014360428 0.05882352963089943 0.062745101749897
0.501477837562561 0.3854413330554962 0.9881423115730286 0.3450980484485626 0.3333333432674408 0.3137255012989044
0.5997536778450012 0.3443865478038788 0.9885375499725342 0.30980393290519714 0.2980392277240753 0.27843138575553894
0.6145319938659668 0.3857571482658386 0.9893280863761902 0.3803921639919281 0.37254902720451355 0.3764705955982208
0.6714285612106323 0.33507025241851807 0.0063241105526685715 0.3607843220233917 0.37254902720451355 0.3294117748737335
0.6815270781517029 0.3996526002883911 0.005533596966415644 0.0941176488995552 0.10196078568696976 0.09019608050584793
0.5174877047538757 0.3514921963214874 0.003952569328248501 0.46666666865348816 0.47058823704719543 0.3450980484485626
0.7293103337287903 0.37533554434776306 0.005928853526711464 0.16470588743686676 0.16470588743686676 0.13333334028720856
0.5438423752784729 0.3963366448879242 0.0031620552763342857 0.4431372582912445 0.4470588266849518 0.3921568691730499
0.5293103456497192 0.44654983282089233 0.012252964079380035 0.46666666865348816 0.501960813999176 0.4901960790157318
0.699999988079071 0.402494877576828 0.005533596966415644 0.27843138575553894 0.27450981736183167 0.29411765933036804
0.7305418848991394 0.4340754747390747 0.0071146246045827866 0.1411764770746231 0.1411764770746231 0.0941176488995552
0.6687192320823669 0.33712300658226013 0.9905138611793518 0.2980392277240753 0.2980392277240753 0.30588236451148987
0.6711822748184204 0.4283909797668457 0.9901185631752014 0.35686275362968445 0.34117648005485535 0.3294117748737335
0.5044335126876831 0.3991788923740387 0.2960474193096161 0.6117647290229797 0.6078431606292725 0.5921568870544434
0.703201949596405 0.4255487024784088 0.00909090880304575 0.48235294222831726 0.4941176474094391 0.46666666865348816
0.6862068772315979 0.32970157265663147 0.29841896891593933 0.48235294222831726 0.5058823823928833 0.49803921580314636
0.7024630308151245 0.44718143343925476 0.1719367653131485 0.0784313753247261 0.0941176488995552 0.10588235408067703
0.567241370677948 0.44670772552490234 0.011067193932831287 0.4000000059604645 0.4117647111415863 0.3843137323856354
0.4928571283817291 0.351176381111145 0.2968379557132721 0.5568627715110779 0.5686274766921997 0.5882353186607361
0.6977832317352295 0.32638558745384216 0.9932806491851807 0.800000011920929 0.8313725590705872 0.843137264251709
0.5352216958999634 0.4343912899494171 0.9893280863761902 0.3803921639919281 0.364705890417099 0.3294117748737335
0.6753694415092468 0.42649611830711365 0.9901185631752014 0.3686274588108063 0.3529411852359772 0.3490196168422699
0.49384236335754395 0.443075954914093 0.9897233247756958 0.3529411852359772 0.34117648005485535 0.30588236451148987
0.49482759833335876 0.3393336534500122 0.003952569328248501 0.45490196347236633 0.43529412150382996 0.3176470696926117
0.6354680061340332 0.33507025241851807 0.003952569328248501 0.27450981736183167 0.27450981736183167 0.24313725531101227
0.5603448152542114 0.4088110029697418 0.9893280863761902 0.3921568691730499 0.3803921639919281 0.3607843220233917
0.6802955865859985 0.3451760709285736 0.1766798347234726 0.05882352963089943 0.05882352963089943 0.05882352963089943
0.7051724195480347 0.44607609510421753 0.29841896891593933 0.5098039507865906 0.529411792755127 0.5058823823928833
0.5224137902259827 0.37754619121551514 0.2964426875114441 0.09019608050584793 0.09019608050584793 0.09019608050584793
0.5935960412025452 0.3390178382396698 0.9885375499725342 0.29411765933036804 0.2823529541492462 0.26274511218070984
0.6687192320823669 0.3478604257106781 0.005928853526711464 0.3843137323856354 0.4117647111415863 0.34117648005485535
0.6980295777320862 0.4217590391635895 0.9905138611793518 0.37254902720451355 0.37254902720451355 0.37254902720451355
0.5965517163276672 0.4171798527240753 0.9893280863761902 0.3843137323856354 0.37254902720451355 0.3529411852359772
0.5556650161743164 0.35433444380760193 0.9881423115730286 0.3529411852359772 0.34117648005485535 0.32156863808631897
0.7285714149475098 0.3453339636325836 0.9928853511810303 0.4431372582912445 0.43921568989753723 0.4313725531101227
0.6096059083938599 0.43865466117858887 0.9897233247756958 0.30980393290519714 0.2980392277240753 0.2705882489681244
0.6637930870056152 0.3394915461540222 0.29841896891593933 0.5607843399047852 0.5843137502670288 0.5686274766921997
0.6029556393623352 0.38670456409454346 0.005533596966415644 0.09803921729326248 0.0941176488995552 0.07450980693101883
0.5869458317756653 0.46676141023635864 0.29011857509613037 0.10980392247438431 0.125490203499794 0.13725490868091583
0.6886699795722961 0.38591504096984863 0.1667984127998352 0.062745101749897 0.062745101749897 0.062745101749897
0.5137931108474731 0.36665087938308716 0.2964426875114441 0.5607843399047852 0.5843137502670288 0.6705882549285889
0.6965517401695251 0.4618664085865021 0.2976284623146057 0.5686274766921997 0.5921568870544434 0.5843137502670288
0.6396551728248596 0.36901941895484924 0.0035573123022913933 0.2980392277240753 0.30588236451148987 0.2549019753932953
0.6886699795722961 0.3570187985897064 0.1766798347234726 0.05098039284348488 0.05882352963089943 0.054901961237192154
0.7105911374092102 0.4337596595287323 0.197628453373909 0.0784313753247261 0.08235294371843338 0.09019608050584793
0.7233990430831909 0.3958629369735718 0.18577075004577637 0.10980392247438431 0.10980392247438431 0.10980392247438431
0.5100985169410706 0.44118112325668335 0.011462450958788395 0.4313725531101227 0.46666666865348816 0.4627451002597809
0.6650246381759644 0.46707722544670105 0.2976284623146057 0.5137255191802979 0.5490196347236633 0.529411792755127
0.623399019241333 0.31738513708114624 0.2960474193096161 0.4000000059604645 0.43921568989753723 0.43529412150382996
0.5931034684181213 0.3189641535282135 0.004743082914501429 0.019607843831181526 0.0235294122248888 0.0
0.5036945939064026 0.4481288492679596 0.2960474193096161 0.5568627715110779 0.5568627715110779 0.5568627715110779
0.7352216839790344 0.4187588691711426 0.17391304671764374 0.11764705926179886 0.12156862765550613 0.12941177189350128
0.5362069010734558 0.3653876483440399 0.002766798483207822 0.062745101749897 0.08235294371843338 0.06666667014360428
0.5975369215011597 0.3391757607460022 0.003952569328248501 0.1725490242242813 0.16862745583057404 0.14901961386203766
0.7325122952461243 0.338228315114975 0.0071146246045827866 0.20000000298023224 0.20000000298023224 0.15294118225574493
0.6647783517837524 0.37517765164375305 0.004743082914501429 0.3607843220233917 0.38823530077934265 0.3176470696926117
0.5635467767715454 0.46360334753990173 0.011462450958788395 0.40784314274787903 0.4274509847164154 0.40392157435417175
0.6605911254882812 0.3795989155769348 0.30000001192092896 0.6392157077789307 0.6392157077789307 0.6392157077789307
0.5758620500564575 0.43786513805389404 0.011462450958788395 0.3960784375667572 0.4000000059604645 0.3764705955982208
0.6830049157142639 0.3931785821914673 0.005533596966415644 0.4588235318660736 0.46666666865348816 0.4470588266849518
0.6830049157142639 0.35843992233276367 0.9909090995788574 0.3764705955982208 0.3764705955982208 0.3764705955982208
0.5009852051734924 0.33807042241096497 0.2964426875114441 0.5137255191802979 0.529411792755127 0.5647059082984924
0.5224137902259827 0.39538922905921936 0.007905138656497002 0.4431372582912445 0.45098039507865906 0.3686274588108063
0.5913792848587036 0.39270487427711487 0.005533596966415644 0.12941177189350128 0.125490203499794 0.10980392247438431
0.7076354622840881 0.3822832703590393 0.0063241105526685715 0.2823529541492462 0.2980392277240753 0.239215686917305
0.7381773591041565 0.3274909257888794 0.17865613102912903 0.125490203499794 0.13725490868091583 0.16470588743686676
0.5039408802986145 0.47039318084716797 0.2960474193096161 0.48235294222831726 0.4941176474094391 0.45098039507865906
0.69852215051651 0.41481131315231323 0.9905138611793518 0.40392157435417175 0.38823530077934265 0.3764705955982208
0.6229063868522644 0.32891204953193665 0.004347825888544321 0.23529411852359772 0.2235294133424759 0.1882352977991104
0.6135467886924744 0.38986262679100037 0.006719367578625679 0.12941177189350128 0.12941177189350128 0.09803921729326248
0.49359604716300964 0.37817779183387756 0.9881423115730286 0.3960784375667572 0.3843137323856354 0.35686275362968445
0.6660098433494568 0.4304437041282654 0.005138339940458536 0.250980406999588 0.2705882489681244 0.24705882370471954
0.5155172348022461 0.40154746174812317 0.9885375499725342 0.3960784375667572 0.3843137323856354 0.35686275362968445
0.6522167325019836 0.3592294454574585 0.9897233247756958 0.3137255012989044 0.30980393290519714 0.3019607961177826
0.5903940796852112 0.448760449886322 0.01067193690687418 0.24705882370471954 0.24705882370471954 0.239215686917305
0.5152709484100342 0.3183325529098511 0.9877470135688782 0.27450981736183167 0.26274511218070984 0.23529411852359772
0.7381773591041565 0.44418126344680786 0.2079051434993744 0.1411764770746231 0.1411764770746231 0.13333334028720856
0.5179802775382996 0.36301910877227783 0.9881423115730286 0.3843137323856354 0.37254902720451355 0.3450980484485626
0.5987684726715088 0.4516027271747589 0.010276679880917072 0.20000000298023224 0.20000000298023224 0.1921568661928177
0.5066502690315247 0.39523133635520935 0.9885375499725342 0.3960784375667572 0.38823530077934265 0.34117648005485535
0.6918719410896301 0.4253908097743988 0.008695651777088642 0.18039216101169586 0.1921568661928177 0.1568627506494522
0.5463054180145264 0.3685457110404968 0.9885375499725342 0.37254902720451355 0.3607843220233917 0.34117648005485535
0.6738916039466858 0.39775776863098145 0.9901185631752014 0.3803921639919281 0.3803921639919281 0.3803921639919281
0.49334976077079773 0.43297016620635986 0.9893280863761902 0.38823530077934265 0.3764705955982208 0.34117648005485535
0.5347290635108948 0.3617558777332306 0.0031620552763342857 0.0784313753247261 0.07450980693101883 0.05882352963089943
0.6135467886924744 0.42696982622146606 0.29920947551727295 0.4313725531101227 0.43921568989753723 0.41960784792900085
0.7293103337287903 0.43502289056777954 0.9901185631752014 0.3490196168422699 0.3450980484485626 0.33725491166114807
0.5152709484100342 0.3682298958301544 0.0023715414572507143 0.29411765933036804 0.30588236451148987 0.27843138575553894
0.6371921300888062 0.3255960941314697 0.992094874382019 0.8627451062202454 0.8784313797950745 0.9137254953384399
0.6852216720581055 0.3421759009361267 0.17549407482147217 0.05882352963089943 0.05882352963089943 0.05882352963089943
0.6064039468765259 0.3445444405078888 0.2972331941127777 0.5960784554481506 0.5960784554481506 0.6274510025978088
0.6635468006134033 0.34343913197517395 0.005533596966415644 0.32156863808631897 0.3450980484485626 0.29019609093666077
0.6820197105407715 0.4223906397819519 0.29920947551727295 0.4431372582912445 0.4627451002597809 0.4470588266849518
0.5123152732849121 0.4479709565639496 0.9897233247756958 0.40784314274787903 0.4000000059604645 0.3529411852359772
0.6098521947860718 0.4276014566421509 0.29920947551727295 0.43529412150382996 0.45490196347236633 0.4313725531101227
0.7224137783050537 0.37170377373695374 0.29960474371910095 0.5647059082984924 0.5882353186607361 0.5803921818733215
0.6440886855125427 0.4230222702026367 0.29920947551727295 0.4274509847164154 0.4470588266849518 0.41960784792900085
0.6411330103874207 0.4257066249847412 0.9897233247756958 0.40784314274787903 0.3921568691730499 0.3803921639919281
0.6137930750846863 0.4084951877593994 0.9893280863761902 0.3764705955982208 0.3607843220233917 0.3490196168422699
0.5310344696044922 0.35559767484664917 0.9881423115730286 0.364705890417099 0.3529411852359772 0.3333333432674408
0.6879310607910156 0.3851255476474762 0.1711462438106537 0.03529411926865578 0.04313725605607033 0.03921568766236305
0.6162561774253845 0.3904942274093628 0.006719367578625679 0.1764705926179886 0.16470588743686676 0.12941177189350128
0.6046798229217529 0.32938575744628906 0.9885375499725342 0.27843138575553894 0.2823529541492462 0.26274511218070984
0.5275862216949463 0.4075477719306946 0.9889327883720398 0.38823530077934265 0.3764705955982208 0.35686275362968445
0.49458128213882446 0.3484920263290405 0.0035573123022913933 0.47843137383461 0.46666666865348816 0.4000000059604645
0.5458127856254578 0.3612821698188782 0.9881423115730286 0.3529411852359772 0.34117648005485535 0.32156863808631897
0.6785714030265808 0.40075793862342834 0.9901185631752014 0.40784314274787903 0.3921568691730499 0.38823530077934265
0.5985221862792969 0.367598295211792 0.2960474193096161 0.6274510025978088 0.6274510025978088 0.658823549747467
0.6081280708312988 0.35180798172950745 0.2976284623146057 0.615686297416687 0.6117647290229797 0.6313725709915161
0.5128079056739807 0.44433918595314026 0.2964426875114441 0.0941176488995552 0.11372549086809158 0.09019608050584793
0.5903940796852112 0.4310753345489502 0.9897233247756958 0.3803921639919281 0.3686274588108063 0.34117648005485535
0.6522167325019836 0.40660035610198975 0.9897233247756958 0.3686274588108063 0.3529411852359772 0.3490196168422699
0.673399031162262 0.43518081307411194 0.9901185631752014 0.3686274588108063 0.3529411852359772 0.34117648005485535
0.6896551847457886 0.3593873381614685 0.1762845814228058 0.04313725605607033 0.05098039284348488 0.0470588244497776
0.6507388949394226 0.3306489884853363 0.991304337978363 0.9098039269447327 0.9215686321258545 0.9490196108818054
0.5931034684181213 0.45776093006134033 0.9897233247756958 0.40392157435417175 0.3960784375667572 0.3490196168422699
0.7290640473365784 0.448602557182312 0.007509881630539894 0.35686275362968445 0.3450980484485626 0.30980393290519714
0.7371920943260193 0.42602241039276123 0.2343873530626297 0.16078431904315948 0.16078431904315948 0.15294118225574493
0.5243842601776123 0.34943944215774536 0.004347825888544321 0.5137255191802979 0.501960813999176 0.43529412150382996
0.7051724195480347 0.43297016620635986 0.0063241105526685715 0.4000000059604645 0.42352941632270813 0.3764705955982208
0.6593596339225769 0.3598610460758209 0.004743082914501429 0.46666666865348816 0.4588235318660736 0.4000000059604645
0.7364531755447388 0.4195483922958374 0.2494071125984192 0.0784313753247261 0.0784313753247261 0.0784313753247261
0.6573891639709473 0.35512396693229675 0.005138339940458536 0.3960784375667572 0.4000000059604645 0.33725491166114807
0.5830049514770508 0.36665087938308716 0.9885375499725342 0.3529411852359772 0.33725491166114807 0.3333333432674408
0.7039408683776855 0.345649778842926 0.16561265289783478 0.054901961237192154 0.054901961237192154 0.054901961237192154
0.5834975242614746 0.42649611830711365 0.003952569328248501 0.3607843220233917 0.364705890417099 0.34117648005485535
0.5899015069007874 0.4691299498081207 0.9897233247756958 0.4156862795352936 0.40784314274787903 0.3607843220233917
0.6825123429298401 0.3789673149585724 0.17470355331897736 0.08627451211214066 0.09019608050584793 0.09803921729326248
0.7145320177078247 0.32354333996772766 0.9940711259841919 0.8705882430076599 0.886274516582489 0.8980392217636108
0.6726601123809814 0.3503868579864502 0.29920947551727295 0.6235294342041016 0.6431372761726379 0.6196078658103943
0.6669950485229492 0.4167061448097229 0.29920947551727295 0.4627451002597809 0.47843137383461 0.4745098054409027
0.6834975481033325 0.4628138244152069 0.0063241105526685715 0.41960784792900085 0.43529412150382996 0.3803921639919281
0.6837438344955444 0.3331754207611084 0.0071146246045827866 0.3294117748737335 0.3333333432674408 0.2705882489681244
0.7317733764648438 0.4422864317893982 0.9901185631752014 0.3764705955982208 0.3607843220233917 0.35686275362968445
0.6302955746650696 0.3358597755432129 0.9897233247756958 0.2666666805744171 0.2705882489681244 0.250980406999588
0.6830049157142639 0.4141796827316284 0.9905138611793518 0.4000000059604645 0.3843137323856354 0.3803921639919281
0.7251231670379639 0.37486183643341064 0.005928853526711464 0.16862745583057404 0.16862745583057404 0.12156862765550613
0.6568965315818787 0.39507341384887695 0.005928853526711464 0.43529412150382996 0.4470588266849518 0.3333333432674408
0.7268472909927368 0.367440402507782 0.15415020287036896 0.1725490242242813 0.1725490242242813 0.1725490242242813
0.5261083841323853 0.4568135142326355 0.9893280863761902 0.41960784792900085 0.40784314274787903 0.37254902720451355
0.676600992679596 0.4691299498081207 0.2976284623146057 0.5764706134796143 0.6039215922355652 0.5764706134796143
0.6869457960128784 0.3735986053943634 0.1770751029253006 0.16078431904315948 0.16078431904315948 0.16862745583057404
0.6157635450363159 0.4304437041282654 0.004743082914501429 0.2549019753932953 0.24705882370471954 0.20000000298023224
0.6615763306617737 0.38702037930488586 0.29960474371910095 0.6196078658103943 0.6274510025978088 0.6235294342041016
0.5820196866989136 0.3398073613643646 0.2920948565006256 0.2862745225429535 0.250980406999588 0.21568627655506134
0.5591133236885071 0.45791885256767273 0.011067193932831287 0.4117647111415863 0.43529412150382996 0.41960784792900085
0.6576354503631592 0.4077056646347046 0.29960474371910095 0.5098039507865906 0.5215686559677124 0.5411764979362488
0.6150246262550354 0.41481131315231323 0.005138339940458536 0.1411764770746231 0.12941177189350128 0.10980392247438431
0.5487684607505798 0.3183325529098511 0.004347825888544321 0.2862745225429535 0.27450981736183167 0.24705882370471954
0.6440886855125427 0.3794410228729248 0.30000001192092896 0.6274510025978088 0.6313725709915161 0.6509804129600525
0.6497536897659302 0.3769145607948303 0.003952569328248501 0.3764705955982208 0.38823530077934265 0.32156863808631897
0.6916255950927734 0.38086214661598206 0.29960474371910095 0.6235294342041016 0.6392157077789307 0.6352941393852234
0.621921181678772 0.35180798172950745 0.29802370071411133 0.6117647290229797 0.615686297416687 0.6235294342041016
0.5366995334625244 0.4285488724708557 0.005928853526711464 0.29411765933036804 0.2980392277240753 0.2666666805744171
