0.6384236216545105 0.24017053842544556 0.17984189093112946 0.054901961237192154 0.05882352963089943 0.06666667014360428
0.5716748833656311 0.26038211584091187 0.005928853526711464 0.1764705926179886 0.16470588743686676 0.14509804546833038
0.5433497428894043 0.17669351398944855 0.0063241105526685715 0.5490196347236633 0.5607843399047852 0.4941176474094391
0.5876847505569458 0.2850149869918823 0.1766798347234726 0.07058823853731155 0.07058823853731155 0.0784313753247261
0.571921169757843 0.17353545129299164 0.005928853526711464 0.6666666865348816 0.6784313917160034 0.6039215922355652
0.6775861978530884 0.31406915187835693 0.006719367578625679 0.19607843458652496 0.2235294133424759 0.1921568661928177
0.5746305584907532 0.2816990315914154 0.29486167430877686 0.5882353186607361 0.5921568870544434 0.6078431606292725
0.6911330223083496 0.25738197565078735 0.9897233247756958 0.9450980424880981 0.95686274766922 0.9764705896377563
0.7160098552703857 0.25359228253364563 0.2960474193096161 0.47058823704719543 0.4901960790157318 0.46666666865348816
0.5408867001533508 0.23732827603816986 0.9885375499725342 0.30588236451148987 0.3019607961177826 0.2823529541492462
0.6637930870056152 0.21222169697284698 0.006719367578625679 0.45098039507865906 0.4588235318660736 0.4156862795352936
0.7248768210411072 0.27127742767333984 0.2960474193096161 0.48627451062202454 0.4941176474094391 0.4745098054409027
0.7113300561904907 0.2935417592525482 0.29288536310195923 0.4745098054409027 0.4941176474094391 0.46666666865348816
0.6396551728248596 0.22343280911445618 0.20395256578922272 0.05882352963089943 0.05882352963089943 0.05098039284348488
0.6477832794189453 0.2731722593307495 0.9909090995788574 0.9647058844566345 0.9843137264251709 1.0
0.5315271019935608 0.2820148468017578 0.005138339940458536 0.501960813999176 0.49803921580314636 0.4274509847164154
0.6091132760047913 0.2638559937477112 0.29525691270828247 0.5490196347236633 0.572549045085907 0.5647059082984924
0.7098522186279297 0.22595925629138947 0.2960474193096161 0.4588235318660736 0.48235294222831726 0.4745098054409027
0.7236453294754028 0.2584872841835022 0.9916995763778687 0.9960784316062927 1.0 1.0
0.6534482836723328 0.22769619524478912 0.0063241105526685715 0.3686274588108063 0.3607843220233917 0.3019607961177826
0.6588670015335083 0.22753828763961792 0.0063241105526685715 0.3333333432674408 0.3450980484485626 0.27843138575553894
0.6512315273284912 0.19011527299880981 0.9897233247756958 0.9882352948188782 1.0 1.0
0.6534482836723328 0.28075161576271057 0.0063241105526685715 0.239215686917305 0.22745098173618317 0.20000000298023224
0.5559113025665283 0.2125374972820282 0.9889327883720398 0.3803921639919281 0.3764705955982208 0.3607843220233917
0.5160098671913147 0.18790462613105774 0.9893280863761902 0.364705890417099 0.35686275362968445 0.30980393290519714
0.6384236216545105 0.2728564739227295 0.2956521809101105 0.48235294222831726 0.4941176474094391 0.46666666865348816
0.673399031162262 0.2910153269767761 0.0063241105526685715 0.16862745583057404 0.1764705926179886 0.125490203499794
0.5911329984664917 0.2678035795688629 0.29486167430877686 0.6549019813537598 0.658823549747467 0.6666666865348816
0.5231527090072632 0.27459341287612915 0.004347825888544321 0.3176470696926117 0.29411765933036804 0.2078431397676468
0.6995074152946472 0.189325749874115 0.0063241105526685715 0.6274510025978088 0.6392157077789307 0.572549045085907
0.5197044610977173 0.2123796045780182 0.9889327883720398 0.34117648005485535 0.3294117748737335 0.30980393290519714
0.69852215051651 0.31422707438468933 0.9932806491851807 0.8549019694328308 0.8823529481887817 0.9058823585510254
0.7152709364891052 0.2842254936695099 0.991304337978363 1.0 1.0 1.0
0.5374384522438049 0.29196274280548096 0.29446640610694885 0.6235294342041016 0.6509804129600525 0.6901960968971252
0.5544335246086121 0.2556450366973877 0.29525691270828247 0.7215686440467834 0.729411780834198 0.7176470756530762
0.6034482717514038 0.18190431594848633 0.9901185631752014 0.40392157435417175 0.40784314274787903 0.4156862795352936
0.6487684845924377 0.2638559937477112 0.2956521809101105 0.48235294222831726 0.4941176474094391 0.46666666865348816
0.7256157398223877 0.31059530377388 0.29446640610694885 0.5058823823928833 0.5372549295425415 0.4941176474094391
0.6647783517837524 0.21080057322978973 0.006719367578625679 0.4156862795352936 0.4156862795352936 0.3764705955982208
0.7137930989265442 0.235275536775589 0.0071146246045827866 0.32156863808631897 0.3176470696926117 0.24705882370471954
0.5854679942131042 0.2534343898296356 0.29486167430877686 0.6901960968971252 0.6941176652908325 0.7019608020782471
0.6120689511299133 0.28264644742012024 0.19011858105659485 0.6392157077789307 0.6392157077789307 0.6000000238418579
0.564039409160614 0.24948681890964508 0.005928853526711464 0.20392157137393951 0.1921568661928177 0.1568627506494522
0.5938423871994019 0.19295752048492432 0.005928853526711464 0.43921568989753723 0.4313725531101227 0.37254902720451355
0.49458128213882446 0.21916942298412323 0.28418973088264465 0.11764705926179886 0.11764705926179886 0.10980392247438431
0.6192117929458618 0.23322279751300812 0.19881422817707062 0.4901960790157318 0.42352941632270813 0.3529411852359772
0.6603448390960693 0.27996209263801575 0.0063241105526685715 0.3490196168422699 0.33725491166114807 0.3019607961177826
0.5857142806053162 0.18537817895412445 0.9897233247756958 0.3960784375667572 0.3921568691730499 0.3843137323856354
0.5810344815254211 0.30917418003082275 0.29486167430877686 0.5686274766921997 0.5960784554481506 0.6274510025978088
0.6566502451896667 0.22580136358737946 0.24901185929775238 0.09803921729326248 0.0941176488995552 0.08627451211214066
0.6399014592170715 0.22201168537139893 0.9901185631752014 0.9725490212440491 0.9882352948188782 1.0
0.6305418610572815 0.224222332239151 0.19446639716625214 0.07058823853731155 0.06666667014360428 0.05882352963089943
0.6408867239952087 0.2616453468799591 0.2956521809101105 0.4745098054409027 0.48627451062202454 0.4588235318660736
0.49458128213882446 0.19374704360961914 0.9889327883720398 0.37254902720451355 0.3607843220233917 0.32549020648002625
0.6613300442695618 0.275856614112854 0.2956521809101105 0.47058823704719543 0.48235294222831726 0.45490196347236633
0.5953202247619629 0.28912046551704407 0.9885375499725342 0.3450980484485626 0.33725491166114807 0.3490196168422699
0.5679802894592285 0.26306647062301636 0.29486167430877686 0.7411764860153198 0.7490196228027344 0.7450980544090271
0.5556650161743164 0.26543501019477844 0.17549407482147217 0.054901961237192154 0.05882352963089943 0.06666667014360428
0.7177339792251587 0.1899573653936386 0.0063241105526685715 0.6784313917160034 0.6784313917160034 0.5764706134796143
0.6618226766586304 0.23117005825042725 0.0063241105526685715 0.30588236451148987 0.29411765933036804 0.25882354378700256
0.618719220161438 0.17985157668590546 0.005928853526711464 0.6745098233222961 0.6901960968971252 0.6352941393852234
0.6125615835189819 0.21964314579963684 0.1711462438106537 0.10588235408067703 0.11372549086809158 0.10980392247438431
0.6362069249153137 0.17685140669345856 0.9901185631752014 0.9450980424880981 0.9647058844566345 0.9882352948188782
0.5588669776916504 0.30301594734191895 0.9881423115730286 0.32156863808631897 0.3176470696926117 0.30980393290519714
0.6576354503631592 0.18237802386283875 0.005928853526711464 0.6745098233222961 0.6823529601097107 0.6274510025978088
0.6610837578773499 0.2327490895986557 0.15889328718185425 0.10980392247438431 0.09019608050584793 0.11372549086809158
0.543596088886261 0.2216958850622177 0.2960474193096161 0.3686274588108063 0.3921568691730499 0.3921568691730499
0.5509852170944214 0.25106585025787354 0.9885375499725342 0.30588236451148987 0.3019607961177826 0.2862745225429535
0.6270936131477356 0.29196274280548096 0.29525691270828247 0.5254902243614197 0.5411764979362488 0.545098066329956
0.5963054299354553 0.2910153269767761 0.9885375499725342 0.3176470696926117 0.3019607961177826 0.30588236451148987
0.7029556632041931 0.21695879101753235 0.006719367578625679 0.48235294222831726 0.47843137383461 0.3607843220233917
0.5455664992332458 0.3047528862953186 0.004743082914501429 0.2078431397676468 0.19607843458652496 0.16862745583057404
0.6017241477966309 0.2818569540977478 0.005928853526711464 0.10980392247438431 0.10588235408067703 0.08627451211214066
0.7027093768119812 0.1839570552110672 0.9905138611793518 1.0 1.0 1.0
0.6768472790718079 0.2851729094982147 0.2956521809101105 0.49803921580314636 0.5176470875740051 0.4941176474094391
0.5669950842857361 0.18806253373622894 0.005928853526711464 0.5254902243614197 0.529411792755127 0.46666666865348816
0.6300492882728577 0.3015948235988617 0.29525691270828247 0.5333333611488342 0.5686274766921997 0.5490196347236633
0.7036945819854736 0.24869729578495026 0.2960474193096161 0.4470588266849518 0.4745098054409027 0.4470588266849518
0.5182266235351562 0.24474972486495972 0.9881423115730286 0.30588236451148987 0.3019607961177826 0.2862745225429535
0.5029556751251221 0.2872256338596344 0.9877470135688782 0.29411765933036804 0.29019609093666077 0.2705882489681244
0.631280779838562 0.28012001514434814 0.005928853526711464 0.2235294133424759 0.21176470816135406 0.18431372940540314
0.6206896305084229 0.18285173177719116 0.005928853526711464 0.5882353186607361 0.6000000238418579 0.5568627715110779
0.6000000238418579 0.23890730738639832 0.005928853526711464 0.38823530077934265 0.3764705955982208 0.3176470696926117
0.5472906231880188 0.2809095084667206 0.9881423115730286 0.2980392277240753 0.29411765933036804 0.2862745225429535
0.692118227481842 0.22927522659301758 0.9889327883720398 0.95686274766922 0.9686274528503418 0.9882352948188782
0.6002463102340698 0.19358913600444794 0.005928853526711464 0.48627451062202454 0.4901960790157318 0.43529412150382996
0.5438423752784729 0.18837833404541016 0.9897233247756958 0.3764705955982208 0.37254902720451355 0.3529411852359772
0.6044334769248962 0.2723827660083771 0.17984189093112946 0.062745101749897 0.0784313753247261 0.08235294371843338
0.5492610931396484 0.16311384737491608 0.0063241105526685715 0.4901960790157318 0.5058823823928833 0.43921568989753723
0.6778324842453003 0.25753986835479736 0.9897233247756958 0.9647058844566345 0.9803921580314636 0.9843137264251709
0.6928571462631226 0.1864835023880005 0.9905138611793518 1.0 1.0 1.0
0.5928571224212646 0.2471182644367218 0.005928853526711464 0.250980406999588 0.239215686917305 0.20392157137393951
0.5189655423164368 0.2606979310512543 0.005138339940458536 0.24705882370471954 0.25882354378700256 0.1921568661928177
0.6820197105407715 0.22216959297657013 0.9885375499725342 0.9647058844566345 0.9686274528503418 0.9843137264251709
0.5869458317756653 0.23985472321510315 0.005928853526711464 0.2235294133424759 0.2078431397676468 0.1725490242242813
0.49458128213882446 0.20243170857429504 0.005928853526711464 0.47058823704719543 0.4745098054409027 0.45490196347236633
0.5620689392089844 0.21901153028011322 0.005928853526711464 0.239215686917305 0.239215686917305 0.1921568661928177
0.7384236454963684 0.2848570942878723 0.29367589950561523 0.48627451062202454 0.4901960790157318 0.47058823704719543
0.6290640234947205 0.20495815575122833 0.0063241105526685715 0.5058823823928833 0.501960813999176 0.42352941632270813
0.5746305584907532 0.2816990315914154 0.29486167430877686 0.5882353186607361 0.5921568870544434 0.6078431606292725
0.49729064106941223 0.31406915187835693 0.9877470135688782 0.3176470696926117 0.30588236451148987 0.2705882489681244
0.5509852170944214 0.2387494146823883 0.2960474193096161 0.7215686440467834 0.7372549176216125 0.7333333492279053
0.6625615954399109 0.19058898091316223 0.005928853526711464 0.6000000238418579 0.6078431606292725 0.5529412031173706
0.5522167682647705 0.24032843112945557 0.005928853526711464 0.16078431904315948 0.1568627506494522 0.1411764770746231
0.6310344934463501 0.2935417592525482 0.005928853526711464 0.20392157137393951 0.19607843458652496 0.14509804546833038
0.5650246143341064 0.19153639674186707 0.005928853526711464 0.41960784792900085 0.42352941632270813 0.3607843220233917
0.6342364549636841 0.21790620684623718 0.269565224647522 0.12156862765550613 0.10588235408067703 0.10196078568696976
0.5763546824455261 0.2213800698518753 0.2644268870353699 0.09803921729326248 0.0941176488995552 0.08627451211214066
0.6315270662307739 0.3158060908317566 0.9932806491851807 0.9215686321258545 0.9450980424880981 0.9450980424880981
0.6241379380226135 0.1926417201757431 0.005928853526711464 0.6549019813537598 0.658823549747467 0.5960784554481506
0.6022167205810547 0.23148587346076965 0.21541501581668854 0.45098039507865906 0.4117647111415863 0.3137255012989044
0.7357142567634583 0.30617401003837585 0.007509881630539894 0.2078431397676468 0.20000000298023224 0.15294118225574493
0.7113300561904907 0.24932891130447388 0.9905138611793518 0.9882352948188782 1.0 1.0
0.6384236216545105 0.29985788464546204 0.9924901127815247 0.9960784316062927 1.0 1.0
0.6637930870056152 0.30348965525627136 0.9924901127815247 1.0 1.0 1.0
0.7189655303955078 0.2531185746192932 0.991304337978363 0.9529411792755127 0.9843137264251709 0.9960784316062927
0.6849753856658936 0.22185377776622772 0.9885375499725342 0.9686274528503418 0.9725490212440491 0.9882352948188782
0.575123131275177 0.264645516872406 0.17588932812213898 0.05882352963089943 0.062745101749897 0.0784313753247261
0.7384236454963684 0.17132480442523956 0.9924901127815247 1.0 1.0 1.0
0.601477861404419 0.2897520959377289 0.1818181872367859 0.07058823853731155 0.07058823853731155 0.07058823853731155
0.635960578918457 0.28848886489868164 0.9916995763778687 0.9490196108818054 0.9529411792755127 0.9607843160629272
0.6374384164810181 0.30885836482048035 0.005138339940458536 0.04313725605607033 0.0470588244497776 0.027450980618596077
0.5564039349555969 0.259276807308197 0.9881423115730286 0.3019607961177826 0.2980392277240753 0.29019609093666077
0.5165024399757385 0.26906678080558777 0.004743082914501429 0.29411765933036804 0.29411765933036804 0.20000000298023224
0.6980295777320862 0.20606347918510437 0.9897233247756958 0.9803921580314636 0.9843137264251709 1.0
0.6509852409362793 0.19643139839172363 0.9893280863761902 0.9764705896377563 1.0 1.0
0.6773399114608765 0.22848570346832275 0.9881423115730286 0.95686274766922 0.9725490212440491 0.9843137264251709
0.6081280708312988 0.25785568356513977 0.1762845814228058 0.05882352963089943 0.062745101749897 0.07058823853731155
0.5605911612510681 0.22643296420574188 0.24624505639076233 0.12156862765550613 0.11764705926179886 0.10980392247438431
0.6514778137207031 0.2444339245557785 0.0063241105526685715 0.3019607961177826 0.30588236451148987 0.23529411852359772
0.7330049276351929 0.20811621844768524 0.992094874382019 1.0 1.0 1.0
0.5182266235351562 0.17353545129299164 0.0063241105526685715 0.5215686559677124 0.5333333611488342 0.46666666865348816
0.5758620500564575 0.2993841767311096 0.005138339940458536 0.14509804546833038 0.1411764770746231 0.12156862765550613
0.5364531874656677 0.3154902756214142 0.28972330689430237 0.07058823853731155 0.08627451211214066 0.09803921729326248
0.6490147709846497 0.305226594209671 0.29446640610694885 0.5058823823928833 0.5254902243614197 0.5098039507865906
0.6864532232284546 0.30885836482048035 0.9928853511810303 0.9333333373069763 0.9607843160629272 0.9843137264251709
0.7174876928329468 0.2583293914794922 0.9909090995788574 0.9725490212440491 0.9960784316062927 0.9960784316062927
0.6805418729782104 0.28927838802337646 0.2956521809101105 0.48235294222831726 0.5098039507865906 0.48235294222831726
0.5381773114204407 0.23906521499156952 0.2964426875114441 0.6235294342041016 0.6549019813537598 0.6666666865348816
0.6105911135673523 0.2589609920978546 0.29525691270828247 0.5254902243614197 0.5490196347236633 0.5411764979362488
0.7125615477561951 0.3137533664703369 0.007905138656497002 0.21176470816135406 0.21960784494876862 0.1764705926179886
0.6389162540435791 0.2640138864517212 0.2956521809101105 0.48235294222831726 0.4941176474094391 0.46666666865348816
0.5825123190879822 0.2212221622467041 0.2403162121772766 0.12156862765550613 0.11764705926179886 0.10196078568696976
0.6738916039466858 0.31438496708869934 0.006719367578625679 0.2705882489681244 0.27843138575553894 0.23529411852359772
0.6115763783454895 0.2215379774570465 0.0063241105526685715 0.3803921639919281 0.3686274588108063 0.30980393290519714
0.6512315273284912 0.22595925629138947 0.2956521809101105 0.5176470875740051 0.5372549295425415 0.5137255191802979
0.6273398995399475 0.2851729094982147 0.005928853526711464 0.18039216101169586 0.18039216101169586 0.1411764770746231
0.5724138021469116 0.18048317730426788 0.9901185631752014 0.38823530077934265 0.3843137323856354 0.3686274588108063
0.6261083483695984 0.17985157668590546 0.9901185631752014 0.9686274528503418 0.9882352948188782 1.0
0.543596088886261 0.27364596724510193 0.29486167430877686 0.6431372761726379 0.6627451181411743 0.6784313917160034
0.5253694653511047 0.2643297016620636 0.29486167430877686 0.529411792755127 0.5647059082984924 0.5843137502670288
0.5162561535835266 0.2966998219490051 0.004743082914501429 0.34117648005485535 0.3529411852359772 0.27843138575553894
0.6931034326553345 0.16011369228363037 0.005533596966415644 0.7372549176216125 0.7450980544090271 0.6941176652908325
0.6165024638175964 0.275698721408844 0.1822134405374527 0.08235294371843338 0.08627451211214066 0.0941176488995552
0.5613300204277039 0.22611716389656067 0.24387352168560028 0.12156862765550613 0.11764705926179886 0.10196078568696976
0.7266010046005249 0.2696984112262726 0.007509881630539894 0.15294118225574493 0.1568627506494522 0.10196078568696976
0.5280787944793701 0.27175113558769226 0.29486167430877686 0.5333333611488342 0.5607843399047852 0.5843137502670288
0.5568965673446655 0.21095846593379974 0.0063241105526685715 0.3607843220233917 0.3607843220233917 0.32156863808631897
0.7233990430831909 0.29796305298805237 0.2920948565006256 0.4901960790157318 0.5176470875740051 0.4901960790157318
0.5938423871994019 0.15979787707328796 0.9905138611793518 0.3607843220233917 0.35686275362968445 0.3490196168422699
0.6076354384422302 0.22232748568058014 0.186956524848938 0.0470588244497776 0.0470588244497776 0.03921568766236305
0.546798050403595 0.23985472321510315 0.005928853526711464 0.13725490868091583 0.1411764770746231 0.12156862765550613
0.5312808156013489 0.2869098484516144 0.29486167430877686 0.6117647290229797 0.6392157077789307 0.6705882549285889
0.5901477932929993 0.178430438041687 0.005928853526711464 0.529411792755127 0.5333333611488342 0.47058823704719543
0.6514778137207031 0.2640138864517212 0.16956521570682526 0.062745101749897 0.06666667014360428 0.07450980693101883
0.5278325080871582 0.30933207273483276 0.29446640610694885 0.572549045085907 0.5843137502670288 0.6196078658103943
0.6677339673042297 0.23195958137512207 0.9889327883720398 0.9450980424880981 0.95686274766922 0.9843137264251709
0.5894088745117188 0.30301594734191895 0.9885375499725342 0.3137255012989044 0.30980393290519714 0.3019607961177826
0.5423645377159119 0.22895942628383636 0.005928853526711464 0.20392157137393951 0.20392157137393951 0.16470588743686676
0.5820196866989136 0.20574766397476196 0.9893280863761902 0.4156862795352936 0.4156862795352936 0.40784314274787903
0.7061576247215271 0.23890730738639832 0.9901185631752014 0.9725490212440491 0.9803921580314636 0.9764705896377563
0.5820196866989136 0.22927522659301758 0.2960474193096161 0.6235294342041016 0.6352941393852234 0.6549019813537598
0.7359606027603149 0.2850149869918823 0.29367589950561523 0.4941176474094391 0.49803921580314636 0.4745098054409027
0.6051723957061768 0.20037896931171417 0.0063241105526685715 0.5843137502670288 0.572549045085907 0.49803921580314636
0.6086207032203674 0.1722722202539444 0.991304337978363 0.6470588445663452 0.6784313917160034 0.686274528503418
0.5928571224212646 0.2521711587905884 0.9885375499725342 0.32549020648002625 0.3294117748737335 0.3450980484485626
0.682758629322052 0.3079109489917755 0.29446640610694885 0.45490196347236633 0.4941176474094391 0.4627451002597809
0.6928571462631226 0.20022106170654297 0.0063241105526685715 0.5764706134796143 0.5764706134796143 0.48235294222831726
0.5438423752784729 0.27727773785591125 0.005533596966415644 0.1568627506494522 0.14901961386203766 0.10196078568696976
0.6561576128005981 0.31406915187835693 0.2964426875114441 0.4901960790157318 0.5137255191802979 0.5137255191802979
0.5618226528167725 0.2731722593307495 0.29486167430877686 0.6235294342041016 0.6274510025978088 0.6352941393852234
0.734236478805542 0.1954839676618576 0.9924901127815247 0.9882352948188782 0.9921568632125854 1.0
0.5423645377159119 0.2559608519077301 0.005533596966415644 0.20000000298023224 0.18431372940540314 0.14901961386203766
0.6362069249153137 0.2651192247867584 0.991304337978363 0.9450980424880981 0.9647058844566345 0.9764705896377563
0.5465517044067383 0.25501343607902527 0.005533596966415644 0.16470588743686676 0.1725490242242813 0.16078431904315948
0.5933497548103333 0.27159324288368225 0.9885375499725342 0.3137255012989044 0.3294117748737335 0.3333333432674408
0.7103448510169983 0.15885046124458313 0.992094874382019 1.0 1.0 1.0
0.564039409160614 0.2698563039302826 0.29486167430877686 0.7490196228027344 0.7568627595901489 0.7529411911964417
0.5310344696044922 0.19469445943832397 0.9897233247756958 0.3686274588108063 0.37254902720451355 0.3490196168422699
0.5399014949798584 0.2823306620121002 0.9881423115730286 0.26274511218070984 0.25882354378700256 0.250980406999588
0.7334975600242615 0.2581714689731598 0.2964426875114441 0.48627451062202454 0.4941176474094391 0.4745098054409027
0.6849753856658936 0.2580135762691498 0.9897233247756958 0.9607843160629272 0.9725490212440491 0.9921568632125854
0.6450738906860352 0.3109110891819 0.2956521809101105 0.49803921580314636 0.529411792755127 0.5372549295425415
0.6578817963600159 0.2442760169506073 0.14664031565189362 0.20392157137393951 0.21176470816135406 0.2078431397676468
0.7073891758918762 0.2638559937477112 0.007509881630539894 0.22745098173618317 0.21176470816135406 0.16470588743686676
0.6307882070541382 0.2213800698518753 0.17075099050998688 0.10196078568696976 0.10196078568696976 0.0941176488995552
0.5029556751251221 0.26038211584091187 0.2956521809101105 0.4941176474094391 0.529411792755127 0.5490196347236633
0.5517241358757019 0.28075161576271057 0.29486167430877686 0.5960784554481506 0.6313725709915161 0.6509804129600525
0.7352216839790344 0.3126480281352997 0.29486167430877686 0.5215686559677124 0.5568627715110779 0.545098066329956
0.4997536838054657 0.31233224272727966 0.004347825888544321 0.3960784375667572 0.3843137323856354 0.30980393290519714
0.6822659969329834 0.1699036806821823 0.005533596966415644 0.5960784554481506 0.6039215922355652 0.5490196347236633
0.7046797871589661 0.18869413435459137 0.0063241105526685715 0.6470588445663452 0.658823549747467 0.5843137502670288
0.6554186940193176 0.3042791783809662 0.29407113790512085 0.5098039507865906 0.5176470875740051 0.49803921580314636
0.6300492882728577 0.23448602855205536 0.19367589056491852 0.49803921580314636 0.43921568989753723 0.3490196168422699
0.5177339911460876 0.23101216554641724 0.29525691270828247 0.5176470875740051 0.5647059082984924 0.5647059082984924
0.6032019853591919 0.23685456812381744 0.29525691270828247 0.5176470875740051 0.5215686559677124 0.49803921580314636
0.5724138021469116 0.2700141966342926 0.29486167430877686 0.6078431606292725 0.6235294342041016 0.6196078658103943
0.7177339792251587 0.28596243262290955 0.29446640610694885 0.4901960790157318 0.5176470875740051 0.4901960790157318
0.7135468125343323 0.3049107789993286 0.29367589950561523 0.4745098054409027 0.49803921580314636 0.48235294222831726
0.5906403660774231 0.21032686531543732 0.9893280863761902 0.41960784792900085 0.4156862795352936 0.40784314274787903
0.5913792848587036 0.23622295260429382 0.29525691270828247 0.572549045085907 0.572549045085907 0.5411764979362488
0.5108374357223511 0.2880151569843292 0.29486167430877686 0.4941176474094391 0.5215686559677124 0.545098066329956
0.49876847863197327 0.28627821803092957 0.9877470135688782 0.27843138575553894 0.2666666805744171 0.239215686917305
0.5076354742050171 0.23417021334171295 0.29486167430877686 0.5058823823928833 0.5490196347236633 0.5647059082984924
0.6295566558837891 0.22643296420574188 0.0063241105526685715 0.26274511218070984 0.2549019753932953 0.20392157137393951
0.6706896424293518 0.19895784556865692 0.9893280863761902 0.9333333373069763 0.9529411792755127 0.9764705896377563
0.5532019734382629 0.25185537338256836 0.29525691270828247 0.729411780834198 0.7372549176216125 0.7333333492279053
0.5123152732849121 0.2731722593307495 0.29486167430877686 0.49803921580314636 0.529411792755127 0.5411764979362488
0.5699507594108582 0.22216959297657013 0.26403161883354187 0.10980392247438431 0.10588235408067703 0.09803921729326248
0.6386699676513672 0.30301594734191895 0.9924901127815247 1.0 1.0 1.0
0.5229064226150513 0.3156481981277466 0.9877470135688782 0.30980393290519714 0.29019609093666077 0.2666666805744171
0.7004926204681396 0.2935417592525482 0.992094874382019 0.9137254953384399 0.9450980424880981 0.9882352948188782
0.5633004903793335 0.1669035255908966 0.0063241105526685715 0.4745098054409027 0.48627451062202454 0.41960784792900085
0.5206896662712097 0.20811621844768524 0.9893280863761902 0.35686275362968445 0.35686275362968445 0.32549020648002625
0.7019704580307007 0.2842254936695099 0.007905138656497002 0.16862745583057404 0.1568627506494522 0.12156862765550613
0.49802955985069275 0.19374704360961914 0.9893280863761902 0.37254902720451355 0.364705890417099 0.3176470696926117
0.6497536897659302 0.2730143666267395 0.2956521809101105 0.4745098054409027 0.501960813999176 0.47058823704719543
0.7216748595237732 0.22343280911445618 0.991304337978363 0.9960784316062927 1.0 1.0
0.615517258644104 0.2209063619375229 0.2237154096364975 0.10980392247438431 0.10588235408067703 0.09019608050584793
0.6820197105407715 0.23085425794124603 0.006719367578625679 0.3450980484485626 0.35686275362968445 0.29019609093666077
0.5896551609039307 0.24380230903625488 0.17588932812213898 0.0941176488995552 0.08235294371843338 0.062745101749897
0.6182265877723694 0.21932733058929443 0.239130437374115 0.10588235408067703 0.10196078568696976 0.08627451211214066
0.5669950842857361 0.23985472321510315 0.9885375499725342 0.2862745225429535 0.2862745225429535 0.2862745225429535
0.7263546586036682 0.21159008145332336 0.006719367578625679 0.49803921580314636 0.5098039507865906 0.40392157435417175
0.7359606027603149 0.16706141829490662 0.005928853526711464 0.686274528503418 0.6980392336845398 0.6627451181411743
0.6834975481033325 0.30333176255226135 0.0071146246045827866 0.03529411926865578 0.05882352963089943 0.05882352963089943
0.5019704699516296 0.21711668372154236 0.9889327883720398 0.3450980484485626 0.3450980484485626 0.3137255012989044
0.6933497786521912 0.23148587346076965 0.011857707053422928 0.06666667014360428 0.062745101749897 0.0470588244497776
0.5352216958999634 0.1755881905555725 0.9897233247756958 0.3607843220233917 0.3490196168422699 0.3137255012989044
0.4926108419895172 0.2786988914012909 0.29486167430877686 0.5137255191802979 0.5490196347236633 0.5764706134796143
0.6009852290153503 0.21190589666366577 0.0063241105526685715 0.40784314274787903 0.4117647111415863 0.35686275362968445
0.5155172348022461 0.2782251834869385 0.29486167430877686 0.5058823823928833 0.545098066329956 0.5490196347236633
0.738916277885437 0.25075003504753113 0.0071146246045827866 0.21960784494876862 0.21568627655506134 0.14509804546833038
0.6830049157142639 0.22516974806785583 0.2960474193096161 0.5372549295425415 0.529411792755127 0.5333333611488342
0.5443349480628967 0.2588030993938446 0.005533596966415644 0.125490203499794 0.12941177189350128 0.10980392247438431
0.621921181678772 0.2355913519859314 0.1826086938381195 0.12156862765550613 0.10588235408067703 0.062745101749897
0.6751231551170349 0.27490919828414917 0.0063241105526685715 0.1411764770746231 0.1411764770746231 0.0941176488995552
0.6635468006134033 0.16137690842151642 0.005533596966415644 0.6627451181411743 0.7019608020782471 0.658823549747467
0.6115763783454895 0.23669667541980743 0.29525691270828247 0.49803921580314636 0.49803921580314636 0.4588235318660736
0.5344827771186829 0.1752723753452301 0.9897233247756958 0.364705890417099 0.364705890417099 0.32549020648002625
0.6721674799919128 0.21348491311073303 0.9889327883720398 0.9450980424880981 0.9647058844566345 0.9882352948188782
0.5339901447296143 0.305068701505661 0.9881423115730286 0.30980393290519714 0.2980392277240753 0.27843138575553894
0.6206896305084229 0.31217432022094727 0.2956521809101105 0.501960813999176 0.5215686559677124 0.5372549295425415
0.7298029661178589 0.1953260749578476 0.006719367578625679 0.5921568870544434 0.5960784554481506 0.4745098054409027
0.6854679584503174 0.22011685371398926 0.006719367578625679 0.48235294222831726 0.4745098054409027 0.32549020648002625
0.6315270662307739 0.2360650599002838 0.18458497524261475 0.29411765933036804 0.23529411852359772 0.15294118225574493
0.7214285731315613 0.27664613723754883 0.007509881630539894 0.30980393290519714 0.29411765933036804 0.24705882370471954
0.6194581389427185 0.2216958850622177 0.21699604392051697 0.0941176488995552 0.09019608050584793 0.07450980693101883
0.7371920943260193 0.2902258038520813 0.2920948565006256 0.47843137383461 0.501960813999176 0.48627451062202454
0.6443349719047546 0.30285805463790894 0.9924901127815247 1.0 1.0 1.0
0.5470443367958069 0.2785409688949585 0.29486167430877686 0.5764706134796143 0.6117647290229797 0.6313725709915161
0.573399007320404 0.24585504829883575 0.17272727191448212 0.054901961237192154 0.062745101749897 0.05098039284348488
0.6583743691444397 0.3101215958595276 0.29525691270828247 0.48627451062202454 0.5215686559677124 0.5098039507865906
0.6721674799919128 0.18822042644023895 0.9901185631752014 0.9450980424880981 0.9647058844566345 0.9882352948188782
0.5788177251815796 0.21743249893188477 0.14940711855888367 0.16470588743686676 0.16078431904315948 0.14509804546833038
0.573399007320404 0.24553923308849335 0.17272727191448212 0.054901961237192154 0.062745101749897 0.05098039284348488
0.6640394330024719 0.224222332239151 0.16837944090366364 0.6039215922355652 0.2549019753932953 0.12156862765550613
0.6820197105407715 0.27506712079048157 0.9909090995788574 0.9607843160629272 0.9803921580314636 0.9921568632125854
0.5214285850524902 0.30348965525627136 0.9881423115730286 0.3137255012989044 0.3019607961177826 0.2823529541492462
0.6605911254882812 0.17590399086475372 0.9905138611793518 0.9254902005195618 0.9411764740943909 0.9764705896377563
0.6559113264083862 0.26622453331947327 0.9905138611793518 0.9333333373069763 0.9529411792755127 0.9764705896377563
0.6261083483695984 0.2523290812969208 0.9916995763778687 0.9686274528503418 0.9921568632125854 0.9921568632125854
0.5073891878128052 0.2640138864517212 0.9881423115730286 0.2862745225429535 0.27450981736183167 0.24705882370471954
0.5573891401290894 0.2498026192188263 0.005928853526711464 0.21568627655506134 0.20000000298023224 0.16470588743686676
0.5802955627441406 0.30617401003837585 0.005138339940458536 0.1882352977991104 0.1882352977991104 0.1411764770746231
0.567241370677948 0.22453813254833221 0.23794466257095337 0.125490203499794 0.12156862765550613 0.10588235408067703
0.5948275923728943 0.24838149547576904 0.29525691270828247 0.5960784554481506 0.615686297416687 0.6000000238418579
0.6945812702178955 0.24190746247768402 0.007509881630539894 0.11764705926179886 0.12156862765550613 0.09803921729326248
0.7325122952461243 0.1894836574792862 0.992094874382019 1.0 1.0 1.0
0.6995074152946472 0.17306174337863922 0.9909090995788574 1.0 1.0 1.0
0.6160098314285278 0.25138166546821594 0.005928853526711464 0.21960784494876862 0.2078431397676468 0.1725490242242813
0.5091133117675781 0.31201642751693726 0.29446640610694885 0.5529412031173706 0.5647059082984924 0.5843137502670288
0.5194581151008606 0.3071214258670807 0.004743082914501429 0.33725491166114807 0.3450980484485626 0.29019609093666077
0.63768470287323 0.30917418003082275 0.005138339940458536 0.0470588244497776 0.05098039284348488 0.027450980618596077
0.5566502213478088 0.28280436992645264 0.9881423115730286 0.3019607961177826 0.2980392277240753 0.29019609093666077
0.6667487621307373 0.22548554837703705 0.9889327883720398 0.9490196108818054 0.9607843160629272 0.9882352948188782
0.5630542039871216 0.2152218520641327 0.9889327883720398 0.3843137323856354 0.38823530077934265 0.3686274588108063
0.5987684726715088 0.24917100369930267 0.1762845814228058 0.054901961237192154 0.054901961237192154 0.054901961237192154
0.6386699676513672 0.2468024641275406 0.0063241105526685715 0.21176470816135406 0.21176470816135406 0.16470588743686676
0.7243842482566833 0.3020685315132141 0.9924901127815247 1.0 1.0 1.0
0.5386699438095093 0.21601137518882751 0.9889327883720398 0.35686275362968445 0.35686275362968445 0.32549020648002625
0.5684729218482971 0.22201168537139893 0.19090908765792847 0.08235294371843338 0.08235294371843338 0.07450980693101883
0.5339901447296143 0.28627821803092957 0.29486167430877686 0.615686297416687 0.6431372761726379 0.6823529601097107
0.5729063749313354 0.26638245582580566 0.9885375499725342 0.3019607961177826 0.3019607961177826 0.3019607961177826
0.5938423871994019 0.2982788681983948 0.9885375499725342 0.3333333432674408 0.3294117748737335 0.32156863808631897
0.6960591077804565 0.30601611733436584 0.29407113790512085 0.49803921580314636 0.5176470875740051 0.4901960790157318
0.68916255235672 0.30080530047416687 0.007905138656497002 0.14509804546833038 0.1411764770746231 0.125490203499794
0.568965494632721 0.2150639444589615 0.16996046900749207 0.12156862765550613 0.12156862765550613 0.12156862765550613
0.5581280589103699 0.29480499029159546 0.005138339940458536 0.27843138575553894 0.2666666805744171 0.239215686917305
0.6640394330024719 0.27175113558769226 0.9905138611793518 0.9686274528503418 0.9882352948188782 1.0
0.5027093887329102 0.23227538168430328 0.005533596966415644 0.16470588743686676 0.16078431904315948 0.15294118225574493
0.5044335126876831 0.1725880354642868 0.9893280863761902 0.37254902720451355 0.364705890417099 0.3176470696926117
0.5423645377159119 0.281225323677063 0.9881423115730286 0.2862745225429535 0.2823529541492462 0.27450981736183167
0.6012315154075623 0.27190905809402466 0.29486167430877686 0.6196078658103943 0.6235294342041016 0.6313725709915161
0.6660098433494568 0.3041212558746338 0.005928853526711464 0.2823529541492462 0.29019609093666077 0.24705882370471954
0.626600980758667 0.17669351398944855 0.9901185631752014 0.9764705896377563 0.9921568632125854 0.9960784316062927
0.6588670015335083 0.22611716389656067 0.17984189093112946 0.239215686917305 0.10980392247438431 0.07450980693101883
0.5842364430427551 0.16516658663749695 0.9905138611793518 0.38823530077934265 0.3843137323856354 0.3686274588108063
0.5502462983131409 0.23085425794124603 0.2968379557132721 0.7098039388656616 0.7254902124404907 0.7215686440467834
0.6110837459564209 0.2355913519859314 0.0063241105526685715 0.29019609093666077 0.2823529541492462 0.2235294133424759
0.7310344576835632 0.23211747407913208 0.992094874382019 0.9764705896377563 0.9921568632125854 1.0
0.7056650519371033 0.21790620684623718 0.006719367578625679 0.43529412150382996 0.43529412150382996 0.3333333432674408
0.7349753975868225 0.2302226424217224 0.006719367578625679 0.3607843220233917 0.35686275362968445 0.27450981736183167
0.5081281065940857 0.24569714069366455 0.005138339940458536 0.19607843458652496 0.19607843458652496 0.1568627506494522
0.6487684845924377 0.29148903489112854 0.005928853526711464 0.2666666805744171 0.2666666805744171 0.23529411852359772
0.5758620500564575 0.2679614722728729 0.1766798347234726 0.07058823853731155 0.06666667014360428 0.08627451211214066
0.5564039349555969 0.259276807308197 0.9881423115730286 0.3019607961177826 0.2980392277240753 0.29019609093666077
0.6793103218078613 0.2441181093454361 0.9889327883720398 0.9607843160629272 0.9764705896377563 0.9882352948188782
0.6992610692977905 0.26906678080558777 0.007509881630539894 0.1882352977991104 0.1764705926179886 0.14901961386203766
0.5034482479095459 0.22295910120010376 0.29328063130378723 0.5058823823928833 0.5411764979362488 0.529411792755127
0.49334976077079773 0.28012001514434814 0.29486167430877686 0.5098039507865906 0.545098066329956 0.572549045085907
0.55147784948349 0.25090792775154114 0.9885375499725342 0.3019607961177826 0.2980392277240753 0.2823529541492462
0.6534482836723328 0.2382756918668747 0.9897233247756958 0.9137254953384399 0.9411764740943909 0.9725490212440491
0.4965517222881317 0.21932733058929443 0.28774702548980713 0.11764705926179886 0.11764705926179886 0.11764705926179886
0.5389162302017212 0.23180167376995087 0.2968379557132721 0.6392157077789307 0.6784313917160034 0.686274528503418
0.6615763306617737 0.23622295260429382 0.9893280863761902 0.9254902005195618 0.9529411792755127 0.9764705896377563
0.6258620619773865 0.23669667541980743 0.991304337978363 1.0 1.0 1.0
0.517241358757019 0.2576977610588074 0.005138339940458536 0.3137255012989044 0.3019607961177826 0.24313725531101227
0.4950738847255707 0.30017369985580444 0.29446640610694885 0.501960813999176 0.529411792755127 0.5529412031173706
0.568965494632721 0.29212063550949097 0.9881423115730286 0.32156863808631897 0.32156863808631897 0.3137255012989044
0.5243842601776123 0.19027316570281982 0.9893280863761902 0.3529411852359772 0.3529411852359772 0.32156863808631897
0.6926108598709106 0.275856614112854 0.2960474193096161 0.4745098054409027 0.4941176474094391 0.47843137383461
0.6536945700645447 0.19358913600444794 0.9893280863761902 0.9725490212440491 0.9921568632125854 1.0
0.5852216482162476 0.2415916621685028 0.005928853526711464 0.2862745225429535 0.27450981736183167 0.24705882370471954
0.610837459564209 0.3158060908317566 0.2956521809101105 0.49803921580314636 0.5215686559677124 0.5215686559677124
0.7362068891525269 0.30570030212402344 0.9928853511810303 0.9960784316062927 1.0 1.0
0.6051723957061768 0.21932733058929443 0.9905138611793518 0.47843137383461 0.5058823823928833 0.5372549295425415
0.7066502571105957 0.17985157668590546 0.9909090995788574 1.0 1.0 1.0
0.6802955865859985 0.21080057322978973 0.9889327883720398 0.9686274528503418 0.9725490212440491 0.9882352948188782
0.6987684965133667 0.23685456812381744 0.9897233247756958 0.9529411792755127 0.9686274528503418 1.0
0.5603448152542114 0.2387494146823883 0.2960474193096161 0.7490196228027344 0.7568627595901489 0.7372549176216125
0.699999988079071 0.19674719870090485 0.0063241105526685715 0.6392157077789307 0.6470588445663452 0.5647059082984924
0.6125615835189819 0.2041686475276947 0.9916995763778687 1.0 1.0 1.0
0.7036945819854736 0.18506237864494324 0.9905138611793518 1.0 1.0 1.0
0.674876868724823 0.19990526139736176 0.0063241105526685715 0.6196078658103943 0.6235294342041016 0.5686274766921997
0.7041872143745422 0.2666982412338257 0.2960474193096161 0.47058823704719543 0.4901960790157318 0.46666666865348816
0.5399014949798584 0.2183799147605896 0.005928853526711464 0.25882354378700256 0.24705882370471954 0.21176470816135406
0.567241370677948 0.22374862432479858 0.19683794677257538 0.062745101749897 0.062745101749897 0.062745101749897
0.618719220161438 0.27727773785591125 0.005928853526711464 0.1921568661928177 0.18039216101169586 0.15294118225574493
0.6241379380226135 0.1926417201757431 0.005928853526711464 0.6549019813537598 0.658823549747467 0.5960784554481506
0.5746305584907532 0.18790462613105774 0.9897233247756958 0.3843137323856354 0.3803921639919281 0.364705890417099
0.49704432487487793 0.19201010465621948 0.9893280863761902 0.3686274588108063 0.35686275362968445 0.32156863808631897
0.6637930870056152 0.31075319647789 0.9932806491851807 0.9686274528503418 0.9843137264251709 0.9960784316062927
0.49433496594429016 0.21206378936767578 0.14861659705638885 0.23529411852359772 0.2235294133424759 0.16470588743686676
0.5788177251815796 0.2445918172597885 0.17312252521514893 0.062745101749897 0.07058823853731155 0.06666667014360428
0.5591133236885071 0.29164692759513855 0.29446640610694885 0.6509804129600525 0.6666666865348816 0.7098039388656616
0.5002462863922119 0.1806410849094391 0.005928853526711464 0.6705882549285889 0.6901960968971252 0.6117647290229797
0.5881773233413696 0.2469603717327118 0.005928853526711464 0.0941176488995552 0.08235294371843338 0.054901961237192154
0.6576354503631592 0.28264644742012024 0.991304337978363 0.9686274528503418 0.9882352948188782 1.0
0.554679811000824 0.17369335889816284 0.0063241105526685715 0.7098039388656616 0.7176470756530762 0.6666666865348816
0.5862069129943848 0.16611400246620178 0.9905138611793518 0.3843137323856354 0.3803921639919281 0.37254902720451355
0.6472906470298767 0.23495973646640778 0.2956521809101105 0.4588235318660736 0.4627451002597809 0.43921568989753723
0.5115763545036316 0.2850149869918823 0.29486167430877686 0.49803921580314636 0.5254902243614197 0.5490196347236633
0.5012315511703491 0.3015948235988617 0.29446640610694885 0.5098039507865906 0.5254902243614197 0.5607843399047852
0.7248768210411072 0.24317069351673126 0.2964426875114441 0.46666666865348816 0.4901960790157318 0.4745098054409027
0.5874384045600891 0.29954206943511963 0.005138339940458536 0.10588235408067703 0.09019608050584793 0.0784313753247261
0.7325122952461243 0.30380547046661377 0.9924901127815247 1.0 1.0 1.0
0.507881760597229 0.2668561637401581 0.29486167430877686 0.4901960790157318 0.5176470875740051 0.5411764979362488
0.5847290754318237 0.18506237864494324 0.9897233247756958 0.40784314274787903 0.40392157435417175 0.3960784375667572
0.554679811000824 0.29417338967323303 0.29446640610694885 0.6431372761726379 0.6549019813537598 0.7137255072593689
0.706403911113739 0.2126954048871994 0.9901185631752014 0.9960784316062927 0.9960784316062927 0.9960784316062927
0.5810344815254211 0.31438496708869934 0.9885375499725342 0.3843137323856354 0.3803921639919281 0.3607843220233917
0.579802930355072 0.2213800698518753 0.22806324064731598 0.125490203499794 0.12156862765550613 0.10588235408067703
0.6613300442695618 0.1869572103023529 0.005928853526711464 0.7058823704719543 0.7176470756530762 0.6745098233222961
0.7330049276351929 0.18206220865249634 0.992094874382019 1.0 1.0 1.0
0.5086206793785095 0.21901153028011322 0.9889327883720398 0.35686275362968445 0.3450980484485626 0.3176470696926117
0.5763546824455261 0.25106585025787354 0.005928853526711464 0.09803921729326248 0.0941176488995552 0.0784313753247261
0.5825123190879822 0.26275068521499634 0.17430830001831055 0.05882352963089943 0.06666667014360428 0.062745101749897
0.6586207151412964 0.2553292214870453 0.2956521809101105 0.45490196347236633 0.4745098054409027 0.4470588266849518
0.7204433679580688 0.206852987408638 0.991304337978363 0.9764705896377563 1.0 1.0
0.6288177371025085 0.2212221622467041 0.22213438153266907 0.09803921729326248 0.0941176488995552 0.0784313753247261
0.575123131275177 0.22485393285751343 0.005928853526711464 0.23137255012989044 0.21960784494876862 0.14509804546833038
0.5748768448829651 0.24822358787059784 0.29525691270828247 0.7254902124404907 0.7254902124404907 0.7254902124404907
0.6623152494430542 0.2412758618593216 0.2956521809101105 0.4588235318660736 0.47843137383461 0.45490196347236633
0.6009852290153503 0.24032843112945557 0.005928853526711464 0.24313725531101227 0.22745098173618317 0.18431372940540314
0.6958128213882446 0.23053844273090363 0.0071146246045827866 0.07058823853731155 0.07058823853731155 0.03921568766236305
0.5083743929862976 0.2272224873304367 0.29407113790512085 0.5137255191802979 0.5607843399047852 0.5529412031173706
0.7226601243019104 0.30885836482048035 0.007905138656497002 0.18431372940540314 0.1764705926179886 0.11764705926179886
0.5556650161743164 0.1842728555202484 0.005928853526711464 0.5843137502670288 0.5921568870544434 0.5372549295425415
0.6637930870056152 0.30348965525627136 0.9924901127815247 1.0 1.0 1.0
0.5165024399757385 0.30254223942756653 0.29446640610694885 0.5803921818733215 0.5960784554481506 0.6313725709915161
0.6578817963600159 0.28612032532691956 0.2956521809101105 0.4941176474094391 0.5058823823928833 0.47843137383461
0.570443332195282 0.20495815575122833 0.0063241105526685715 0.45098039507865906 0.4431372582912445 0.3921568691730499
0.559359610080719 0.23338070511817932 0.9885375499725342 0.3176470696926117 0.3137255012989044 0.30588236451148987
0.5098522305488586 0.19011527299880981 0.9893280863761902 0.3529411852359772 0.3607843220233917 0.3176470696926117
0.5147783160209656 0.2782251834869385 0.0035573123022913933 0.32156863808631897 0.3176470696926117 0.23529411852359772
0.6556650400161743 0.1757460981607437 0.005928853526711464 0.6235294342041016 0.6313725709915161 0.5803921818733215
0.5785714387893677 0.2726985514163971 0.005928853526711464 0.21176470816135406 0.20000000298023224 0.1725490242242813
0.5800492763519287 0.286751925945282 0.29486167430877686 0.5843137502670288 0.6196078658103943 0.615686297416687
0.6736453175544739 0.275698721408844 0.2956521809101105 0.4901960790157318 0.501960813999176 0.4588235318660736
0.49729064106941223 0.23085425794124603 0.005533596966415644 0.15294118225574493 0.14901961386203766 0.13333334028720856
0.5270935893058777 0.30885836482048035 0.005138339940458536 0.3921568691730499 0.3960784375667572 0.34117648005485535
0.5598522424697876 0.24838149547576904 0.9885375499725342 0.32549020648002625 0.32156863808631897 0.30588236451148987
0.6576354503631592 0.22832781076431274 0.2347826063632965 0.12156862765550613 0.11764705926179886 0.10980392247438431
0.7093595862388611 0.23117005825042725 0.006719367578625679 0.3529411852359772 0.34117648005485535 0.2666666805744171
0.7216748595237732 0.3023843467235565 0.29288536310195923 0.4941176474094391 0.5254902243614197 0.48235294222831726
0.7019704580307007 0.26290857791900635 0.9901185631752014 0.9450980424880981 0.9803921580314636 1.0
0.6972906589508057 0.2966998219490051 0.007905138656497002 0.06666667014360428 0.06666667014360428 0.03529411926865578
0.5288177132606506 0.25390809774398804 0.9881423115730286 0.3019607961177826 0.2980392277240753 0.29019609093666077
0.5418719053268433 0.20053687691688538 0.0063241105526685715 0.364705890417099 0.37254902720451355 0.32156863808631897
0.5174877047538757 0.22816990315914154 0.9885375499725342 0.33725491166114807 0.3333333432674408 0.3137255012989044
0.6509852409362793 0.2409600466489792 0.0063241105526685715 0.3176470696926117 0.29019609093666077 0.21960784494876862
0.635960578918457 0.2414337545633316 0.29525691270828247 0.48235294222831726 0.48235294222831726 0.45098039507865906
0.6152709126472473 0.2239065170288086 0.19683794677257538 0.07058823853731155 0.06666667014360428 0.05882352963089943
0.5802955627441406 0.16500867903232574 0.9905138611793518 0.3960784375667572 0.3921568691730499 0.3764705955982208
0.5591133236885071 0.16832464933395386 0.9901185631752014 0.35686275362968445 0.3450980484485626 0.30980393290519714
0.5460591316223145 0.20606347918510437 0.9893280863761902 0.38823530077934265 0.3843137323856354 0.364705890417099
0.4992610812187195 0.28280436992645264 0.002766798483207822 0.25882354378700256 0.24705882370471954 0.21960784494876862
0.5706896781921387 0.2499605268239975 0.9885375499725342 0.32549020648002625 0.32549020648002625 0.32549020648002625
0.6310344934463501 0.17306174337863922 0.9901185631752014 0.95686274766922 0.9686274528503418 0.9882352948188782
