0.9864531755447388 0.908416211605072 0.8533596992492676 0.07058823853731155 0.07058823853731155 0.062745101749897
0.987438440322876 0.7989894151687622 0.8418972492218018 0.5372549295425415 0.529411792755127 0.47058823704719543
0.9706896543502808 0.8900994658470154 0.005533596966415644 0.43921568989753723 0.45098039507865906 0.3686274588108063
0.9859606027603149 0.8400442004203796 0.5051383376121521 0.08627451211214066 0.0784313753247261 0.08235294371843338
0.9847290515899658 0.8561503291130066 0.9233201742172241 0.4745098054409027 0.43921568989753723 0.3803921639919281
0.9844827651977539 0.8578872680664062 0.9059288501739502 0.48627451062202454 0.45098039507865906 0.3843137323856354
0.8958128094673157 0.9221537709236145 0.9889327883720398 0.4274509847164154 0.3921568691730499 0.32549020648002625
0.9837438464164734 0.8758882284164429 0.005533596966415644 0.47058823704719543 0.48627451062202454 0.38823530077934265
0.9847290515899658 0.8605716228485107 0.9217391014099121 0.48627451062202454 0.4431372582912445 0.37254902720451355
0.9748768210411072 0.832149088382721 0.02964426949620247 0.3843137323856354 0.3960784375667572 0.4156862795352936
0.9849753975868225 0.8067266941070557 0.4007905125617981 0.7607843279838562 0.7490196228027344 0.7137255072593689
0.9955664873123169 0.8702036738395691 0.005533596966415644 0.3529411852359772 0.3803921639919281 0.3529411852359772
0.8677340149879456 0.9216800928115845 0.9889327883720398 0.43529412150382996 0.4000000059604645 0.3333333432674408
0.9830049276351929 0.8337280750274658 0.7747035622596741 0.2666666805744171 0.2823529541492462 0.29411765933036804
0.9834975600242615 0.7956734299659729 0.47233203053474426 0.7411764860153198 0.7411764860153198 0.6941176652908325
0.9243842363357544 0.9051002860069275 0.9897233247756958 0.3960784375667572 0.3607843220233917 0.29411765933036804
0.9766010046005249 0.8307279348373413 0.04466403275728226 0.4588235318660736 0.4901960790157318 0.49803921580314636
0.9187192320823669 0.9396810531616211 0.9889327883720398 0.364705890417099 0.32156863808631897 0.24313725531101227
0.982758641242981 0.8237801790237427 0.9747035503387451 0.26274511218070984 0.22745098173618317 0.16078431904315948
0.9413793087005615 0.7933049201965332 0.05770751088857651 0.1411764770746231 0.21568627655506134 0.729411780834198
0.9820197224617004 0.7912521958351135 0.22608695924282074 0.7490196228027344 0.7529411911964417 0.6901960968971252
0.8933497667312622 0.874940812587738 0.005928853526711464 0.4901960790157318 0.46666666865348816 0.4117647111415863
0.9504926204681396 0.9265750646591187 0.0063241105526685715 0.6078431606292725 0.5882353186607361 0.5098039507865906
0.9837438464164734 0.7969366908073425 0.447430819272995 0.7411764860153198 0.7215686440467834 0.6980392336845398
0.9849753975868225 0.8166745901107788 0.6351778507232666 0.7411764860153198 0.7254902124404907 0.6784313917160034
0.9408866763114929 0.9341544508934021 0.006719367578625679 0.5176470875740051 0.49803921580314636 0.42352941632270813
0.943842351436615 0.8244118094444275 0.9893280863761902 0.41960784792900085 0.3921568691730499 0.3529411852359772
0.9256157875061035 0.8889941573143005 0.005928853526711464 0.6509804129600525 0.6313725709915161 0.5568627715110779
0.9802955389022827 0.8504658341407776 0.005533596966415644 0.49803921580314636 0.5372549295425415 0.5058823823928833
0.9943349957466125 0.8747828602790833 0.8395256996154785 0.05098039284348488 0.05098039284348488 0.04313725605607033
0.9615763425827026 0.9369966983795166 0.9897233247756958 0.3843137323856354 0.3529411852359772 0.2705882489681244
0.9083743691444397 0.8187273144721985 0.006719367578625679 0.5647059082984924 0.5686274766921997 0.5137255191802979
0.9854679703712463 0.8198326230049133 0.9620553255081177 0.43921568989753723 0.4117647111415863 0.3490196168422699
0.9864531755447388 0.810358464717865 0.7031620740890503 0.7058823704719543 0.7019608020782471 0.6235294342041016
0.9854679703712463 0.8943628668785095 0.9691699743270874 0.4274509847164154 0.3843137323856354 0.30588236451148987
0.9401477575302124 0.8828359246253967 0.9893280863761902 0.3764705955982208 0.3294117748737335 0.27450981736183167
0.9640393853187561 0.8173061609268188 0.027272727340459824 0.3607843220233917 0.3803921639919281 0.3960784375667572
0.9918718934059143 0.9377862215042114 0.005928853526711464 0.5137255191802979 0.5137255191802979 0.4117647111415863
0.9847290515899658 0.816200852394104 0.9134387373924255 0.5098039507865906 0.48627451062202454 0.42352941632270813
0.9285714030265808 0.8237801790237427 0.9889327883720398 0.41960784792900085 0.3921568691730499 0.3607843220233917
0.9822660088539124 0.8289909958839417 0.5260869860649109 0.6941176652908325 0.7058823704719543 0.6705882549285889
0.9012315273284912 0.8798357844352722 0.005928853526711464 0.49803921580314636 0.47843137383461 0.40392157435417175
0.9662561416625977 0.902415931224823 0.9897233247756958 0.27450981736183167 0.24705882370471954 0.1725490242242813
0.9689655303955078 0.897047221660614 0.9897233247756958 0.35686275362968445 0.3333333432674408 0.24705882370471954
0.9756157398223877 0.8130428194999695 0.11581027507781982 0.07058823853731155 0.07450980693101883 0.09019608050584793
0.9411330223083496 0.8089373111724854 0.09841897338628769 0.3137255012989044 0.3529411852359772 0.7019608020782471
0.8886699676513672 0.9123638272285461 0.9893280863761902 0.40392157435417175 0.3686274588108063 0.3019607961177826
0.8743842244148254 0.8362545371055603 0.9881423115730286 0.27843138575553894 0.26274511218070984 0.21568627655506134
0.9854679703712463 0.8013579845428467 0.9098814129829407 0.5215686559677124 0.49803921580314636 0.4431372582912445
0.9834975600242615 0.8247275948524475 0.6588932871818542 0.729411780834198 0.7215686440467834 0.6627451181411743
0.9017241597175598 0.9204168915748596 0.9893280863761902 0.3803921639919281 0.3490196168422699 0.27450981736183167
0.9770935773849487 0.91883784532547 0.005533596966415644 0.5568627715110779 0.5647059082984924 0.47058823704719543
0.9628078937530518 0.9325754046440125 0.006719367578625679 0.5176470875740051 0.48627451062202454 0.40392157435417175
0.9839901328086853 0.8356229066848755 0.7960474491119385 0.3333333432674408 0.34117648005485535 0.3294117748737335
0.929556667804718 0.9358913898468018 0.9893280863761902 0.4117647111415863 0.3803921639919281 0.2980392277240753
0.9706896543502808 0.9332070350646973 0.9901185631752014 0.3607843220233917 0.33725491166114807 0.250980406999588
0.8684729337692261 0.8390967845916748 0.006719367578625679 0.3960784375667572 0.3960784375667572 0.364705890417099
0.8660098314285278 0.8204642534255981 0.006719367578625679 0.3294117748737335 0.33725491166114807 0.29411765933036804
0.9876847267150879 0.805147647857666 0.768774688243866 0.6745098233222961 0.6627451181411743 0.5960784554481506
0.8820196986198425 0.8335701823234558 0.006719367578625679 0.3921568691730499 0.3960784375667572 0.37254902720451355
0.9322659969329834 0.8316753506660461 0.9889327883720398 0.45098039507865906 0.4156862795352936 0.3803921639919281
0.9541872143745422 0.9415758848190308 0.9897233247756958 0.3803921639919281 0.3490196168422699 0.2666666805744171
0.93916255235672 0.8198326230049133 0.9893280863761902 0.4470588266849518 0.4117647111415863 0.3843137323856354
0.9748768210411072 0.804831862449646 0.08972331881523132 0.03921568766236305 0.03529411926865578 0.054901961237192154
0.9849753975868225 0.8373598456382751 0.9411067366600037 0.47843137383461 0.4470588266849518 0.37254902720451355
0.8768472671508789 0.7928311824798584 0.0063241105526685715 0.45490196347236633 0.45098039507865906 0.3803921639919281
0.9273399114608765 0.810674250125885 0.0063241105526685715 0.4901960790157318 0.501960813999176 0.4274509847164154
0.9682266116142273 0.8234643936157227 0.04940711334347725 0.40392157435417175 0.42352941632270813 0.4470588266849518
0.9411330223083496 0.8623085618019104 0.9893280863761902 0.41960784792900085 0.3921568691730499 0.3294117748737335
0.882758617401123 0.8561503291130066 0.0063241105526685715 0.4156862795352936 0.40392157435417175 0.3686274588108063
0.9096059203147888 0.8553608059883118 0.9885375499725342 0.3803921639919281 0.3490196168422699 0.30588236451148987
0.9066502451896667 0.8136743903160095 0.9885375499725342 0.4117647111415863 0.38823530077934265 0.34117648005485535
0.9822660088539124 0.7901468276977539 0.6739130616188049 0.6509804129600525 0.6549019813537598 0.6313725709915161
0.9859606027603149 0.8373598456382751 0.6470355987548828 0.23137255012989044 0.2235294133424759 0.23529411852359772
0.9706896543502808 0.8730459213256836 0.9897233247756958 0.3450980484485626 0.3176470696926117 0.24705882370471954
0.9162561297416687 0.8785725831985474 0.005928853526711464 0.5568627715110779 0.5568627715110779 0.45490196347236633
0.9633004665374756 0.8223590850830078 0.09011857956647873 0.20392157137393951 0.21568627655506134 0.250980406999588
0.9854679703712463 0.8499920964241028 0.9620553255081177 0.4313725531101227 0.3960784375667572 0.3294117748737335
0.890640377998352 0.9219958782196045 0.005928853526711464 0.6431372761726379 0.5960784554481506 0.4941176474094391
0.9837438464164734 0.8209379315376282 0.5857707262039185 0.8196078538894653 0.8392156958580017 0.8235294222831726
0.9371921420097351 0.9305226802825928 0.0063241105526685715 0.48627451062202454 0.47843137383461 0.3960784375667572
0.9901477694511414 0.8769935369491577 0.005533596966415644 0.40392157435417175 0.40784314274787903 0.33725491166114807
0.982758641242981 0.7931470274925232 0.4620553255081177 0.7450980544090271 0.7333333492279053 0.6980392336845398
0.9561576247215271 0.9039949178695679 0.005533596966415644 0.5137255191802979 0.5058823823928833 0.42352941632270813
0.9017241597175598 0.8023054003715515 0.9885375499725342 0.43921568989753723 0.40392157435417175 0.3764705955982208
0.9847290515899658 0.8690983653068542 0.9039525985717773 0.47843137383461 0.4588235318660736 0.3803921639919281
0.9820197224617004 0.7910942435264587 0.47075098752975464 0.7372549176216125 0.729411780834198 0.6823529601097107
0.867241382598877 0.799621045589447 0.9881423115730286 0.4313725531101227 0.40392157435417175 0.37254902720451355
0.9844827651977539 0.8469919562339783 0.908695638179779 0.4901960790157318 0.4627451002597809 0.4000000059604645
0.9849753975868225 0.8752565979957581 0.9011857509613037 0.4941176474094391 0.45098039507865906 0.3803921639919281
0.9852216839790344 0.8528343439102173 0.947035551071167 0.45490196347236633 0.4274509847164154 0.364705890417099
0.9894088506698608 0.8402020931243896 0.7778655886650085 0.0784313753247261 0.07450980693101883 0.05882352963089943
0.9859606027603149 0.8102005124092102 0.85138338804245 0.5647059082984924 0.5490196347236633 0.45098039507865906
0.9859606027603149 0.7966208457946777 0.9118577241897583 0.5215686559677124 0.49803921580314636 0.4431372582912445
0.9613300561904907 0.8193588852882385 0.011462450958788395 0.41960784792900085 0.4470588266849518 0.48627451062202454
0.9963054060935974 0.843518078327179 0.04624506086111069 0.05882352963089943 0.05882352963089943 0.06666667014360428
0.9032019972801208 0.832938551902771 0.0063241105526685715 0.3960784375667572 0.4117647111415863 0.35686275362968445
0.9876847267150879 0.810674250125885 0.17984189093112946 0.7215686440467834 0.7254902124404907 0.6549019813537598
0.9113300442695618 0.8225169777870178 0.9885375499725342 0.364705890417099 0.3333333432674408 0.29019609093666077
0.9770935773849487 0.8507816195487976 0.005533596966415644 0.5568627715110779 0.5960784554481506 0.5647059082984924
0.984236478805542 0.8531501889228821 0.8845849633216858 0.4901960790157318 0.4627451002597809 0.3921568691730499
0.9817733764648438 0.7967787981033325 0.2185770720243454 0.7568627595901489 0.7607843279838562 0.6901960968971252
0.893842339515686 0.8856781721115112 0.9889327883720398 0.250980406999588 0.22745098173618317 0.1725490242242813
0.9852216839790344 0.8237801790237427 0.9482213258743286 0.46666666865348816 0.43921568989753723 0.3686274588108063
0.996798038482666 0.8444654941558838 0.005533596966415644 0.4274509847164154 0.46666666865348816 0.4313725531101227
0.9719212055206299 0.9351018667221069 0.0071146246045827866 0.6117647290229797 0.6000000238418579 0.5333333611488342
0.9541872143745422 0.8479393720626831 0.9893280863761902 0.3764705955982208 0.3450980484485626 0.29411765933036804
0.9854679703712463 0.8076741099357605 0.9640316367149353 0.43921568989753723 0.4117647111415863 0.3490196168422699
0.9839901328086853 0.8343597054481506 0.8766798377037048 0.5058823823928833 0.48235294222831726 0.41960784792900085
0.9770935773849487 0.8548871278762817 0.005533596966415644 0.4313725531101227 0.47058823704719543 0.43529412150382996
0.987438440322876 0.8411495089530945 0.49249011278152466 0.11764705926179886 0.11372549086809158 0.10588235408067703
0.982758641242981 0.8239381313323975 0.44980236887931824 0.7764706015586853 0.7490196228027344 0.686274528503418
0.9096059203147888 0.8013579845428467 0.0063241105526685715 0.3686274588108063 0.364705890417099 0.2862745225429535
0.929556667804718 0.816042959690094 0.0063241105526685715 0.5176470875740051 0.4627451002597809 0.41960784792900085
0.9866995215415955 0.8012000918388367 0.8557312488555908 0.572549045085907 0.5490196347236633 0.48627451062202454
0.9852216839790344 0.8133586049079895 0.5889328122138977 0.7568627595901489 0.7647058963775635 0.7529411911964417
0.9411330223083496 0.7917258739471436 0.06205533444881439 0.06666667014360428 0.1882352977991104 0.8784313797950745
0.9376847147941589 0.8231486082077026 0.9893280863761902 0.3490196168422699 0.3137255012989044 0.2862745225429535
0.9674876928329468 0.8252013325691223 0.9897233247756958 0.37254902720451355 0.3490196168422699 0.3019607961177826
0.9854679703712463 0.8012000918388367 0.9624505639076233 0.4431372582912445 0.4156862795352936 0.34117648005485535
0.9623152613639832 0.8600978851318359 0.005928853526711464 0.4941176474094391 0.5176470875740051 0.4627451002597809
0.9733990430831909 0.8124111890792847 0.9893280863761902 0.3333333432674408 0.3019607961177826 0.25882354378700256
0.9320197105407715 0.9368388056755066 0.006719367578625679 0.6235294342041016 0.6039215922355652 0.5254902243614197
0.9859606027603149 0.8102005124092102 0.85138338804245 0.5647059082984924 0.5490196347236633 0.45098039507865906
0.9206896424293518 0.9349439740180969 0.0063241105526685715 0.4941176474094391 0.46666666865348816 0.35686275362968445
0.9854679703712463 0.8654665946960449 0.9636363387107849 0.4274509847164154 0.3843137323856354 0.3137255012989044
0.9864531755447388 0.908416211605072 0.9031620621681213 0.48627451062202454 0.4431372582912445 0.364705890417099
0.9837438464164734 0.9155218601226807 0.9723320007324219 0.41960784792900085 0.3764705955982208 0.29019609093666077
0.9371921420097351 0.9341544508934021 0.9893280863761902 0.3843137323856354 0.3607843220233917 0.27450981736183167
0.984236478805542 0.8559924364089966 0.8865612745285034 0.4901960790157318 0.4627451002597809 0.38823530077934265
0.8953201770782471 0.9259434938430786 0.0063241105526685715 0.615686297416687 0.5803921818733215 0.46666666865348816
0.9854679703712463 0.8869414329528809 0.918181836605072 0.4745098054409027 0.4313725531101227 0.3529411852359772
0.9541872143745422 0.8157271146774292 0.03952569141983986 0.32549020648002625 0.3450980484485626 0.3686274588108063
0.9416255950927734 0.7948839664459229 0.08893280476331711 0.5882353186607361 0.6627451181411743 0.9215686321258545
0.982758641242981 0.7931470274925232 0.42964425683021545 0.7411764860153198 0.7215686440467834 0.6980392336845398
0.920197069644928 0.908258318901062 0.9897233247756958 0.3686274588108063 0.3333333432674408 0.2666666805744171
0.9502463340759277 0.9141007661819458 0.005928853526711464 0.5411764979362488 0.5333333611488342 0.43529412150382996
0.9628078937530518 0.9254697561264038 0.9897233247756958 0.3450980484485626 0.3137255012989044 0.239215686917305
0.9852216839790344 0.8143060207366943 0.6276679635047913 0.7529411911964417 0.7137255072593689 0.6666666865348816
0.9093596339225769 0.8627822399139404 0.0063241105526685715 0.4470588266849518 0.4431372582912445 0.37254902720451355
0.929556667804718 0.8894678950309753 0.9893280863761902 0.4117647111415863 0.3764705955982208 0.3176470696926117
0.9812808036804199 0.8307279348373413 0.4051383435726166 0.7450980544090271 0.7098039388656616 0.6901960968971252
0.9859606027603149 0.805305540561676 0.5019763112068176 0.7921568751335144 0.800000011920929 0.7960784435272217
0.9847290515899658 0.816516637802124 0.8687747120857239 0.5411764979362488 0.5215686559677124 0.4470588266849518
0.885960578918457 0.8537817597389221 0.0063241105526685715 0.4745098054409027 0.4745098054409027 0.43529412150382996
0.9849753975868225 0.8242539167404175 0.800000011920929 0.5215686559677124 0.501960813999176 0.42352941632270813
0.9815270900726318 0.827096164226532 0.29288536310195923 0.658823549747467 0.6666666865348816 0.5843137502670288
0.9076354503631592 0.8882046341896057 0.9893280863761902 0.38823530077934265 0.3607843220233917 0.29019609093666077
0.9931034445762634 0.8414653539657593 0.14268775284290314 0.08235294371843338 0.062745101749897 0.03921568766236305
0.9896551966667175 0.8405179381370544 0.7537549138069153 0.09019608050584793 0.08235294371843338 0.08627451211214066
0.9945812821388245 0.9041528701782227 0.8438735008239746 0.07058823853731155 0.05882352963089943 0.03921568766236305
0.9965517520904541 0.9352597594261169 0.8415019512176514 0.15294118225574493 0.1411764770746231 0.12156862765550613
0.9901477694511414 0.8390967845916748 0.647826075553894 0.07450980693101883 0.07450980693101883 0.07450980693101883
0.9226601123809814 0.9120479822158813 0.005928853526711464 0.5882353186607361 0.5686274766921997 0.45490196347236633
0.9857142567634583 0.7986736297607422 0.678260862827301 0.6980392336845398 0.686274528503418 0.6274510025978088
0.93916255235672 0.8065687417984009 0.9893280863761902 0.4313725531101227 0.40392157435417175 0.364705890417099
0.9847290515899658 0.8130428194999695 0.896442711353302 0.5176470875740051 0.5058823823928833 0.4470588266849518
0.942118227481842 0.9118900895118713 0.9897233247756958 0.37254902720451355 0.34117648005485535 0.25882354378700256
0.9852216839790344 0.8773093223571777 0.8664031624794006 0.09019608050584793 0.0784313753247261 0.05098039284348488
0.9431034326553345 0.8100426197052002 0.09169960767030716 0.2078431397676468 0.2078431397676468 0.239215686917305
0.942118227481842 0.7951997518539429 0.06877470016479492 0.11372549086809158 0.18039216101169586 0.6039215922355652
0.9559113383293152 0.9182062149047852 0.0063241105526685715 0.5058823823928833 0.501960813999176 0.41960784792900085
0.9933497309684753 0.8405179381370544 0.6525691747665405 0.09019608050584793 0.09019608050584793 0.09019608050584793
0.9837438464164734 0.7977262139320374 0.30988141894340515 0.7647058963775635 0.7490196228027344 0.7019608020782471
0.9748768210411072 0.8829938173294067 0.9857707619667053 0.30588236451148987 0.27450981736183167 0.20000000298023224
0.9381773471832275 0.9398389458656311 0.9893280863761902 0.4000000059604645 0.3686274588108063 0.2862745225429535
0.870197057723999 0.8828359246253967 0.0063241105526685715 0.529411792755127 0.501960813999176 0.43921568989753723
0.9832512140274048 0.8045160174369812 0.18418972194194794 0.7372549176216125 0.7411764860153198 0.6705882549285889
0.9519704580307007 0.8135164976119995 0.10750988125801086 0.21960784494876862 0.364705890417099 0.9254902005195618
0.987438440322876 0.9128375053405762 0.843478262424469 0.12156862765550613 0.10980392247438431 0.08235294371843338
0.9002463221549988 0.9472603797912598 0.9889327883720398 0.42352941632270813 0.3803921639919281 0.30980393290519714
0.9825122952461243 0.8234643936157227 0.4158102869987488 0.7764706015586853 0.7450980544090271 0.6941176652908325
0.8697044253349304 0.8735196590423584 0.9885375499725342 0.24313725531101227 0.21568627655506134 0.1764705926179886
0.9401477575302124 0.7920416593551636 0.9889327883720398 0.43921568989753723 0.40392157435417175 0.3764705955982208
0.9810344576835632 0.8310437202453613 0.3185770809650421 0.6392157077789307 0.6274510025978088 0.6078431606292725
0.9894088506698608 0.8392546772956848 0.5984189510345459 0.12941177189350128 0.10196078568696976 0.07058823853731155
0.934236466884613 0.8777830600738525 0.9893280863761902 0.3921568691730499 0.364705890417099 0.3019607961177826
0.9805418848991394 0.8375177383422852 0.4944663941860199 0.1764705926179886 0.1764705926179886 0.16862745583057404
0.9354679584503174 0.8550450205802917 0.9893280863761902 0.42352941632270813 0.3921568691730499 0.34117648005485535
0.9876847267150879 0.8594663143157959 0.8418972492218018 0.05098039284348488 0.0470588244497776 0.03921568766236305
0.9522167444229126 0.7921996116638184 0.9893280863761902 0.4156862795352936 0.38823530077934265 0.3490196168422699
0.9830049276351929 0.9208905696868896 0.9731225371360779 0.2862745225429535 0.2549019753932953 0.16470588743686676
0.9174876809120178 0.8760461211204529 0.9889327883720398 0.3803921639919281 0.3450980484485626 0.2862745225429535
0.9401477575302124 0.8651508092880249 0.005928853526711464 0.4901960790157318 0.4941176474094391 0.42352941632270813
0.9847290515899658 0.8668877482414246 0.8553359508514404 0.09803921729326248 0.09803921729326248 0.09019608050584793
0.9834975600242615 0.8132007122039795 0.3584980368614197 0.7490196228027344 0.7333333492279053 0.686274528503418
0.94852215051651 0.8117795586585999 0.032015811651945114 0.30980393290519714 0.3294117748737335 0.3450980484485626
0.9182265996932983 0.9207326769828796 0.9893280863761902 0.3803921639919281 0.3450980484485626 0.27843138575553894
0.9822660088539124 0.8289909958839417 0.5403162240982056 0.6705882549285889 0.658823549747467 0.5921568870544434
0.9514778256416321 0.8822043538093567 0.9893280863761902 0.40784314274787903 0.37254902720451355 0.3137255012989044
0.9756157398223877 0.869572103023529 0.005533596966415644 0.4000000059604645 0.4274509847164154 0.3960784375667572
0.9854679703712463 0.8679930567741394 0.9691699743270874 0.40392157435417175 0.37254902720451355 0.2980392277240753
0.9231526851654053 0.8318332433700562 0.9889327883720398 0.43921568989753723 0.40784314274787903 0.364705890417099
0.9854679703712463 0.7977262139320374 0.6960474252700806 0.6823529601097107 0.6666666865348816 0.6196078658103943
0.9147783517837524 0.9254697561264038 0.9893280863761902 0.40392157435417175 0.37254902720451355 0.2980392277240753
0.8953201770782471 0.8087794184684753 0.9881423115730286 0.43529412150382996 0.41960784792900085 0.3764705955982208
0.9839901328086853 0.8367282748222351 0.011067193932831287 0.1725490242242813 0.1764705926179886 0.19607843458652496
0.9871920943260193 0.9234170317649841 0.9185770750045776 0.4588235318660736 0.4274509847164154 0.3529411852359772
0.8935960531234741 0.8765197992324829 0.9889327883720398 0.24313725531101227 0.21568627655506134 0.15294118225574493
0.879802942276001 0.8308858275413513 0.9881423115730286 0.2705882489681244 0.24313725531101227 0.20392157137393951
0.9810344576835632 0.8236222863197327 0.2652173936367035 0.7058823704719543 0.7019608020782471 0.6313725709915161
0.9844827651977539 0.8132007122039795 0.4438735246658325 0.7764706015586853 0.7607843279838562 0.7137255072593689
0.9869458079338074 0.9193115234375 0.9379446506500244 0.43529412150382996 0.40392157435417175 0.3294117748737335
0.984236478805542 0.8351492285728455 0.8782608509063721 0.5058823823928833 0.48235294222831726 0.41960784792900085
0.9849753975868225 0.8667298555374146 0.9426877498626709 0.45098039507865906 0.4156862795352936 0.3490196168422699
0.8697044253349304 0.8930996656417847 0.9889327883720398 0.25882354378700256 0.23529411852359772 0.18039216101169586
0.9825122952461243 0.7909363508224487 0.365217387676239 0.729411780834198 0.7176470756530762 0.6823529601097107
0.9800492525100708 0.9152060747146606 0.005533596966415644 0.46666666865348816 0.46666666865348816 0.35686275362968445
0.9864531755447388 0.8072003722190857 0.591304361820221 0.772549033164978 0.7843137383460999 0.7490196228027344
0.8999999761581421 0.7969366908073425 0.0063241105526685715 0.4117647111415863 0.40392157435417175 0.3450980484485626
0.9901477694511414 0.8395705223083496 0.20434781908988953 0.09019608050584793 0.09803921729326248 0.0941176488995552
0.8704433441162109 0.9385756850242615 0.0063241105526685715 0.545098066329956 0.5058823823928833 0.40784314274787903
0.9820197224617004 0.8030949234962463 0.19169960916042328 0.7607843279838562 0.7647058963775635 0.6941176652908325
0.9847290515899658 0.8166745901107788 0.6233201622962952 0.7411764860153198 0.7411764860153198 0.6941176652908325
0.9125615954399109 0.8387809991836548 0.9885375499725342 0.4431372582912445 0.40784314274787903 0.3803921639919281
0.988916277885437 0.8402020931243896 0.34624505043029785 0.09803921729326248 0.08235294371843338 0.0784313753247261
0.9780788421630859 0.8345175981521606 0.005533596966415644 0.47058823704719543 0.48627451062202454 0.4901960790157318
0.9137930870056152 0.9472603797912598 0.006719367578625679 0.4313725531101227 0.40392157435417175 0.3019607961177826
0.9852216839790344 0.8784146308898926 0.8529644012451172 0.07450980693101883 0.07450980693101883 0.06666667014360428
0.9839901328086853 0.8098847270011902 0.36640316247940063 0.7647058963775635 0.7568627595901489 0.7058823704719543
0.9862068891525269 0.7967787981033325 0.8905138373374939 0.5411764979362488 0.529411792755127 0.47058823704719543
0.9083743691444397 0.9043107628822327 0.005928853526711464 0.46666666865348816 0.4431372582912445 0.3490196168422699
0.9879310131072998 0.9426811933517456 0.8909090757369995 0.5098039507865906 0.4627451002597809 0.3686274588108063
0.9857142567634583 0.8010421395301819 0.9075098633766174 0.529411792755127 0.5058823823928833 0.45098039507865906
0.9778324961662292 0.874940812587738 0.005533596966415644 0.5647059082984924 0.5490196347236633 0.43529412150382996
0.9830049276351929 0.8351492285728455 0.2185770720243454 0.08627451211214066 0.09019608050584793 0.09803921729326248
0.9847290515899658 0.83783358335495 0.91660076379776 0.4941176474094391 0.46666666865348816 0.40392157435417175
0.9820197224617004 0.794410228729248 0.20474308729171753 0.7568627595901489 0.7686274647712708 0.6941176652908325
0.9014778137207031 0.8645191788673401 0.0063241105526685715 0.5960784554481506 0.5921568870544434 0.5215686559677124
0.9847290515899658 0.8174640536308289 0.8648221492767334 0.545098066329956 0.5254902243614197 0.45098039507865906
0.9908866882324219 0.8409916162490845 0.7237154245376587 0.0784313753247261 0.0784313753247261 0.08627451211214066
0.987438440322876 0.9322596192359924 0.8857707381248474 0.5058823823928833 0.4627451002597809 0.3764705955982208
0.9379310607910156 0.902415931224823 0.9897233247756958 0.3921568691730499 0.35686275362968445 0.29019609093666077
0.8990147709846497 0.8719406127929688 0.0063241105526685715 0.45098039507865906 0.43921568989753723 0.3803921639919281
0.8628078699111938 0.9210484623908997 0.9889327883720398 0.4431372582912445 0.40784314274787903 0.34117648005485535
0.984236478805542 0.8354650139808655 0.8901185989379883 0.5098039507865906 0.48235294222831726 0.41960784792900085
0.9357143044471741 0.8627822399139404 0.005928853526711464 0.3960784375667572 0.3921568691730499 0.32156863808631897
0.9810344576835632 0.8222011923789978 0.2509881556034088 0.6980392336845398 0.7019608020782471 0.6392157077789307
0.9844827651977539 0.8239381313323975 0.7537549138069153 0.5764706134796143 0.5686274766921997 0.48627451062202454
0.9182265996932983 0.930048942565918 0.9889327883720398 0.3960784375667572 0.3686274588108063 0.29411765933036804
0.9857142567634583 0.8908889889717102 0.9383399486541748 0.4470588266849518 0.4117647111415863 0.3450980484485626
0.9849753975868225 0.805621325969696 0.3810276687145233 0.7607843279838562 0.7490196228027344 0.7137255072593689
0.9059113264083862 0.8689404726028442 0.0063241105526685715 0.4941176474094391 0.4901960790157318 0.41960784792900085
0.9613300561904907 0.8150955438613892 0.11185770481824875 0.06666667014360428 0.09803921729326248 0.054901961237192154
0.951724112033844 0.9104689955711365 0.005928853526711464 0.572549045085907 0.529411792755127 0.4117647111415863
0.9689655303955078 0.9273645877838135 0.9897233247756958 0.364705890417099 0.34117648005485535 0.2549019753932953
0.987438440322876 0.9309963583946228 0.9359683990478516 0.4431372582912445 0.41960784792900085 0.32549020648002625
0.990394115447998 0.8413074612617493 0.3648221492767334 0.11764705926179886 0.11372549086809158 0.10588235408067703
0.9285714030265808 0.891520619392395 0.005928853526711464 0.47058823704719543 0.4627451002597809 0.37254902720451355
0.9849753975868225 0.7974103689193726 0.6553359627723694 0.7058823704719543 0.6901960968971252 0.6431372761726379
0.9834975600242615 0.8256750106811523 0.6889328360557556 0.5176470875740051 0.5058823823928833 0.4470588266849518
0.8628078699111938 0.8515711426734924 0.9881423115730286 0.2980392277240753 0.2823529541492462 0.24705882370471954
0.9820197224617004 0.8345175981521606 0.2138339877128601 0.07450980693101883 0.09019608050584793 0.0941176488995552
0.9160098433494568 0.7958313822746277 0.9885375499725342 0.4274509847164154 0.4117647111415863 0.3686274588108063
0.8911330103874207 0.902889609336853 0.005928853526711464 0.5607843399047852 0.5333333611488342 0.4588235318660736
0.9002463221549988 0.8795199990272522 0.005928853526711464 0.5058823823928833 0.48627451062202454 0.40784314274787903
0.9852216839790344 0.8716248273849487 0.955731213092804 0.4274509847164154 0.4000000059604645 0.3294117748737335
0.9108374118804932 0.8555186986923218 0.0063241105526685715 0.6078431606292725 0.6078431606292725 0.5607843399047852
0.8886699676513672 0.9444181323051453 0.9885375499725342 0.4470588266849518 0.40392157435417175 0.32549020648002625
0.9849753975868225 0.8075161576271057 0.1557312309741974 0.7686274647712708 0.7803921699523926 0.6980392336845398
0.9798029661178589 0.91867995262146 0.005533596966415644 0.4588235318660736 0.46666666865348816 0.3803921639919281
0.9347290396690369 0.8242539167404175 0.9889327883720398 0.4313725531101227 0.3960784375667572 0.3686274588108063
0.9416255950927734 0.880625307559967 0.005928853526711464 0.5568627715110779 0.5490196347236633 0.49803921580314636
0.993596076965332 0.8956260681152344 0.8422924876213074 0.0784313753247261 0.062745101749897 0.05882352963089943
0.9832512140274048 0.8002526164054871 0.9739130139350891 0.3294117748737335 0.3019607961177826 0.239215686917305
0.9083743691444397 0.9002052545547485 0.9893280863761902 0.3764705955982208 0.3490196168422699 0.27450981736183167
0.9854679703712463 0.930206835269928 0.005928853526711464 0.47843137383461 0.48235294222831726 0.4117647111415863
0.987438440322876 0.9283120036125183 0.9134387373924255 0.46666666865348816 0.43529412150382996 0.3607843220233917
0.8642857074737549 0.8065687417984009 0.9881423115730286 0.4274509847164154 0.3921568691730499 0.37254902720451355
0.9849753975868225 0.8195168375968933 0.7438735365867615 0.6039215922355652 0.5921568870544434 0.5176470875740051
0.9825122952461243 0.8256750106811523 0.4517786502838135 0.7843137383460999 0.7568627595901489 0.6941176652908325
0.8775861859321594 0.880625307559967 0.9889327883720398 0.20392157137393951 0.1882352977991104 0.14509804546833038
0.9837438464164734 0.9453655481338501 0.0071146246045827866 0.47058823704719543 0.45490196347236633 0.3490196168422699
0.987438440322876 0.8057792782783508 0.7320157885551453 0.6705882549285889 0.658823549747467 0.5921568870544434
0.9854679703712463 0.8855202794075012 0.9434782862663269 0.43921568989753723 0.4117647111415863 0.3490196168422699
0.9825122952461243 0.8169903755187988 0.15770751237869263 0.772549033164978 0.7843137383460999 0.7019608020782471
0.864039421081543 0.794252336025238 0.9885375499725342 0.4313725531101227 0.42352941632270813 0.3764705955982208
0.879802942276001 0.7959892749786377 0.0063241105526685715 0.4470588266849518 0.43529412150382996 0.3764705955982208
0.9815270900726318 0.8043581247329712 0.2284584939479828 0.7333333492279053 0.7411764860153198 0.658823549747467
0.9834975600242615 0.8660982251167297 0.9735177755355835 0.4156862795352936 0.3843137323856354 0.30980393290519714
0.9837438464164734 0.7955155372619629 0.37233200669288635 0.7411764860153198 0.7333333492279053 0.686274528503418
0.9650246500968933 0.8070424795150757 0.10039525479078293 0.30588236451148987 0.3333333432674408 0.3960784375667572
0.9847290515899658 0.8100426197052002 0.41462451219558716 0.772549033164978 0.7568627595901489 0.7098039388656616
0.932758629322052 0.8198326230049133 0.0063241105526685715 0.42352941632270813 0.4470588266849518 0.43921568989753723
0.9738916158676147 0.8237801790237427 0.036758892238140106 0.4156862795352936 0.43529412150382996 0.4588235318660736
0.9615763425827026 0.8316753506660461 0.005928853526711464 0.49803921580314636 0.5176470875740051 0.529411792755127
0.9682266116142273 0.9309963583946228 0.9897233247756958 0.3450980484485626 0.32549020648002625 0.239215686917305
0.929556667804718 0.8732038736343384 0.005928853526711464 0.545098066329956 0.5490196347236633 0.4941176474094391
0.9815270900726318 0.8342018127441406 0.20948617160320282 0.07058823853731155 0.08627451211214066 0.09019608050584793
0.9830049276351929 0.7985157370567322 0.29881423711776733 0.7568627595901489 0.7490196228027344 0.6901960968971252
0.9172413945198059 0.8548871278762817 0.0063241105526685715 0.5960784554481506 0.6117647290229797 0.545098066329956
0.9876847267150879 0.9338386058807373 0.9339920878410339 0.43529412150382996 0.4117647111415863 0.3176470696926117
0.9083743691444397 0.8613611459732056 0.0063241105526685715 0.529411792755127 0.5333333611488342 0.47843137383461
0.9637930989265442 0.9085741639137268 0.005533596966415644 0.5686274766921997 0.5607843399047852 0.4627451002597809
0.9810344576835632 0.8300963044166565 0.28774702548980713 0.6666666865348816 0.658823549747467 0.6078431606292725
0.8990147709846497 0.7986736297607422 0.0063241105526685715 0.3960784375667572 0.4000000059604645 0.33725491166114807
0.9862068891525269 0.9016264081001282 0.9324110746383667 0.4431372582912445 0.4156862795352936 0.3529411852359772
0.893842339515686 0.8769935369491577 0.9889327883720398 0.27450981736183167 0.24705882370471954 0.18431372940540314
0.9810344576835632 0.8228327631950378 0.24743083119392395 0.6980392336845398 0.7019608020782471 0.6470588445663452
0.99064040184021 0.8460445404052734 0.005533596966415644 0.29411765933036804 0.3176470696926117 0.30980393290519714
0.9509851932525635 0.8621506690979004 0.9893280863761902 0.42352941632270813 0.3960784375667572 0.3333333432674408
0.9876847267150879 0.9352597594261169 0.9122529625892639 0.47058823704719543 0.4274509847164154 0.35686275362968445
0.8857142925262451 0.9223117232322693 0.9889327883720398 0.43529412150382996 0.4000000059604645 0.3333333432674408
0.9859606027603149 0.8998894691467285 0.9312252998352051 0.4431372582912445 0.4156862795352936 0.34117648005485535
0.9704433679580688 0.8420969247817993 0.005928853526711464 0.47843137383461 0.501960813999176 0.4941176474094391
0.9854679703712463 0.8656244874000549 0.968774676322937 0.40784314274787903 0.37254902720451355 0.30588236451148987
0.9088670015335083 0.8662561178207397 0.9885375499725342 0.3921568691730499 0.3607843220233917 0.30980393290519714
0.8704433441162109 0.8930996656417847 0.9889327883720398 0.24313725531101227 0.21960784494876862 0.16470588743686676
0.9852216839790344 0.8098847270011902 0.9466403126716614 0.47843137383461 0.43921568989753723 0.4000000059604645
0.9041872024536133 0.8390967845916748 0.0063241105526685715 0.3686274588108063 0.3803921639919281 0.33725491166114807
0.9899014830589294 0.8397284150123596 0.06086956337094307 0.07058823853731155 0.07450980693101883 0.09019608050584793
0.9812808036804199 0.8179377913475037 0.22015810012817383 0.6901960968971252 0.6941176652908325 0.6235294342041016
0.8810344934463501 0.8777830600738525 0.0063241105526685715 0.5843137502670288 0.572549045085907 0.49803921580314636
0.9854679703712463 0.7993052005767822 0.9276679754257202 0.501960813999176 0.47843137383461 0.4313725531101227
0.9844827651977539 0.8258329629898071 0.7932806611061096 0.5176470875740051 0.49803921580314636 0.41960784792900085
0.9778324961662292 0.8878888487815857 0.005533596966415644 0.5333333611488342 0.545098066329956 0.4313725531101227
0.9711822867393494 0.8297805190086365 0.015415019355714321 0.3529411852359772 0.3843137323856354 0.3921568691730499
0.8837438225746155 0.8402020931243896 0.9881423115730286 0.250980406999588 0.23529411852359772 0.20000000298023224
0.9660098552703857 0.8185694217681885 0.030830038711428642 0.364705890417099 0.3843137323856354 0.4000000059604645
0.9869458079338074 0.7993052005767822 0.7545454502105713 0.6549019813537598 0.6431372761726379 0.5764706134796143
0.9756157398223877 0.8765197992324829 0.9845849871635437 0.32156863808631897 0.29411765933036804 0.21960784494876862
0.990394115447998 0.8990999460220337 0.8422924876213074 0.0235294122248888 0.0235294122248888 0.0235294122248888
0.876600980758667 0.875098705291748 0.9889327883720398 0.27843138575553894 0.26274511218070984 0.21568627655506134
0.875123143196106 0.8280435800552368 0.9881423115730286 0.24313725531101227 0.22745098173618317 0.1921568661928177
0.9847290515899658 0.8084636330604553 0.40316206216812134 0.7647058963775635 0.7568627595901489 0.7098039388656616
0.8711822628974915 0.821411669254303 0.9881423115730286 0.4000000059604645 0.37254902720451355 0.3333333432674408
0.9857142567634583 0.8938891291618347 0.9620553255081177 0.4156862795352936 0.37254902720451355 0.3019607961177826
0.9300492405891418 0.9444181323051453 0.9889327883720398 0.3960784375667572 0.364705890417099 0.2823529541492462
0.9852216839790344 0.8026211857795715 0.9474308490753174 0.46666666865348816 0.4431372582912445 0.3803921639919281
0.9426108598709106 0.8719406127929688 0.9893280863761902 0.40392157435417175 0.3686274588108063 0.30980393290519714
0.8665024638175964 0.9043107628822327 0.9893280863761902 0.30980393290519714 0.29019609093666077 0.21568627655506134
0.9605911374092102 0.8746249675750732 0.9897233247756958 0.3764705955982208 0.3490196168422699 0.27843138575553894
0.9652709364891052 0.8990999460220337 0.9897233247756958 0.35686275362968445 0.3294117748737335 0.25882354378700256
0.9209359884262085 0.8678351640701294 0.005928853526711464 0.46666666865348816 0.47058823704719543 0.4000000059604645
0.9206896424293518 0.9002052545547485 0.005928853526711464 0.5960784554481506 0.5686274766921997 0.45490196347236633
0.9862068891525269 0.9013106226921082 0.8790513873100281 0.5058823823928833 0.4745098054409027 0.4000000059604645
0.9376847147941589 0.902889609336853 0.005533596966415644 0.5372549295425415 0.5176470875740051 0.4313725531101227
0.9012315273284912 0.9167851209640503 0.005928853526711464 0.5568627715110779 0.5254902243614197 0.43529412150382996
0.9822660088539124 0.7950418591499329 0.17430830001831055 0.7647058963775635 0.7607843279838562 0.6823529601097107
0.9852216839790344 0.8125690817832947 0.9505928754806519 0.46666666865348816 0.43529412150382996 0.3843137323856354
0.9923645257949829 0.8411495089530945 0.44466403126716614 0.16470588743686676 0.13725490868091583 0.11372549086809158
0.926354706287384 0.9002052545547485 0.005928853526711464 0.5058823823928833 0.48627451062202454 0.37254902720451355
0.9674876928329468 0.9279962182044983 0.9897233247756958 0.23137255012989044 0.2078431397676468 0.11372549086809158
0.9857142567634583 0.8402020931243896 0.49644267559051514 0.08235294371843338 0.08627451211214066 0.0941176488995552
0.9830049276351929 0.9115743041038513 0.9739130139350891 0.3490196168422699 0.30980393290519714 0.21176470816135406
0.9463053941726685 0.9114164113998413 0.9897233247756958 0.3607843220233917 0.3294117748737335 0.24705882370471954
0.9859606027603149 0.8079898953437805 0.5276679992675781 0.7921568751335144 0.7490196228027344 0.7333333492279053
0.9810344576835632 0.8338859677314758 0.4075098931789398 0.18431372940540314 0.16862745583057404 0.1568627506494522
0.9815270900726318 0.827096164226532 0.30434781312942505 0.658823549747467 0.6470588445663452 0.572549045085907
0.9854679703712463 0.8184114694595337 0.9596837759017944 0.4470588266849518 0.4117647111415863 0.3529411852359772
0.9869458079338074 0.9276804327964783 0.8458498120307922 0.0313725508749485 0.03529411926865578 0.04313725605607033
0.9123152494430542 0.8569398522377014 0.9885375499725342 0.4431372582912445 0.40784314274787903 0.37254902720451355
0.9566502571105957 0.8447812795639038 0.005928853526711464 0.3921568691730499 0.4117647111415863 0.38823530077934265
0.9157635569572449 0.8755723834037781 0.005928853526711464 0.529411792755127 0.5176470875740051 0.45098039507865906
0.943842351436615 0.8766776919364929 0.005928853526711464 0.5647059082984924 0.5647059082984924 0.47058823704719543
0.9852216839790344 0.8015158772468567 0.9229248762130737 0.5098039507865906 0.48627451062202454 0.43921568989753723
0.9847290515899658 0.8572556376457214 0.9185770750045776 0.48235294222831726 0.4470588266849518 0.38823530077934265
0.9431034326553345 0.8678351640701294 0.005928853526711464 0.48627451062202454 0.49803921580314636 0.4156862795352936
0.9869458079338074 0.8072003722190857 0.17509882152080536 0.7333333492279053 0.7372549176216125 0.6745098233222961
0.9751231670379639 0.8607295155525208 0.005533596966415644 0.4431372582912445 0.46666666865348816 0.41960784792900085
0.9879310131072998 0.8026211857795715 0.7324110865592957 0.6784313917160034 0.6549019813537598 0.5921568870544434
0.934236466884613 0.8959419131278992 0.9893280863761902 0.3803921639919281 0.3450980484485626 0.27843138575553894
0.9844827651977539 0.799621045589447 0.44584980607032776 0.7411764860153198 0.7254902124404907 0.6901960968971252
0.9854679703712463 0.7972524762153625 0.9569169878959656 0.45098039507865906 0.4274509847164154 0.364705890417099
0.9822660088539124 0.821727454662323 0.3335968255996704 0.6745098233222961 0.6666666865348816 0.6196078658103943
0.9113300442695618 0.8225169777870178 0.9885375499725342 0.364705890417099 0.3333333432674408 0.29019609093666077
0.9426108598709106 0.8288331031799316 0.9893280863761902 0.40784314274787903 0.3803921639919281 0.34117648005485535
0.9396551847457886 0.9428390860557556 0.0071146246045827866 0.4470588266849518 0.4274509847164154 0.3490196168422699
0.9147783517837524 0.8070424795150757 0.9885375499725342 0.4470588266849518 0.41960784792900085 0.3803921639919281
0.9544335007667542 0.8139902353286743 0.10869564861059189 0.21960784494876862 0.2980392277240753 0.6352941393852234
0.9807881712913513 0.8242539167404175 0.19367589056491852 0.5843137502670288 0.5921568870544434 0.5372549295425415
0.984236478805542 0.8395705223083496 0.4363636374473572 0.29411765933036804 0.29019609093666077 0.27450981736183167
0.9460591077804565 0.8100426197052002 0.021739130839705467 0.3137255012989044 0.33725491166114807 0.33725491166114807
0.9852216839790344 0.8441497087478638 0.9458497762680054 0.45490196347236633 0.4274509847164154 0.364705890417099
0.935960590839386 0.8690983653068542 0.9893280863761902 0.3960784375667572 0.364705890417099 0.3137255012989044
0.9039409160614014 0.816516637802124 0.9885375499725342 0.4117647111415863 0.38823530077934265 0.34117648005485535
0.9834975600242615 0.832780659198761 0.7988142371177673 0.3137255012989044 0.3294117748737335 0.34117648005485535
0.984236478805542 0.8067266941070557 0.312648206949234 0.7098039388656616 0.6941176652908325 0.6470588445663452
0.9830049276351929 0.8397284150123596 0.4584980309009552 0.16470588743686676 0.1411764770746231 0.1411764770746231
0.9815270900726318 0.8332543969154358 0.48695650696754456 0.2078431397676468 0.21176470816135406 0.1921568661928177
0.9834975600242615 0.7936207056045532 0.8039525747299194 0.3843137323856354 0.35686275362968445 0.2862745225429535
0.9857142567634583 0.8095689415931702 0.5083004236221313 0.7529411911964417 0.7607843279838562 0.7490196228027344
0.9674876928329468 0.8552029132843018 0.9897233247756958 0.33725491166114807 0.30980393290519714 0.239215686917305
0.9812808036804199 0.8346754908561707 0.5343873500823975 0.20000000298023224 0.2078431397676468 0.20392157137393951
0.9852216839790344 0.8536238670349121 0.9501976370811462 0.45098039507865906 0.42352941632270813 0.3607843220233917
0.8758620619773865 0.9019421935081482 0.005928853526711464 0.47843137383461 0.45098039507865906 0.3803921639919281
0.953201949596405 0.8480972647666931 0.9893280863761902 0.4156862795352936 0.3843137323856354 0.3333333432674408
0.987438440322876 0.9321016669273376 0.939920961856842 0.43921568989753723 0.40784314274787903 0.3176470696926117
0.987438440322876 0.8012000918388367 0.739920973777771 0.6666666865348816 0.6549019813537598 0.5882353186607361
0.9857142567634583 0.9270488023757935 0.9640316367149353 0.4000000059604645 0.35686275362968445 0.2705882489681244
0.9852216839790344 0.8204642534255981 0.7667984366416931 0.5647059082984924 0.545098066329956 0.4588235318660736
0.987438440322876 0.8951523900032043 0.8430830240249634 0.08235294371843338 0.0784313753247261 0.062745101749897
0.8756157755851746 0.7951997518539429 0.0063241105526685715 0.45098039507865906 0.45490196347236633 0.3921568691730499
0.982758641242981 0.8373598456382751 0.5509881377220154 0.19607843458652496 0.1921568661928177 0.18431372940540314
0.9834975600242615 0.8330965042114258 0.8015810251235962 0.34117648005485535 0.35686275362968445 0.3686274588108063
0.9495074152946472 0.9065213799476624 0.005533596966415644 0.5607843399047852 0.5372549295425415 0.45098039507865906
0.9369457960128784 0.9472603797912598 0.9893280863761902 0.3960784375667572 0.364705890417099 0.2823529541492462
0.9847290515899658 0.8245697021484375 0.799209475517273 0.5254902243614197 0.5058823823928833 0.4274509847164154
0.9798029661178589 0.8247275948524475 0.18577075004577637 0.8352941274642944 0.8509804010391235 0.7921568751335144
0.9854679703712463 0.9129953980445862 0.005533596966415644 0.5921568870544434 0.6000000238418579 0.5176470875740051
0.9578817486763 0.8182535767555237 0.051778655499219894 0.32549020648002625 0.3450980484485626 0.3686274588108063
0.987438440322876 0.9319437742233276 0.8584980368614197 0.08627451211214066 0.08235294371843338 0.06666667014360428
0.9408866763114929 0.7898310422897339 0.07075098901987076 0.10196078568696976 0.1921568661928177 0.8823529481887817
0.9852216839790344 0.8367282748222351 0.7909091114997864 0.3176470696926117 0.3176470696926117 0.30980393290519714
0.990394115447998 0.8424127697944641 0.5063241124153137 0.2235294133424759 0.1921568661928177 0.18039216101169586
0.9758620858192444 0.9117321968078613 0.9841897487640381 0.23137255012989044 0.2078431397676468 0.11372549086809158
0.9822660088539124 0.8207800388336182 0.2810276746749878 0.6980392336845398 0.6901960968971252 0.6313725709915161
0.8790640234947205 0.8752565979957581 0.9889327883720398 0.24705882370471954 0.2235294133424759 0.16862745583057404
0.8977832794189453 0.8954681754112244 0.9893280863761902 0.2549019753932953 0.23137255012989044 0.1764705926179886
0.9088670015335083 0.897047221660614 0.005928853526711464 0.6901960968971252 0.658823549747467 0.5686274766921997
0.9822660088539124 0.8288331031799316 0.5276679992675781 0.658823549747467 0.7058823704719543 0.6196078658103943
0.9948275685310364 0.8432022929191589 0.5636363625526428 0.08627451211214066 0.0784313753247261 0.08235294371843338
0.8903940916061401 0.9046265482902527 0.9893280863761902 0.2705882489681244 0.24313725531101227 0.18039216101169586
