0.9761083722114563 0.42665404081344604 0.38181817531585693 0.6901960968971252 0.7098039388656616 0.7254902124404907
0.9832512140274048 0.41560080647468567 0.9150197505950928 0.43529412150382996 0.40392157435417175 0.3607843220233917
0.9761083722114563 0.4078635573387146 0.6324110627174377 0.5921568870544434 0.6117647290229797 0.6235294342041016
0.9477832317352295 0.4940786361694336 0.9893280863761902 0.34117648005485535 0.3333333432674408 0.2823529541492462
0.9807881712913513 0.4045476019382477 0.2403162121772766 0.729411780834198 0.7450980544090271 0.6901960968971252
0.8999999761581421 0.5011842846870422 0.0063241105526685715 0.5254902243614197 0.529411792755127 0.40784314274787903
0.9810344576835632 0.49265751242637634 0.12569169700145721 0.6666666865348816 0.6980392336845398 0.6039215922355652
0.9844827651977539 0.535449206829071 0.903557300567627 0.4901960790157318 0.46666666865348816 0.37254902720451355
0.9746305346488953 0.4546028673648834 0.5533596873283386 0.6000000238418579 0.6196078658103943 0.6313725709915161
0.9790640473365784 0.40154746174812317 0.9877470135688782 0.27450981736183167 0.25882354378700256 0.21176470816135406
0.9463053941726685 0.4002842307090759 0.005533596966415644 0.49803921580314636 0.48627451062202454 0.41960784792900085
0.9844827651977539 0.529133141040802 0.9237154126167297 0.46666666865348816 0.4431372582912445 0.3490196168422699
0.9844827651977539 0.5084478259086609 0.9525691866874695 0.40392157435417175 0.3764705955982208 0.30588236451148987
0.9830049276351929 0.419074684381485 0.8351778388023376 0.5176470875740051 0.5098039507865906 0.4274509847164154
0.9834975600242615 0.3998105227947235 0.9442687630653381 0.4000000059604645 0.37254902720451355 0.34117648005485535
0.9495074152946472 0.5048160552978516 0.0063241105526685715 0.5529412031173706 0.5529412031173706 0.4431372582912445
0.9766010046005249 0.5376598834991455 0.6324110627174377 0.5921568870544434 0.6039215922355652 0.5764706134796143
0.9834975600242615 0.4197063148021698 0.9363636374473572 0.4117647111415863 0.3803921639919281 0.33725491166114807
0.9773399233818054 0.4253908097743988 0.30000001192092896 0.5647059082984924 0.5568627715110779 0.49803921580314636
0.9810344576835632 0.45523449778556824 0.12450592964887619 0.6941176652908325 0.7058823704719543 0.6235294342041016
0.8716748952865601 0.551713228225708 0.0063241105526685715 0.48627451062202454 0.48627451062202454 0.3843137323856354
0.9753694534301758 0.5395547151565552 0.499604731798172 0.6549019813537598 0.6784313917160034 0.6705882549285889
0.9748768210411072 0.48649927973747253 0.5399209260940552 0.6000000238418579 0.6235294342041016 0.615686297416687
0.9812808036804199 0.42365387082099915 0.06521739065647125 0.6823529601097107 0.6980392336845398 0.6000000238418579
0.9726601243019104 0.4200221002101898 0.33083003759384155 0.38823530077934265 0.38823530077934265 0.35686275362968445
0.9231526851654053 0.551239550113678 0.9901185631752014 0.3803921639919281 0.37254902720451355 0.32549020648002625
0.9837438464164734 0.39523133635520935 0.9857707619667053 0.3294117748737335 0.30588236451148987 0.250980406999588
0.9834975600242615 0.5041844248771667 0.8272727131843567 0.5529412031173706 0.5411764979362488 0.4117647111415863
0.9290640354156494 0.5496605038642883 0.9901185631752014 0.3803921639919281 0.364705890417099 0.32156863808631897
0.9472906589508057 0.4882362186908722 0.9893280863761902 0.3176470696926117 0.3019607961177826 0.2549019753932953
0.9775862097740173 0.44749724864959717 0.7260869741439819 0.5607843399047852 0.5647059082984924 0.545098066329956
0.9758620858192444 0.48160430788993835 0.4375494122505188 0.6235294342041016 0.658823549747467 0.6549019813537598
0.9834975600242615 0.4021790623664856 0.9332015514373779 0.4156862795352936 0.3921568691730499 0.3450980484485626
0.9812808036804199 0.5378177762031555 0.249802365899086 0.6627451181411743 0.6745098233222961 0.5921568870544434
0.9761083722114563 0.523764431476593 0.43003952503204346 0.6509804129600525 0.6745098233222961 0.6666666865348816
0.9761083722114563 0.448602557182312 0.396047443151474 0.6627451181411743 0.686274528503418 0.686274528503418
0.9746305346488953 0.4997631311416626 0.5237154364585876 0.5960784554481506 0.6313725709915161 0.6196078658103943
0.956403911113739 0.4686562418937683 0.0063241105526685715 0.43921568989753723 0.45490196347236633 0.364705890417099
0.984236478805542 0.5198168158531189 0.887747049331665 0.4901960790157318 0.46666666865348816 0.37254902720451355
0.9768472909927368 0.397126168012619 0.3533596694469452 0.658823549747467 0.6941176652908325 0.6901960968971252
0.9785714149475098 0.45270803570747375 0.017786560580134392 0.27450981736183167 0.239215686917305 0.1725490242242813
0.9628078937530518 0.47007736563682556 0.0063241105526685715 0.43921568989753723 0.4470588266849518 0.3607843220233917
0.9221674799919128 0.551397442817688 0.0063241105526685715 0.4274509847164154 0.43529412150382996 0.3490196168422699
0.8633005023002625 0.47244590520858765 0.005928853526711464 0.5686274766921997 0.5764706134796143 0.48235294222831726
0.9770935773849487 0.42160114645957947 0.7003952860832214 0.5568627715110779 0.5647059082984924 0.545098066329956
0.9773399233818054 0.47497236728668213 0.7035573124885559 0.5529412031173706 0.5843137502670288 0.5411764979362488
0.94852215051651 0.5112900733947754 0.0063241105526685715 0.4941176474094391 0.48627451062202454 0.3960784375667572
0.9766010046005249 0.5105005502700806 0.39328062534332275 0.6470588445663452 0.6666666865348816 0.6784313917160034
0.9721674919128418 0.418916791677475 0.3280632495880127 0.4000000059604645 0.4000000059604645 0.3607843220233917
0.9807881712913513 0.42318016290664673 0.18577075004577637 0.7058823704719543 0.7137255072593689 0.6313725709915161
0.9763546586036682 0.5444496870040894 0.4320158064365387 0.6666666865348816 0.6901960968971252 0.6901960968971252
0.9807881712913513 0.4402337074279785 0.18498024344444275 0.7137255072593689 0.7098039388656616 0.6392157077789307
0.9810344576835632 0.5236064791679382 0.2964426875114441 0.47843137383461 0.48235294222831726 0.3607843220233917
0.9812808036804199 0.4994473457336426 0.12411066889762878 0.6745098233222961 0.6980392336845398 0.5960784554481506
0.9807881712913513 0.4283909797668457 0.16996046900749207 0.7058823704719543 0.7019608020782471 0.6313725709915161
0.9600985050201416 0.49549975991249084 0.0063241105526685715 0.5176470875740051 0.5098039507865906 0.4117647111415863
0.8908867239952087 0.5016579627990723 0.9897233247756958 0.2078431397676468 0.21568627655506134 0.1725490242242813
0.9751231670379639 0.5285015106201172 0.5351778864860535 0.6274510025978088 0.6509804129600525 0.6509804129600525
0.9780788421630859 0.46944576501846313 0.7494071125984192 0.5647059082984924 0.5686274766921997 0.5372549295425415
0.9802955389022827 0.4075477719306946 0.9877470135688782 0.2549019753932953 0.24313725531101227 0.18431372940540314
0.9812808036804199 0.4906047582626343 0.11699604988098145 0.6745098233222961 0.6980392336845398 0.5960784554481506
0.9839901328086853 0.4249171018600464 0.9667984247207642 0.364705890417099 0.33725491166114807 0.27450981736183167
0.9761083722114563 0.5206063389778137 0.4320158064365387 0.6470588445663452 0.6705882549285889 0.6627451181411743
0.9834975600242615 0.39838939905166626 0.9264822006225586 0.4156862795352936 0.40392157435417175 0.33725491166114807
0.9830049276351929 0.4195483922958374 0.8359683752059937 0.5137255191802979 0.5058823823928833 0.42352941632270813
0.9753694534301758 0.5435022711753845 0.5019763112068176 0.6549019813537598 0.6784313917160034 0.6784313917160034
0.9763546586036682 0.5199747085571289 0.4150197505950928 0.6509804129600525 0.6745098233222961 0.6745098233222961
0.9812808036804199 0.5029212236404419 0.14387351274490356 0.6784313917160034 0.6941176652908325 0.6039215922355652
0.9807881712913513 0.43218064308166504 0.23280632495880127 0.7058823704719543 0.7098039388656616 0.6392157077789307
0.9004926085472107 0.5303963422775269 0.0063241105526685715 0.5686274766921997 0.5686274766921997 0.4745098054409027
0.9761083722114563 0.5412916541099548 0.6011857986450195 0.6039215922355652 0.6274510025978088 0.6117647290229797
0.9753694534301758 0.4198642075061798 0.5845849514007568 0.6078431606292725 0.6313725709915161 0.6235294342041016
0.9812808036804199 0.4478130340576172 0.04940711334347725 0.7176470756530762 0.729411780834198 0.615686297416687
0.9746305346488953 0.47560396790504456 0.5118576884269714 0.6039215922355652 0.6274510025978088 0.6196078658103943
0.9830049276351929 0.49044686555862427 0.8166007995605469 0.5686274766921997 0.5568627715110779 0.4274509847164154
0.9756157398223877 0.5255013704299927 0.5644268989562988 0.615686297416687 0.6392157077789307 0.6235294342041016
0.9751231670379639 0.4029685854911804 0.5577074885368347 0.6274510025978088 0.6509804129600525 0.6431372761726379
0.9775862097740173 0.413705974817276 0.7233201861381531 0.5529412031173706 0.5764706134796143 0.5607843399047852
0.9748768210411072 0.4547607898712158 0.4798418879508972 0.6196078658103943 0.6431372761726379 0.6431372761726379
0.9724137783050537 0.5409758687019348 0.0063241105526685715 0.33725491166114807 0.3333333432674408 0.250980406999588
0.9748768210411072 0.4276014566421509 0.5134387612342834 0.6274510025978088 0.6509804129600525 0.6509804129600525
0.9812808036804199 0.5019738078117371 0.09446640312671661 0.6784313917160034 0.7137255072593689 0.6078431606292725
0.9810344576835632 0.46960365772247314 0.07035572826862335 0.7490196228027344 0.7843137383460999 0.6705882549285889
0.9834975600242615 0.3968103528022766 0.9332015514373779 0.4117647111415863 0.3960784375667572 0.3490196168422699
0.9768472909927368 0.5155534744262695 0.3703557252883911 0.6627451181411743 0.686274528503418 0.686274528503418
0.9753694534301758 0.4102321267127991 0.5857707262039185 0.615686297416687 0.6392157077789307 0.6392157077789307
0.9778324961662292 0.5499762892723083 0.7245059013366699 0.5490196347236633 0.5686274766921997 0.5411764979362488
0.9766010046005249 0.5229749083518982 0.3905138373374939 0.6549019813537598 0.6745098233222961 0.686274528503418
0.9002463221549988 0.54050213098526 0.9901185631752014 0.3529411852359772 0.34117648005485535 0.30588236451148987
0.9815270900726318 0.5283436179161072 0.10039525479078293 0.6666666865348816 0.6901960968971252 0.5803921818733215
0.9812808036804199 0.5381335616111755 0.2754940688610077 0.6549019813537598 0.658823549747467 0.5882353186607361
0.9766010046005249 0.40707406401634216 0.3027667999267578 0.545098066329956 0.5529412031173706 0.47058823704719543
0.9768472909927368 0.45807674527168274 0.678260862827301 0.5686274766921997 0.572549045085907 0.5529412031173706
0.9810344576835632 0.4680246412754059 0.09446640312671661 0.6980392336845398 0.7215686440467834 0.6196078658103943
0.9758620858192444 0.518395721912384 0.5932806134223938 0.5803921818733215 0.615686297416687 0.5960784554481506
0.9815270900726318 0.5465024709701538 0.14426878094673157 0.6666666865348816 0.686274528503418 0.6000000238418579
0.9785714149475098 0.4604452848434448 0.7782608866691589 0.5607843399047852 0.5607843399047852 0.5529412031173706
0.9689655303955078 0.5086057186126709 0.0063241105526685715 0.5960784554481506 0.6117647290229797 0.5058823823928833
0.9810344576835632 0.4400757849216461 0.14466403424739838 0.7137255072593689 0.7058823704719543 0.6470588445663452
0.9763546586036682 0.40960049629211426 0.64861661195755 0.5843137502670288 0.6078431606292725 0.6078431606292725
0.9834975600242615 0.5040265321731567 0.8395256996154785 0.5568627715110779 0.5411764979362488 0.40392157435417175
0.9839901328086853 0.4823938012123108 0.886956512928009 0.4745098054409027 0.4470588266849518 0.3764705955982208
0.9711822867393494 0.43202275037765503 0.3177865743637085 0.545098066329956 0.5490196347236633 0.47843137383461
0.9241379499435425 0.45791885256767273 0.9893280863761902 0.35686275362968445 0.34117648005485535 0.2980392277240753
0.9817733764648438 0.551397442817688 0.06482213735580444 0.7647058963775635 0.7882353067398071 0.6784313917160034
0.890640377998352 0.5193431377410889 0.9897233247756958 0.250980406999588 0.250980406999588 0.20392157137393951
0.9807881712913513 0.44054949283599854 0.24387352168560028 0.6980392336845398 0.7019608020782471 0.6313725709915161
0.9837438464164734 0.5209221243858337 0.8458498120307922 0.529411792755127 0.5176470875740051 0.3960784375667572
0.9746305346488953 0.4768671989440918 0.5150197744369507 0.6039215922355652 0.6274510025978088 0.6196078658103943
0.8842364549636841 0.48681509494781494 0.0063241105526685715 0.5215686559677124 0.572549045085907 0.47058823704719543
0.9458128213882446 0.3966524600982666 0.9885375499725342 0.3529411852359772 0.3294117748737335 0.2823529541492462
0.9812808036804199 0.42902258038520813 0.07667984068393707 0.686274528503418 0.7019608020782471 0.6117647290229797
0.9751231670379639 0.44749724864959717 0.5715414881706238 0.6039215922355652 0.6274510025978088 0.6274510025978088
0.9743842482566833 0.4283909797668457 0.3387351632118225 0.7803921699523926 0.800000011920929 0.8117647171020508
0.9807881712913513 0.4624980390071869 0.2853755056858063 0.6117647290229797 0.6078431606292725 0.49803921580314636
0.9751231670379639 0.41512709856033325 0.5612648129463196 0.6235294342041016 0.6470588445663452 0.6392157077789307
0.8783251047134399 0.5419232845306396 0.0063241105526685715 0.4745098054409027 0.46666666865348816 0.3686274588108063
0.9812808036804199 0.4858676791191101 0.09683794528245926 0.6745098233222961 0.7058823704719543 0.6117647290229797
0.928078830242157 0.5111321806907654 0.9893280863761902 0.3333333432674408 0.32549020648002625 0.27843138575553894
0.9839901328086853 0.4686562418937683 0.9162055253982544 0.41960784792900085 0.40784314274787903 0.34117648005485535
0.9768472909927368 0.5382915139198303 0.6501976251602173 0.6666666865348816 0.686274528503418 0.7019608020782471
0.9302955865859985 0.5442917943000793 0.0063241105526685715 0.4470588266849518 0.46666666865348816 0.3490196168422699
0.88768470287323 0.5303963422775269 0.0063241105526685715 0.5411764979362488 0.5411764979362488 0.43921568989753723
0.9778324961662292 0.46360334753990173 0.7422924637794495 0.5568627715110779 0.5686274766921997 0.5333333611488342
0.9761083722114563 0.4572872221469879 0.6324110627174377 0.5803921818733215 0.5960784554481506 0.6000000238418579
0.9758620858192444 0.5367124676704407 0.4545454680919647 0.6470588445663452 0.6705882549285889 0.6705882549285889
0.9815270900726318 0.5112900733947754 0.04584980383515358 0.239215686917305 0.22745098173618317 0.16078431904315948
0.9810344576835632 0.44670772552490234 0.134782612323761 0.7058823704719543 0.7098039388656616 0.6392157077789307
0.926600992679596 0.3974419832229614 0.9889327883720398 0.364705890417099 0.3450980484485626 0.32156863808631897
0.8997536897659302 0.43549659848213196 0.005533596966415644 0.5254902243614197 0.5215686559677124 0.43921568989753723
0.9830049276351929 0.4336017668247223 0.8320158123970032 0.5176470875740051 0.5058823823928833 0.4313725531101227
0.878078818321228 0.5466603636741638 0.0063241105526685715 0.6549019813537598 0.658823549747467 0.5372549295425415
0.9807881712913513 0.5000789761543274 0.25849801301956177 0.6705882549285889 0.6823529601097107 0.615686297416687
0.9746305346488953 0.45823463797569275 0.544268786907196 0.6078431606292725 0.6313725709915161 0.6313725709915161
0.9736453294754028 0.39854729175567627 0.33478260040283203 0.686274528503418 0.729411780834198 0.6980392336845398
0.9714285731315613 0.42144322395324707 0.9881423115730286 0.3333333432674408 0.3176470696926117 0.2705882489681244
0.9837438464164734 0.4283909797668457 0.9466403126716614 0.3921568691730499 0.3607843220233917 0.3176470696926117
0.9763546586036682 0.4741828441619873 0.6545454263687134 0.5607843399047852 0.5803921818733215 0.5568627715110779
0.9807881712913513 0.4219169318675995 0.2857707440853119 0.658823549747467 0.6627451181411743 0.5411764979362488
0.9768472909927368 0.39807358384132385 0.35177865624427795 0.658823549747467 0.6941176652908325 0.6901960968971252
0.9807881712913513 0.4883941113948822 0.25335967540740967 0.6745098233222961 0.6941176652908325 0.615686297416687
0.9551724195480347 0.5051318407058716 0.0063241105526685715 0.6039215922355652 0.5960784554481506 0.5058823823928833
0.9756157398223877 0.49881571531295776 0.591304361820221 0.5843137502670288 0.6078431606292725 0.5921568870544434
0.9778324961662292 0.41844308376312256 0.7438735365867615 0.5490196347236633 0.572549045085907 0.5568627715110779
0.8788177371025085 0.4618664085865021 0.005928853526711464 0.4745098054409027 0.48627451062202454 0.3803921639919281
0.9832512140274048 0.448760449886322 0.8533596992492676 0.4941176474094391 0.46666666865348816 0.40392157435417175
0.9527093768119812 0.5442917943000793 0.9901185631752014 0.35686275362968445 0.3490196168422699 0.3019607961177826
0.9637930989265442 0.5321332812309265 0.9897233247756958 0.33725491166114807 0.32549020648002625 0.2666666805744171
0.9834975600242615 0.44149690866470337 0.895652174949646 0.4470588266849518 0.42352941632270813 0.3686274588108063
0.9847290515899658 0.4653402864933014 0.9818181991577148 0.33725491166114807 0.3137255012989044 0.25882354378700256
0.9812808036804199 0.5098689198493958 0.1513833999633789 0.6666666865348816 0.6823529601097107 0.5843137502670288
0.9751231670379639 0.45302385091781616 0.5841897130012512 0.6078431606292725 0.6235294342041016 0.6196078658103943
0.9780788421630859 0.534659743309021 0.019367588683962822 0.501960813999176 0.47843137383461 0.4156862795352936
0.9150246381759644 0.49028897285461426 0.9897233247756958 0.35686275362968445 0.3450980484485626 0.30980393290519714
0.9758620858192444 0.4171798527240753 0.6126482486724854 0.5921568870544434 0.615686297416687 0.6000000238418579
0.9812808036804199 0.5266066789627075 0.1620553433895111 0.6705882549285889 0.686274528503418 0.5803921818733215
0.9839901328086853 0.5485551953315735 0.8494071364402771 0.5333333611488342 0.5137255191802979 0.3960784375667572
0.9812808036804199 0.499921053647995 0.11106719076633453 0.6705882549285889 0.6901960968971252 0.6000000238418579
0.9014778137207031 0.5326069593429565 0.0063241105526685715 0.41960784792900085 0.43529412150382996 0.33725491166114807
0.9763546586036682 0.4424443244934082 0.6604743003845215 0.572549045085907 0.572549045085907 0.572549045085907
0.9763546586036682 0.5247118473052979 0.6328063011169434 0.5960784554481506 0.6000000238418579 0.6078431606292725
0.9766010046005249 0.5381335616111755 0.6407114863395691 0.5764706134796143 0.5960784554481506 0.572549045085907
0.9802955389022827 0.4017053544521332 0.02924901247024536 0.3176470696926117 0.27843138575553894 0.23137255012989044
0.9770935773849487 0.47876203060150146 0.6928853988647461 0.5490196347236633 0.5803921818733215 0.5372549295425415
0.865517258644104 0.5021317005157471 0.0063241105526685715 0.6901960968971252 0.7058823704719543 0.615686297416687
0.9699507355690002 0.49328911304473877 0.0063241105526685715 0.37254902720451355 0.3686274588108063 0.29019609093666077
0.9682266116142273 0.4048634171485901 0.005138339940458536 0.5607843399047852 0.5411764979362488 0.46666666865348816
0.9756157398223877 0.4110216200351715 0.4415019750595093 0.6627451181411743 0.686274528503418 0.686274528503418
0.9751231670379639 0.4534975588321686 0.4735177755355835 0.6235294342041016 0.6470588445663452 0.6392157077789307
0.9748768210411072 0.45855045318603516 0.49288538098335266 0.6117647290229797 0.6352941393852234 0.6352941393852234
0.9812808036804199 0.546028733253479 0.052173912525177 0.239215686917305 0.239215686917305 0.14509804546833038
0.9753694534301758 0.5509237051010132 0.531225323677063 0.6470588445663452 0.6705882549285889 0.6705882549285889
0.9605911374092102 0.46123480796813965 0.005928853526711464 0.5529412031173706 0.545098066329956 0.45490196347236633
0.9288177490234375 0.5225011706352234 0.9897233247756958 0.34117648005485535 0.32549020648002625 0.27843138575553894
0.9758620858192444 0.5525027513504028 0.47075098752975464 0.6666666865348816 0.6901960968971252 0.6823529601097107
0.9724137783050537 0.42081162333488464 0.31462451815605164 0.5490196347236633 0.5607843399047852 0.4941176474094391
0.9763546586036682 0.4143376052379608 0.6454545259475708 0.5803921818733215 0.6039215922355652 0.6039215922355652
0.9773399233818054 0.5491868257522583 0.3533596694469452 0.7333333492279053 0.7568627595901489 0.7490196228027344
0.9768472909927368 0.54066002368927 0.3909091055393219 0.6745098233222961 0.6980392336845398 0.6980392336845398
0.8620689511299133 0.5015000700950623 0.0063241105526685715 0.5215686559677124 0.529411792755127 0.4431372582912445
0.9756157398223877 0.45823463797569275 0.44031620025634766 0.6274510025978088 0.6627451181411743 0.658823549747467
0.9770935773849487 0.5021317005157471 0.6802371740341187 0.5568627715110779 0.5764706134796143 0.5490196347236633
0.9798029661178589 0.48113059997558594 0.7928853631019592 0.5372549295425415 0.545098066329956 0.4941176474094391
0.9780788421630859 0.4369177222251892 0.9881423115730286 0.2705882489681244 0.2549019753932953 0.2078431397676468
0.9751231670379639 0.46676141023635864 0.4679841995239258 0.6235294342041016 0.6470588445663452 0.6470588445663452
0.9812808036804199 0.5215537548065186 0.14703556895256042 0.6627451181411743 0.686274528503418 0.5843137502670288
0.9768472909927368 0.4711827039718628 0.6822134256362915 0.5529412031173706 0.572549045085907 0.5490196347236633
0.9522167444229126 0.5032370090484619 0.9893280863761902 0.3176470696926117 0.30980393290519714 0.250980406999588
0.9812808036804199 0.4915521740913391 0.08063241094350815 0.686274528503418 0.7176470756530762 0.6235294342041016
0.9455664753913879 0.546344518661499 0.0063241105526685715 0.4588235318660736 0.45098039507865906 0.3686274588108063
0.9756157398223877 0.5423969626426697 0.5596837997436523 0.6274510025978088 0.6509804129600525 0.6431372761726379
0.9783251285552979 0.488867849111557 0.7592885494232178 0.545098066329956 0.5686274766921997 0.5137255191802979
0.9064039587974548 0.4629717469215393 0.005928853526711464 0.5607843399047852 0.5568627715110779 0.43921568989753723
0.9236453175544739 0.5029212236404419 0.0063241105526685715 0.4627451002597809 0.48627451062202454 0.3843137323856354
0.982758641242981 0.499921053647995 0.813043475151062 0.5568627715110779 0.5529412031173706 0.43529412150382996
0.9184728860855103 0.46691930294036865 0.9893280863761902 0.3450980484485626 0.3294117748737335 0.2823529541492462
0.9586206674575806 0.54050213098526 0.9897233247756958 0.3294117748737335 0.3137255012989044 0.2705882489681244
0.9807881712913513 0.45491868257522583 0.19090908765792847 0.7019608020782471 0.6980392336845398 0.6274510025978088
0.9812808036804199 0.49044686555862427 0.1094861626625061 0.6745098233222961 0.6941176652908325 0.6039215922355652
0.9830049276351929 0.5278698801994324 0.8146244883537292 0.5529412031173706 0.5490196347236633 0.4313725531101227
0.9815270900726318 0.5477656722068787 0.25691699981689453 0.6627451181411743 0.6705882549285889 0.615686297416687
0.9758620858192444 0.5250276327133179 0.44545453786849976 0.6431372761726379 0.6666666865348816 0.658823549747467
0.9815270900726318 0.5375019907951355 0.26245060563087463 0.6549019813537598 0.6666666865348816 0.5921568870544434
0.9746305346488953 0.4132322669029236 0.5339921116828918 0.615686297416687 0.6509804129600525 0.6470588445663452
0.9775862097740173 0.4198642075061798 0.7335968613624573 0.5490196347236633 0.5764706134796143 0.5490196347236633
0.9753694534301758 0.5247118473052979 0.552173912525177 0.6039215922355652 0.6392157077789307 0.6352941393852234
0.9807881712913513 0.4992894232273102 0.23715415596961975 0.6666666865348816 0.686274528503418 0.6078431606292725
0.9810344576835632 0.5056055784225464 0.20158103108406067 0.6745098233222961 0.6901960968971252 0.5921568870544434
0.9812808036804199 0.5425548553466797 0.2818181812763214 0.6078431606292725 0.615686297416687 0.529411792755127
0.9583743810653687 0.5398705005645752 0.9897233247756958 0.3450980484485626 0.3294117748737335 0.2862745225429535
0.984236478805542 0.47023528814315796 0.9308300614356995 0.3921568691730499 0.3803921639919281 0.3137255012989044
0.9810344576835632 0.47591978311538696 0.10355731099843979 0.6823529601097107 0.7058823704719543 0.6039215922355652
0.9761083722114563 0.5120795965194702 0.6205533742904663 0.5882353186607361 0.6000000238418579 0.572549045085907
0.9758620858192444 0.47513025999069214 0.6225296258926392 0.6274510025978088 0.6352941393852234 0.6235294342041016
0.9837438464164734 0.44402337074279785 0.9130434989929199 0.4313725531101227 0.40784314274787903 0.3529411852359772
0.9002463221549988 0.46060317754745483 0.005928853526711464 0.5215686559677124 0.5176470875740051 0.43529412150382996
0.9761083722114563 0.4113374352455139 0.4106719493865967 0.658823549747467 0.6901960968971252 0.6980392336845398
0.8911330103874207 0.5168166756629944 0.9897233247756958 0.21176470816135406 0.21960784494876862 0.16862745583057404
0.9751231670379639 0.4340754747390747 0.469565212726593 0.6392157077789307 0.6627451181411743 0.6627451181411743
0.9812808036804199 0.4918679893016815 0.04901185631752014 0.21960784494876862 0.21176470816135406 0.12941177189350128
0.8990147709846497 0.44054949283599854 0.9893280863761902 0.3294117748737335 0.32156863808631897 0.2705882489681244
0.9756157398223877 0.4688141345977783 0.44545453786849976 0.6235294342041016 0.658823549747467 0.6549019813537598
0.9073891639709473 0.41481131315231323 0.9893280863761902 0.37254902720451355 0.35686275362968445 0.3137255012989044
0.9761083722114563 0.5141323208808899 0.425691694021225 0.6470588445663452 0.6705882549285889 0.6627451181411743
0.9807881712913513 0.419074684381485 0.16284584999084473 0.7098039388656616 0.7058823704719543 0.6352941393852234
0.9751231670379639 0.4632875323295593 0.573122501373291 0.6078431606292725 0.6235294342041016 0.6196078658103943
0.9817733764648438 0.5446076393127441 0.06561265140771866 0.7411764860153198 0.7607843279838562 0.6705882549285889
0.9756157398223877 0.4422864317893982 0.4316205680370331 0.6470588445663452 0.6666666865348816 0.6784313917160034
0.9812808036804199 0.5193431377410889 0.19407114386558533 0.6627451181411743 0.6823529601097107 0.5921568870544434
0.9810344576835632 0.45570820569992065 0.17865613102912903 0.6980392336845398 0.7019608020782471 0.6313725709915161
0.8903940916061401 0.5045002102851868 0.9897233247756958 0.1921568661928177 0.20000000298023224 0.1568627506494522
0.8886699676513672 0.4077056646347046 0.9901185631752014 0.37254902720451355 0.3607843220233917 0.32549020648002625
0.9810344576835632 0.4516027271747589 0.17588932812213898 0.7058823704719543 0.7019608020782471 0.6235294342041016
0.9768472909927368 0.40154746174812317 0.6778656244277954 0.5764706134796143 0.6000000238418579 0.6000000238418579
0.9844827651977539 0.49549975991249084 0.9640316367149353 0.364705890417099 0.34117648005485535 0.27843138575553894
0.9775862097740173 0.5202905535697937 0.015415019355714321 0.3137255012989044 0.30980393290519714 0.23137255012989044
0.9283251166343689 0.5210800766944885 0.9897233247756958 0.3333333432674408 0.3176470696926117 0.2705882489681244
0.9810344576835632 0.4399178922176361 0.11818181723356247 0.7137255072593689 0.7058823704719543 0.6470588445663452
0.9746305346488953 0.44402337074279785 0.5375494360923767 0.615686297416687 0.6313725709915161 0.6274510025978088
0.873399019241333 0.42633822560310364 0.9901185631752014 0.37254902720451355 0.3607843220233917 0.32549020648002625
0.915517270565033 0.4364440143108368 0.005533596966415644 0.4470588266849518 0.45490196347236633 0.3607843220233917
0.9704433679580688 0.4689720571041107 0.31897231936454773 0.4901960790157318 0.48627451062202454 0.40392157435417175
0.9778324961662292 0.396968275308609 0.7328063249588013 0.5686274766921997 0.5882353186607361 0.572549045085907
0.9783251285552979 0.44070741534233093 0.7747035622596741 0.5529412031173706 0.5607843399047852 0.5490196347236633
0.9812808036804199 0.529291033744812 0.2802371680736542 0.6352941393852234 0.6431372761726379 0.5607843399047852
0.8933497667312622 0.41544291377067566 0.005533596966415644 0.48235294222831726 0.48235294222831726 0.38823530077934265
0.8778325319290161 0.4852360785007477 0.0063241105526685715 0.5647059082984924 0.545098066329956 0.4313725531101227
0.9844827651977539 0.4855518639087677 0.9581027626991272 0.3607843220233917 0.33725491166114807 0.2823529541492462
0.9743842482566833 0.45855045318603516 0.5233201384544373 0.6117647290229797 0.6274510025978088 0.6313725709915161
0.9751231670379639 0.46676141023635864 0.5711462497711182 0.6039215922355652 0.6196078658103943 0.615686297416687
0.9780788421630859 0.39854729175567627 0.7482213377952576 0.5607843399047852 0.5803921818733215 0.5647059082984924
0.984236478805542 0.4940786361694336 0.9284585118293762 0.4274509847164154 0.4000000059604645 0.33725491166114807
0.9810344576835632 0.39854729175567627 0.1715414971113205 0.7058823704719543 0.7137255072593689 0.6313725709915161
0.9758620858192444 0.45555028319358826 0.4213438630104065 0.6352941393852234 0.6666666865348816 0.6745098233222961
0.9810344576835632 0.42918047308921814 0.14822134375572205 0.7098039388656616 0.7058823704719543 0.6352941393852234
0.9766010046005249 0.4100742042064667 0.005138339940458536 0.5215686559677124 0.5098039507865906 0.43529412150382996
0.9665024876594543 0.4277593493461609 0.005533596966415644 0.5647059082984924 0.5607843399047852 0.47843137383461
0.9145320057868958 0.546344518661499 0.9901185631752014 0.34117648005485535 0.3333333432674408 0.2862745225429535
0.9810344576835632 0.4563398063182831 0.15770751237869263 0.7019608020782471 0.6980392336845398 0.6196078658103943
0.9837438464164734 0.5362387299537659 0.843478262424469 0.5333333611488342 0.5215686559677124 0.4000000059604645
0.9802955389022827 0.489183634519577 0.7944663763046265 0.5490196347236633 0.5372549295425415 0.5176470875740051
0.9768472909927368 0.5114479660987854 0.6703557372093201 0.7529411911964417 0.772549033164978 0.7568627595901489
0.9844827651977539 0.5480814576148987 0.9067193865776062 0.4941176474094391 0.47058823704719543 0.3686274588108063
0.9785714149475098 0.4394441843032837 0.7853754758834839 0.5490196347236633 0.5568627715110779 0.5529412031173706
0.9758620858192444 0.46076110005378723 0.6280632615089417 0.5960784554481506 0.5960784554481506 0.5960784554481506
0.9815270900726318 0.5324490666389465 0.09762845933437347 0.6627451181411743 0.6980392336845398 0.5921568870544434
0.9761083722114563 0.42096951603889465 0.005533596966415644 0.615686297416687 0.6039215922355652 0.529411792755127
0.9716748595237732 0.44954997301101685 0.3166007995605469 0.5529412031173706 0.5568627715110779 0.4941176474094391
0.9807881712913513 0.5010263919830322 0.260474294424057 0.6666666865348816 0.6784313917160034 0.6039215922355652
0.9805418848991394 0.41575872898101807 0.026877470314502716 0.30980393290519714 0.2823529541492462 0.21176470816135406
0.9830049276351929 0.4168640375137329 0.8249011635780334 0.5215686559677124 0.501960813999176 0.4156862795352936
0.9807881712913513 0.4421285390853882 0.22292490303516388 0.7098039388656616 0.7058823704719543 0.6352941393852234
0.9204433560371399 0.4373914301395416 0.9889327883720398 0.3333333432674408 0.32549020648002625 0.27450981736183167
0.9761083722114563 0.5305542349815369 0.9849802255630493 0.2980392277240753 0.2862745225429535 0.21960784494876862
0.9812808036804199 0.4942365288734436 0.11225296556949615 0.6666666865348816 0.6980392336845398 0.6039215922355652
0.9802955389022827 0.42744356393814087 0.018577074632048607 0.29411765933036804 0.25882354378700256 0.1921568661928177
0.9211822748184204 0.5180798768997192 0.0063241105526685715 0.5098039507865906 0.4901960790157318 0.3764705955982208
0.9278324842453003 0.49849992990493774 0.0063241105526685715 0.4313725531101227 0.4627451002597809 0.37254902720451355
0.984236478805542 0.4823938012123108 0.9312252998352051 0.40392157435417175 0.3803921639919281 0.32549020648002625
0.9763546586036682 0.4849202632904053 0.6521739363670349 0.5686274766921997 0.5882353186607361 0.5647059082984924
0.9766010046005249 0.5210800766944885 0.3446640372276306 0.6196078658103943 0.6549019813537598 0.6509804129600525
0.9815270900726318 0.5123953819274902 0.07667984068393707 0.7019608020782471 0.7372549176216125 0.6235294342041016
0.9226601123809814 0.3998105227947235 0.005928853526711464 0.5607843399047852 0.5529412031173706 0.4627451002597809
0.9748768210411072 0.40660035610198975 0.5201581120491028 0.6274510025978088 0.6627451181411743 0.658823549747467
0.9738916158676147 0.4029685854911804 0.3110671937465668 0.545098066329956 0.5490196347236633 0.48627451062202454
0.9770935773849487 0.4111795425415039 0.6897233128547668 0.5686274766921997 0.5882353186607361 0.572549045085907
0.9766010046005249 0.41228485107421875 0.35098814964294434 0.7058823704719543 0.7450980544090271 0.7411764860153198
0.984236478805542 0.47528818249702454 0.9347826242446899 0.3843137323856354 0.37254902720451355 0.3137255012989044
0.9834975600242615 0.40360018610954285 0.9090909361839294 0.43921568989753723 0.42352941632270813 0.3764705955982208
0.9844827651977539 0.49297332763671875 0.9371541738510132 0.4117647111415863 0.3843137323856354 0.32156863808631897
0.9610837697982788 0.5390809774398804 0.0063241105526685715 0.4941176474094391 0.4941176474094391 0.4000000059604645
0.9756157398223877 0.5310279726982117 0.5758893489837646 0.6000000238418579 0.6352941393852234 0.6235294342041016
0.878078818321228 0.42096951603889465 0.9901185631752014 0.37254902720451355 0.37254902720451355 0.34117648005485535
0.9113300442695618 0.5288172960281372 0.9897233247756958 0.3294117748737335 0.3176470696926117 0.2823529541492462
0.9347290396690369 0.4489183723926544 0.005928853526711464 0.4745098054409027 0.48627451062202454 0.37254902720451355
0.9366995096206665 0.48949944972991943 0.9893280863761902 0.3450980484485626 0.3294117748737335 0.2823529541492462
0.984236478805542 0.5340281128883362 0.8999999761581421 0.47843137383461 0.45490196347236633 0.3607843220233917
0.9046797752380371 0.5266066789627075 0.9897233247756958 0.3176470696926117 0.30588236451148987 0.2705882489681244
0.9753694534301758 0.49313122034072876 0.4679841995239258 0.6078431606292725 0.6431372761726379 0.6313725709915161
0.9753694534301758 0.454129159450531 0.4577075242996216 0.6274510025978088 0.6509804129600525 0.6431372761726379
0.9770935773849487 0.4514448046684265 0.6901185512542725 0.5686274766921997 0.5647059082984924 0.5568627715110779
0.9832512140274048 0.4144954979419708 0.8727272748947144 0.48627451062202454 0.46666666865348816 0.3921568691730499
0.9810344576835632 0.5043423175811768 0.2395256906747818 0.6705882549285889 0.6901960968971252 0.6117647290229797
0.9376847147941589 0.4877625107765198 0.0063241105526685715 0.5882353186607361 0.5882353186607361 0.4941176474094391
0.9751231670379639 0.5112900733947754 0.49288538098335266 0.6078431606292725 0.6431372761726379 0.6313725709915161
0.9812808036804199 0.5311858654022217 0.25375494360923767 0.658823549747467 0.6666666865348816 0.5843137502670288
0.9751231670379639 0.4110216200351715 0.5059288740158081 0.6274510025978088 0.6627451181411743 0.658823549747467
0.9812808036804199 0.42065373063087463 0.09486165642738342 0.7019608020782471 0.6980392336845398 0.6274510025978088
0.9748768210411072 0.4419706165790558 0.4857707619667053 0.6235294342041016 0.6470588445663452 0.6470588445663452
0.9763546586036682 0.48176220059394836 0.38853755593299866 0.6549019813537598 0.6784313917160034 0.6784313917160034
0.951724112033844 0.3993368148803711 0.005533596966415644 0.5607843399047852 0.5176470875740051 0.4470588266849518
0.9766010046005249 0.4536554515361786 0.9885375499725342 0.29411765933036804 0.2705882489681244 0.2235294133424759
0.9815270900726318 0.534817636013031 0.9490118622779846 0.40392157435417175 0.3764705955982208 0.30588236451148987
0.9815270900726318 0.5479235649108887 0.14505928754806519 0.6666666865348816 0.686274528503418 0.6000000238418579
0.9758620858192444 0.4373914301395416 0.6237154006958008 0.5960784554481506 0.5960784554481506 0.5960784554481506
0.984236478805542 0.5316595435142517 0.8936758637428284 0.4941176474094391 0.47058823704719543 0.3764705955982208
0.9785714149475098 0.5357650518417358 0.7747035622596741 0.5333333611488342 0.545098066329956 0.501960813999176
0.9751231670379639 0.3998105227947235 0.5193675756454468 0.6274510025978088 0.6627451181411743 0.6509804129600525
0.9761083722114563 0.546186625957489 0.6007905006408691 0.6078431606292725 0.6313725709915161 0.615686297416687
0.9810344576835632 0.5395547151565552 0.2976284623146057 0.4627451002597809 0.45490196347236633 0.364705890417099
0.9763546586036682 0.4017053544521332 0.6335968375205994 0.6039215922355652 0.6235294342041016 0.6352941393852234
0.9756157398223877 0.4863413870334625 0.4434782564640045 0.6313725709915161 0.6549019813537598 0.6549019813537598
0.9805418848991394 0.48207801580429077 0.02964426949620247 0.23137255012989044 0.20000000298023224 0.14901961386203766
0.9748768210411072 0.4132322669029236 0.5272727012634277 0.6196078658103943 0.6549019813537598 0.6509804129600525
0.9834975600242615 0.5048160552978516 0.8418972492218018 0.5607843399047852 0.5411764979362488 0.4156862795352936
0.9756157398223877 0.41860097646713257 0.5984189510345459 0.6000000238418579 0.6235294342041016 0.615686297416687
0.9761083722114563 0.5133427977561951 0.30434781312942505 0.5568627715110779 0.5607843399047852 0.4901960790157318
0.9551724195480347 0.5234485864639282 0.0063241105526685715 0.43529412150382996 0.43529412150382996 0.3333333432674408
0.9807881712913513 0.4893415570259094 0.27865612506866455 0.6509804129600525 0.6666666865348816 0.6000000238418579
0.9761083722114563 0.5498183965682983 0.43913042545318604 0.6705882549285889 0.6941176652908325 0.6941176652908325
0.9832512140274048 0.4021790623664856 0.8553359508514404 0.501960813999176 0.4941176474094391 0.4117647111415863
0.9761083722114563 0.4516027271747589 0.6395257115364075 0.5843137502670288 0.5843137502670288 0.5764706134796143
0.8852216601371765 0.45965576171875 0.9897233247756958 0.20000000298023224 0.20000000298023224 0.15294118225574493
0.9815270900726318 0.5311858654022217 0.08102767169475555 0.6941176652908325 0.729411780834198 0.615686297416687
0.9761083722114563 0.551239550113678 0.5802371501922607 0.6313725709915161 0.6549019813537598 0.6549019813537598
0.9810344576835632 0.4424443244934082 0.16442687809467316 0.7137255072593689 0.7058823704719543 0.6549019813537598
0.9761083722114563 0.5438181161880493 0.44466403126716614 0.6549019813537598 0.6901960968971252 0.6784313917160034
0.9773399233818054 0.48081478476524353 0.7047430872917175 0.5490196347236633 0.5803921818733215 0.5372549295425415
0.9807881712913513 0.4100742042064667 0.2652173936367035 0.729411780834198 0.7333333492279053 0.6705882549285889
0.9761083722114563 0.40644243359565735 0.4015810191631317 0.6705882549285889 0.6901960968971252 0.7019608020782471
0.9766010046005249 0.4072319567203522 0.3023715317249298 0.545098066329956 0.5529412031173706 0.47058823704719543
0.9756157398223877 0.4547607898712158 0.4276679754257202 0.6431372761726379 0.6666666865348816 0.658823549747467
0.9763546586036682 0.5341860055923462 0.425691694021225 0.658823549747467 0.6823529601097107 0.6745098233222961
0.9756157398223877 0.465182363986969 0.44071146845817566 0.6274510025978088 0.6627451181411743 0.658823549747467
0.9763546586036682 0.44449707865715027 0.6537549495697021 0.5764706134796143 0.5843137502670288 0.5803921818733215
0.9775862097740173 0.5338702201843262 0.7106719613075256 0.5254902243614197 0.5411764979362488 0.48627451062202454
0.9068965315818787 0.4684983491897583 0.005928853526711464 0.5254902243614197 0.5215686559677124 0.40392157435417175
0.9736453294754028 0.4462340176105499 0.33517786860466003 0.6823529601097107 0.686274528503418 0.6941176652908325
0.9839901328086853 0.43233853578567505 0.9683794379234314 0.3607843220233917 0.3294117748737335 0.27843138575553894
0.9753694534301758 0.4967629909515381 0.5810276865959167 0.5803921818733215 0.6039215922355652 0.5882353186607361
0.9812808036804199 0.4921838045120239 0.07747035473585129 0.6980392336845398 0.7372549176216125 0.6392157077789307
0.9758620858192444 0.5329228043556213 0.4577075242996216 0.6352941393852234 0.6705882549285889 0.658823549747467
0.9746305346488953 0.4913942813873291 0.5158102512359619 0.6000000238418579 0.6352941393852234 0.6235294342041016
0.9123152494430542 0.5316595435142517 0.9897233247756958 0.3529411852359772 0.34117648005485535 0.30588236451148987
0.9778324961662292 0.40960049629211426 0.7422924637794495 0.5529412031173706 0.5764706134796143 0.5607843399047852
0.9815270900726318 0.5206063389778137 0.05612648278474808 0.7960784435272217 0.8117647171020508 0.7137255072593689
0.9834975600242615 0.47544607520103455 0.8450592756271362 0.5333333611488342 0.5137255191802979 0.4274509847164154
0.9766010046005249 0.5024474859237671 0.37786561250686646 0.6549019813537598 0.686274528503418 0.6941176652908325
0.9807881712913513 0.5035527944564819 0.28893280029296875 0.5764706134796143 0.5960784554481506 0.47843137383461
0.9812808036804199 0.499921053647995 0.05691699683666229 0.7843137383460999 0.800000011920929 0.6941176652908325
0.9832512140274048 0.4310753345489502 0.8679841756820679 0.47843137383461 0.45490196347236633 0.3921568691730499
0.9751231670379639 0.45839256048202515 0.5814229249954224 0.6078431606292725 0.6235294342041016 0.6196078658103943
0.94852215051651 0.45807674527168274 0.9889327883720398 0.3333333432674408 0.3176470696926117 0.2705882489681244
0.9830049276351929 0.4451286792755127 0.820948600769043 0.545098066329956 0.5411764979362488 0.42352941632270813
0.9041872024536133 0.535291314125061 0.0063241105526685715 0.4745098054409027 0.47058823704719543 0.38823530077934265
0.9810344576835632 0.4448128938674927 0.17075099050998688 0.7019608020782471 0.7058823704719543 0.6431372761726379
0.9832512140274048 0.4743407666683197 0.8316205739974976 0.5372549295425415 0.529411792755127 0.4313725531101227
0.9766010046005249 0.41828516125679016 0.36126482486724854 0.7058823704719543 0.7450980544090271 0.7411764860153198
0.9751231670379639 0.489183634519577 0.48735177516937256 0.6039215922355652 0.6392157077789307 0.6352941393852234
0.9756157398223877 0.4307595193386078 0.9881423115730286 0.27450981736183167 0.25882354378700256 0.2235294133424759
0.9751231670379639 0.5431864857673645 0.531225323677063 0.6431372761726379 0.6666666865348816 0.658823549747467
0.9810344576835632 0.5220274925231934 0.29486167430877686 0.4901960790157318 0.4941176474094391 0.37254902720451355
0.9758620858192444 0.5087636113166809 0.45098814368247986 0.6235294342041016 0.658823549747467 0.6470588445663452
0.9751231670379639 0.43770724534988403 0.4640316069126129 0.6352941393852234 0.658823549747467 0.6509804129600525
0.9701970219612122 0.5105005502700806 0.32134386897087097 0.43921568989753723 0.4274509847164154 0.3529411852359772
0.9773399233818054 0.4077056646347046 0.7158102989196777 0.5607843399047852 0.5803921818733215 0.5647059082984924
0.9758620858192444 0.4114953279495239 0.6071146130561829 0.6078431606292725 0.6235294342041016 0.6196078658103943
0.9753694534301758 0.4912363886833191 0.5798419117927551 0.5803921818733215 0.6039215922355652 0.5882353186607361
0.9807881712913513 0.45555028319358826 0.24584980309009552 0.6941176652908325 0.6901960968971252 0.6117647290229797
0.9812808036804199 0.4100742042064667 0.0992094874382019 0.6941176652908325 0.7058823704719543 0.6392157077789307
0.8689655065536499 0.489025741815567 0.0063241105526685715 0.5372549295425415 0.5372549295425415 0.4274509847164154
0.9137930870056152 0.41196906566619873 0.9893280863761902 0.3607843220233917 0.3450980484485626 0.3019607961177826
0.982758641242981 0.4857097864151001 0.9810276627540588 0.32156863808631897 0.2980392277240753 0.24313725531101227
0.9763546586036682 0.5259750485420227 0.6249011754989624 0.5803921818733215 0.6000000238418579 0.5843137502670288
0.9766010046005249 0.5283436179161072 0.6430829763412476 0.6470588445663452 0.6823529601097107 0.6784313917160034
0.9763546586036682 0.41465339064598083 0.6450592875480652 0.5803921818733215 0.6039215922355652 0.6039215922355652
0.9251231551170349 0.4996052384376526 0.0063241105526685715 0.45098039507865906 0.4470588266849518 0.33725491166114807
0.929556667804718 0.5082899332046509 0.0063241105526685715 0.4588235318660736 0.47058823704719543 0.35686275362968445
0.9763546586036682 0.4372335374355316 0.3703557252883911 0.7019608020782471 0.7215686440467834 0.7333333492279053
0.9145320057868958 0.5262908339500427 0.9897233247756958 0.3176470696926117 0.30980393290519714 0.26274511218070984
0.9807881712913513 0.48381492495536804 0.2403162121772766 0.6784313917160034 0.6901960968971252 0.615686297416687
0.9832512140274048 0.41228485107421875 0.9106719493865967 0.4431372582912445 0.4117647111415863 0.3686274588108063
0.8931034207344055 0.529448926448822 0.0063241105526685715 0.5607843399047852 0.5607843399047852 0.45098039507865906
0.9763546586036682 0.4345491826534271 0.365612655878067 0.7058823704719543 0.7254902124404907 0.7372549176216125
0.9815270900726318 0.5261329412460327 0.09802371263504028 0.6666666865348816 0.6941176652908325 0.572549045085907
0.9041872024536133 0.524080216884613 0.9897233247756958 0.3294117748737335 0.3176470696926117 0.2823529541492462
0.9758620858192444 0.47781461477279663 0.9889327883720398 0.30588236451148987 0.2980392277240753 0.239215686917305
0.9004926085472107 0.3958629369735718 0.9897233247756958 0.3490196168422699 0.3333333432674408 0.29019609093666077
0.9761083722114563 0.4220748543739319 0.3857707381248474 0.6941176652908325 0.7137255072593689 0.7372549176216125
0.9758620858192444 0.476077675819397 0.4272727370262146 0.6392157077789307 0.6627451181411743 0.6627451181411743
0.9810344576835632 0.4449707865715027 0.1620553433895111 0.7058823704719543 0.7058823704719543 0.658823549747467
0.9761083722114563 0.5270803570747375 0.4308300316333771 0.6549019813537598 0.6784313917160034 0.6705882549285889
0.9834975600242615 0.5270803570747375 0.8316205739974976 0.5411764979362488 0.5372549295425415 0.4156862795352936
0.8706896305084229 0.40928471088409424 0.005533596966415644 0.5882353186607361 0.5882353186607361 0.4941176474094391
0.9647783041000366 0.4887099266052246 0.9889327883720398 0.30588236451148987 0.29411765933036804 0.23529411852359772
0.9810344576835632 0.4309174120426178 0.09169960767030716 0.7019608020782471 0.7098039388656616 0.6274510025978088
0.9812808036804199 0.5362387299537659 0.24782608449459076 0.6666666865348816 0.6784313917160034 0.6039215922355652
0.9834975600242615 0.4721301198005676 0.8628458380699158 0.501960813999176 0.4745098054409027 0.4000000059604645
0.9807881712913513 0.45586609840393066 0.23833991587162018 0.6941176652908325 0.6901960968971252 0.6117647290229797
0.9815270900726318 0.5442917943000793 0.23557312786579132 0.6666666865348816 0.6784313917160034 0.6117647290229797
0.9834975600242615 0.39728406071662903 0.9588932991027832 0.38823530077934265 0.35686275362968445 0.30588236451148987
0.9763546586036682 0.5326069593429565 0.6304348111152649 0.5921568870544434 0.5960784554481506 0.5764706134796143
0.9793103337287903 0.40391600131988525 0.005138339940458536 0.4156862795352936 0.3843137323856354 0.30980393290519714
0.9731526970863342 0.5223432779312134 0.9897233247756958 0.32549020648002625 0.3137255012989044 0.24705882370471954
