0.413300484418869 0.5436601638793945 0.0071146246045827866 0.18039216101169586 0.1725490242242813 0.125490203499794
0.4729064106941223 0.5749250054359436 0.2976284623146057 0.615686297416687 0.6274510025978088 0.6627451181411743
0.4445812702178955 0.4882362186908722 0.18932805955410004 0.0470588244497776 0.0470588244497776 0.0470588244497776
0.4810344874858856 0.6005052924156189 0.007905138656497002 0.3686274588108063 0.3764705955982208 0.35686275362968445
0.4014778435230255 0.5324490666389465 0.9905138611793518 0.35686275362968445 0.35686275362968445 0.3176470696926117
0.3928571343421936 0.5212379693984985 0.29407113790512085 0.4431372582912445 0.4901960790157318 0.45098039507865906
0.43152710795402527 0.4803410768508911 0.007509881630539894 0.32156863808631897 0.30588236451148987 0.26274511218070984
0.3967980444431305 0.5543975830078125 0.17351779341697693 0.0784313753247261 0.0784313753247261 0.0784313753247261
0.4891625642776489 0.5311858654022217 0.2972331941127777 0.5647059082984924 0.5882353186607361 0.5803921818733215
0.5317733883857727 0.5217116475105286 0.9889327883720398 0.4117647111415863 0.40392157435417175 0.3450980484485626
0.5783251523971558 0.5465024709701538 0.9901185631752014 0.38823530077934265 0.3960784375667572 0.3450980484485626
0.4396551847457886 0.5888204574584961 0.18142291903495789 0.364705890417099 0.3843137323856354 0.3960784375667572
0.42315271496772766 0.5518711805343628 0.0063241105526685715 0.20392157137393951 0.20392157137393951 0.16470588743686676
0.5524630546569824 0.6202431917190552 0.9916995763778687 0.3450980484485626 0.3490196168422699 0.3176470696926117
0.3736453056335449 0.518711507320404 0.2924901247024536 0.4470588266849518 0.48627451062202454 0.45098039507865906
0.5359606146812439 0.5245538949966431 0.9889327883720398 0.3960784375667572 0.38823530077934265 0.3294117748737335
0.576600968837738 0.6276646256446838 0.992094874382019 0.3137255012989044 0.3176470696926117 0.29411765933036804
0.42315271496772766 0.5395547151565552 0.9905138611793518 0.3764705955982208 0.3686274588108063 0.32156863808631897
0.4036945700645447 0.610611081123352 0.0063241105526685715 0.08627451211214066 0.08235294371843338 0.07450980693101883
0.4364531934261322 0.5641875863075256 0.9909090995788574 0.35686275362968445 0.3450980484485626 0.30980393290519714
0.4167487621307373 0.5813990235328674 0.9909090995788574 0.3686274588108063 0.3529411852359772 0.34117648005485535
0.4655172526836395 0.562134861946106 0.9909090995788574 0.3607843220233917 0.3607843220233917 0.32156863808631897
0.5280787944793701 0.5543975830078125 0.005138339940458536 0.4156862795352936 0.45098039507865906 0.4313725531101227
0.370197057723999 0.5720827579498291 0.29367589950561523 0.6627451181411743 0.7019608020782471 0.7411764860153198
0.38349753618240356 0.6169272065162659 0.2956521809101105 0.6313725709915161 0.6470588445663452 0.6941176652908325
0.49334976077079773 0.4741828441619873 0.29525691270828247 0.47843137383461 0.49803921580314636 0.4745098054409027
0.39926108717918396 0.5551871061325073 0.9909090995788574 0.34117648005485535 0.3450980484485626 0.3137255012989044
0.400738924741745 0.6107689738273621 0.991304337978363 0.3333333432674408 0.3176470696926117 0.3137255012989044
0.6113300323486328 0.523922324180603 0.005928853526711464 0.20392157137393951 0.21176470816135406 0.20000000298023224
0.45467981696128845 0.5441339015960693 0.9901185631752014 0.35686275362968445 0.3450980484485626 0.30980393290519714
0.5495073795318604 0.5453971028327942 0.007509881630539894 0.40784314274787903 0.43529412150382996 0.40784314274787903
0.47783252596855164 0.5529764890670776 0.004743082914501429 0.45490196347236633 0.4627451002597809 0.40784314274787903
0.46280789375305176 0.6166114211082458 0.991304337978363 0.3450980484485626 0.3450980484485626 0.3137255012989044
0.42709359526634216 0.5583451986312866 0.18063241243362427 0.054901961237192154 0.054901961237192154 0.054901961237192154
0.5832512378692627 0.5277119874954224 0.005533596966415644 0.16470588743686676 0.18431372940540314 0.16862745583057404
0.5216748714447021 0.5880309343338013 0.9909090995788574 0.364705890417099 0.3607843220233917 0.34117648005485535
0.6012315154075623 0.615664005279541 0.0031620552763342857 0.08235294371843338 0.0784313753247261 0.07058823853731155
0.5701970458030701 0.6303489804267883 0.992094874382019 0.3529411852359772 0.3490196168422699 0.3294117748737335
0.3802955746650696 0.545555055141449 0.17391304671764374 0.11372549086809158 0.11372549086809158 0.11372549086809158
0.492118239402771 0.5540817975997925 0.2976284623146057 0.5960784554481506 0.5960784554481506 0.6039215922355652
0.5967980027198792 0.599242091178894 0.991304337978363 0.3490196168422699 0.3450980484485626 0.32549020648002625
0.5938423871994019 0.4948681592941284 0.002766798483207822 0.18039216101169586 0.1882352977991104 0.18431372940540314
0.5364531874656677 0.5416074395179749 0.005533596966415644 0.3607843220233917 0.38823530077934265 0.3607843220233917
0.37512314319610596 0.5504500269889832 0.20197628438472748 0.10588235408067703 0.11372549086809158 0.10980392247438431
0.5470443367958069 0.5131849050521851 0.0015810276381671429 0.21960784494876862 0.239215686917305 0.21568627655506134
0.44605910778045654 0.4909205734729767 0.9893280863761902 0.4156862795352936 0.40392157435417175 0.3450980484485626
0.5610837340354919 0.5559766292572021 0.007905138656497002 0.4313725531101227 0.4588235318660736 0.4313725531101227
0.432758629322052 0.5793462991714478 0.005928853526711464 0.20392157137393951 0.2078431397676468 0.1764705926179886
0.5894088745117188 0.5465024709701538 0.28498023748397827 0.15294118225574493 0.19607843458652496 0.18039216101169586
0.6078817844390869 0.5935575366020203 0.991304337978363 0.32549020648002625 0.33725491166114807 0.30980393290519714
0.6115763783454895 0.4907626807689667 0.2972331941127777 0.5647059082984924 0.572549045085907 0.5607843399047852
0.49064040184020996 0.5949786901473999 0.29881423711776733 0.6274510025978088 0.6235294342041016 0.6470588445663452
0.5088669657707214 0.48113059997558594 0.9889327883720398 0.33725491166114807 0.33725491166114807 0.29019609093666077
0.5820196866989136 0.6281383037567139 0.0031620552763342857 0.10588235408067703 0.10196078568696976 0.0941176488995552
0.3778325021266937 0.5607137084007263 0.0071146246045827866 0.29411765933036804 0.2862745225429535 0.23529411852359772
0.3857142925262451 0.49628928303718567 0.29169961810112 0.4470588266849518 0.48627451062202454 0.45098039507865906
0.5322660207748413 0.47576189041137695 0.005138339940458536 0.43529412150382996 0.4745098054409027 0.4431372582912445
0.37857142090797424 0.5490288734436035 0.1561264842748642 0.054901961237192154 0.054901961237192154 0.054901961237192154
0.4051724076271057 0.5585030913352966 0.29486167430877686 0.5686274766921997 0.6039215922355652 0.6392157077789307
0.4613300561904907 0.5177640914916992 0.005138339940458536 0.5411764979362488 0.5882353186607361 0.5490196347236633
0.6004925966262817 0.5250276327133179 0.004743082914501429 0.18039216101169586 0.18039216101169586 0.18039216101169586
0.41403940320014954 0.5161850452423096 0.9901185631752014 0.3843137323856354 0.3764705955982208 0.3294117748737335
0.4490147829055786 0.4909205734729767 0.9893280863761902 0.38823530077934265 0.3764705955982208 0.3176470696926117
0.6036945581436157 0.579030454158783 0.0015810276381671429 0.18431372940540314 0.20392157137393951 0.21568627655506134
0.4167487621307373 0.5654507875442505 0.17865613102912903 0.05098039284348488 0.05098039284348488 0.05098039284348488
0.5258620977401733 0.5082899332046509 0.9881423115730286 0.40392157435417175 0.40392157435417175 0.35686275362968445
0.47315269708633423 0.5742933750152588 0.9909090995788574 0.3803921639919281 0.3686274588108063 0.3333333432674408
0.47315269708633423 0.6031896471977234 0.29841896891593933 0.6039215922355652 0.6039215922355652 0.6352941393852234
0.5970443487167358 0.5591346621513367 0.9905138611793518 0.3450980484485626 0.3333333432674408 0.30588236451148987
0.37955665588378906 0.5262908339500427 0.00830039568245411 0.1882352977991104 0.1764705926179886 0.1411764770746231
0.3926108479499817 0.5633980631828308 0.9909090995788574 0.30588236451148987 0.3019607961177826 0.2823529541492462
0.4761083722114563 0.535133421421051 0.004743082914501429 0.08235294371843338 0.08235294371843338 0.09019608050584793
0.4655172526836395 0.6309805512428284 0.29881423711776733 0.5490196347236633 0.5490196347236633 0.5803921818733215
0.5325123071670532 0.5782409310340881 0.9909090995788574 0.3686274588108063 0.3686274588108063 0.3294117748737335
0.40197044610977173 0.5204484462738037 0.007905138656497002 0.21176470816135406 0.21960784494876862 0.1764705926179886
0.42610836029052734 0.48128849267959595 0.1881422996520996 0.03529411926865578 0.03529411926865578 0.03529411926865578
0.378078818321228 0.5330806970596313 0.007905138656497002 0.2666666805744171 0.239215686917305 0.20000000298023224
0.5906403660774231 0.6259276866912842 0.002766798483207822 0.13333334028720856 0.12941177189350128 0.11372549086809158
0.5923645496368408 0.47813042998313904 0.2976284623146057 0.49803921580314636 0.5058823823928833 0.48627451062202454
0.3931034505367279 0.5343438982963562 0.9905138611793518 0.37254902720451355 0.3843137323856354 0.3490196168422699
0.4997536838054657 0.5155534744262695 0.0071146246045827866 0.4901960790157318 0.501960813999176 0.3960784375667572
0.6113300323486328 0.6177167296409607 0.0035573123022913933 0.07058823853731155 0.07450980693101883 0.054901961237192154
0.5864531993865967 0.5605558156967163 0.28893280029296875 0.14901961386203766 0.15294118225574493 0.16862745583057404
0.5945813059806824 0.4913942813873291 0.0023715414572507143 0.16862745583057404 0.1764705926179886 0.1725490242242813
0.5044335126876831 0.6145586371421814 0.29881423711776733 0.4313725531101227 0.43921568989753723 0.43529412150382996
0.6118226647377014 0.5278698801994324 0.005533596966415644 0.19607843458652496 0.19607843458652496 0.1882352977991104
0.6059113144874573 0.5892941951751709 0.005138339940458536 0.48627451062202454 0.5176470875740051 0.529411792755127
0.506403923034668 0.5543975830078125 0.004743082914501429 0.40784314274787903 0.4431372582912445 0.4313725531101227
0.4445812702178955 0.5487130880355835 0.9901185631752014 0.3607843220233917 0.3490196168422699 0.3137255012989044
0.506157636642456 0.5684509873390198 0.28932806849479675 0.08627451211214066 0.0941176488995552 0.09019608050584793
0.4455665051937103 0.4741828441619873 0.9897233247756958 0.4313725531101227 0.42352941632270813 0.37254902720451355
0.5216748714447021 0.5956103205680847 0.9909090995788574 0.3607843220233917 0.3607843220233917 0.3137255012989044
0.443842351436615 0.5545554757118225 0.2964426875114441 0.572549045085907 0.5921568870544434 0.615686297416687
0.5275862216949463 0.6290857195854187 0.992094874382019 0.33725491166114807 0.32156863808631897 0.30980393290519714
0.44950738549232483 0.615821897983551 0.9909090995788574 0.27843138575553894 0.27843138575553894 0.24705882370471954
0.49014776945114136 0.6166114211082458 0.005928853526711464 0.45490196347236633 0.45490196347236633 0.40784314274787903
0.49852216243743896 0.5319753885269165 0.0035573123022913933 0.14509804546833038 0.14901961386203766 0.1568627506494522
0.5315271019935608 0.6055582165718079 0.0031620552763342857 0.4470588266849518 0.46666666865348816 0.45098039507865906
0.49458128213882446 0.5027633309364319 0.003952569328248501 0.5333333611488342 0.545098066329956 0.5176470875740051
0.4687192142009735 0.5362387299537659 0.2968379557132721 0.545098066329956 0.5686274766921997 0.5607843399047852
0.5384236574172974 0.5652928948402405 0.005928853526711464 0.48235294222831726 0.529411792755127 0.5137255191802979
0.4357142746448517 0.4910784661769867 0.29367589950561523 0.48627451062202454 0.5098039507865906 0.501960813999176
0.42561575770378113 0.6256119012832642 0.991304337978363 0.2980392277240753 0.2823529541492462 0.2705882489681244
0.4135468006134033 0.5791884064674377 0.1711462438106537 0.08235294371843338 0.08235294371843338 0.08235294371843338
0.4669950604438782 0.5086057186126709 0.2960474193096161 0.5098039507865906 0.5254902243614197 0.5215686559677124
0.43423646688461304 0.5008684396743774 0.17905138432979584 0.364705890417099 0.3529411852359772 0.3333333432674408
0.5352216958999634 0.6194536685943604 0.002766798483207822 0.45098039507865906 0.4156862795352936 0.3803921639919281
0.3896551728248596 0.5817148089408875 0.1616600751876831 0.03529411926865578 0.03529411926865578 0.03529411926865578
0.5 0.54066002368927 0.2964426875114441 0.5882353186607361 0.5882353186607361 0.5882353186607361
0.39137929677963257 0.5850307941436768 0.16245059669017792 0.03529411926865578 0.03529411926865578 0.03529411926865578
0.40320196747779846 0.5900837182998657 0.991304337978363 0.3294117748737335 0.32549020648002625 0.30588236451148987
0.5253694653511047 0.626875102519989 0.9916995763778687 0.33725491166114807 0.32156863808631897 0.30980393290519714
0.5743842124938965 0.5870835185050964 0.005138339940458536 0.19607843458652496 0.21568627655506134 0.1921568661928177
0.4608374238014221 0.5343438982963562 0.2964426875114441 0.5333333611488342 0.5568627715110779 0.5411764979362488
0.44581282138824463 0.47907784581184387 0.9897233247756958 0.43921568989753723 0.4313725531101227 0.3803921639919281
0.44187191128730774 0.5318174362182617 0.005533596966415644 0.4117647111415863 0.4156862795352936 0.3607843220233917
0.46305418014526367 0.5152376294136047 0.9893280863761902 0.3921568691730499 0.3843137323856354 0.3333333432674408
0.5007389187812805 0.5608716011047363 0.29288536310195923 0.5607843399047852 0.5411764979362488 0.5686274766921997
0.39064040780067444 0.5015000700950623 0.29169961810112 0.47058823704719543 0.4901960790157318 0.4745098054409027
0.4330049157142639 0.5370282530784607 0.17470355331897736 0.1921568661928177 0.2078431397676468 0.21176470816135406
0.381280779838562 0.557239830493927 0.9909090995788574 0.3490196168422699 0.33725491166114807 0.30980393290519714
0.43817734718322754 0.5090793967247009 0.007509881630539894 0.3137255012989044 0.32549020648002625 0.2823529541492462
0.46625617146492004 0.5978209376335144 0.00830039568245411 0.24705882370471954 0.2549019753932953 0.23529411852359772
0.47487685084342957 0.604768693447113 0.29841896891593933 0.5960784554481506 0.6000000238418579 0.6196078658103943
0.43152710795402527 0.5534501671791077 0.1723320186138153 0.18431372940540314 0.20000000298023224 0.19607843458652496
0.43374383449554443 0.5054476261138916 0.1671936810016632 0.2980392277240753 0.2862745225429535 0.25882354378700256
0.4635468125343323 0.5041844248771667 0.9889327883720398 0.4117647111415863 0.40392157435417175 0.3529411852359772
0.520443320274353 0.5307121276855469 0.003952569328248501 0.15294118225574493 0.16862745583057404 0.1725490242242813
0.42980295419692993 0.5326069593429565 0.9901185631752014 0.3843137323856354 0.37254902720451355 0.3450980484485626
0.41428571939468384 0.5125532746315002 0.29446640610694885 0.4588235318660736 0.47843137383461 0.4627451002597809
0.42290639877319336 0.6068214178085327 0.2968379557132721 0.6039215922355652 0.6039215922355652 0.6352941393852234
0.5115763545036316 0.5450813174247742 0.9901185631752014 0.364705890417099 0.364705890417099 0.3176470696926117
0.512561559677124 0.5783988833427429 0.0035573123022913933 0.5254902243614197 0.572549045085907 0.5568627715110779
0.370197057723999 0.5070266723632812 0.290909081697464 0.4313725531101227 0.4745098054409027 0.4431372582912445
0.5399014949798584 0.5065529942512512 0.9885375499725342 0.3843137323856354 0.37254902720451355 0.33725491166114807
0.4573891758918762 0.5090793967247009 0.2956521809101105 0.4941176474094391 0.5176470875740051 0.501960813999176
0.6012315154075623 0.5198168158531189 0.9901185631752014 0.3803921639919281 0.364705890417099 0.3294117748737335
0.492118239402771 0.5322911739349365 0.2972331941127777 0.5686274766921997 0.5843137502670288 0.5803921818733215
0.5027093887329102 0.5472919344902039 0.004347825888544321 0.3137255012989044 0.33725491166114807 0.3294117748737335
0.4514778256416321 0.5266066789627075 0.004743082914501429 0.43529412150382996 0.45098039507865906 0.3960784375667572
0.6135467886924744 0.6115584969520569 0.992094874382019 0.3294117748737335 0.33725491166114807 0.32549020648002625
0.4174876809120178 0.5777672529220581 0.2956521809101105 0.6039215922355652 0.6196078658103943 0.6549019813537598
0.3857142925262451 0.5062371492385864 0.2920948565006256 0.4313725531101227 0.47058823704719543 0.43921568989753723
0.5842364430427551 0.5177640914916992 0.9897233247756958 0.41960784792900085 0.4117647111415863 0.3607843220233917
0.3699507415294647 0.5761882066726685 0.18102766573429108 0.05098039284348488 0.05098039284348488 0.05098039284348488
0.39408865571022034 0.6281383037567139 0.2964426875114441 0.5803921818733215 0.6039215922355652 0.658823549747467
0.45862069725990295 0.5954523682594299 0.2976284623146057 0.6078431606292725 0.6078431606292725 0.6470588445663452
0.3970443308353424 0.5138165354728699 0.9901185631752014 0.38823530077934265 0.3803921639919281 0.3333333432674408
0.44310346245765686 0.4879204034805298 0.29367589950561523 0.501960813999176 0.5176470875740051 0.5215686559677124
0.3899014890193939 0.6199273467063904 0.007509881630539894 0.10196078568696976 0.08627451211214066 0.09019608050584793
0.4403941035270691 0.5682930946350098 0.9909090995788574 0.3450980484485626 0.33725491166114807 0.29019609093666077
0.615517258644104 0.6166114211082458 0.003952569328248501 0.062745101749897 0.05098039284348488 0.0235294122248888
0.5261083841323853 0.5141323208808899 0.9885375499725342 0.3960784375667572 0.4000000059604645 0.3450980484485626
0.5179802775382996 0.47860413789749146 0.2968379557132721 0.08235294371843338 0.0784313753247261 0.09803921729326248
0.4645320177078247 0.5392389297485352 0.005138339940458536 0.5058823823928833 0.5215686559677124 0.46666666865348816
0.42315271496772766 0.6084004640579224 0.991304337978363 0.32156863808631897 0.3176470696926117 0.2980392277240753
0.3972906470298767 0.47591978311538696 0.18656127154827118 0.019607843831181526 0.019607843831181526 0.019607843831181526
0.38374385237693787 0.4822359085083008 0.1881422996520996 0.10980392247438431 0.11372549086809158 0.12156862765550613
0.615517258644104 0.6262434720993042 0.2964426875114441 0.501960813999176 0.501960813999176 0.501960813999176
0.4645320177078247 0.49297332763671875 0.2956521809101105 0.5215686559677124 0.529411792755127 0.5254902243614197
0.44581282138824463 0.5542396903038025 0.2964426875114441 0.5686274766921997 0.5882353186607361 0.6039215922355652
0.379802942276001 0.5700299739837646 0.006719367578625679 0.3960784375667572 0.3960784375667572 0.35686275362968445
0.39852216839790344 0.5439760088920593 0.9909090995788574 0.3686274588108063 0.35686275362968445 0.32156863808631897
0.5541871786117554 0.5119217038154602 0.9889327883720398 0.4156862795352936 0.40784314274787903 0.35686275362968445
0.39137929677963257 0.5739775896072388 0.0063241105526685715 0.4274509847164154 0.41960784792900085 0.3686274588108063
0.3810344934463501 0.5525027513504028 0.29407113790512085 0.5490196347236633 0.5921568870544434 0.6078431606292725
0.5795566439628601 0.6009789705276489 0.991304337978363 0.35686275362968445 0.35686275362968445 0.32549020648002625
0.40640392899513245 0.5120795965194702 0.29407113790512085 0.4627451002597809 0.48235294222831726 0.45490196347236633
0.3965517282485962 0.6200852394104004 0.2960474193096161 0.6078431606292725 0.6235294342041016 0.6705882549285889
0.5401477813720703 0.5123953819274902 0.9885375499725342 0.4274509847164154 0.4117647111415863 0.364705890417099
0.4475369453430176 0.5037107467651367 0.29525691270828247 0.4941176474094391 0.5098039507865906 0.5058823823928833
0.47364532947540283 0.5362387299537659 0.2968379557132721 0.545098066329956 0.5686274766921997 0.5686274766921997
0.3694581389427185 0.5155534744262695 0.9905138611793518 0.3843137323856354 0.37254902720451355 0.33725491166114807
0.38620689511299133 0.546028733253479 0.15731225907802582 0.062745101749897 0.062745101749897 0.062745101749897
0.4160098433494568 0.6202431917190552 0.007905138656497002 0.027450980618596077 0.0470588244497776 0.0235294122248888
0.4399014711380005 0.5438181161880493 0.2960474193096161 0.529411792755127 0.5686274766921997 0.5647059082984924
0.475862056016922 0.5963997840881348 0.007905138656497002 0.3019607961177826 0.30980393290519714 0.2980392277240753
0.4411329925060272 0.627190887928009 0.00830039568245411 0.21176470816135406 0.21568627655506134 0.1921568661928177
0.48152709007263184 0.5465024709701538 0.2972331941127777 0.5764706134796143 0.5921568870544434 0.6039215922355652
0.4369458258152008 0.5262908339500427 0.9897233247756958 0.3803921639919281 0.37254902720451355 0.32549020648002625
0.4487684667110443 0.5755566358566284 0.005928853526711464 0.4627451002597809 0.47058823704719543 0.41960784792900085
0.44285714626312256 0.49581557512283325 0.18102766573429108 0.05882352963089943 0.05882352963089943 0.05098039284348488
0.5982758402824402 0.6172429919242859 0.992094874382019 0.35686275362968445 0.3529411852359772 0.3333333432674408
0.40221676230430603 0.5427127480506897 0.29486167430877686 0.5098039507865906 0.5490196347236633 0.545098066329956
0.5600985288619995 0.627032995223999 0.0031620552763342857 0.250980406999588 0.23137255012989044 0.21568627655506134
0.42635467648506165 0.5056055784225464 0.29446640610694885 0.47058823704719543 0.4941176474094391 0.47843137383461
0.38226601481437683 0.529133141040802 0.9909090995788574 0.364705890417099 0.3686274588108063 0.33725491166114807
0.4992610812187195 0.5103426575660706 0.004743082914501429 0.48235294222831726 0.5176470875740051 0.5058823823928833
0.39014777541160583 0.48665720224380493 0.29328063130378723 0.4627451002597809 0.4941176474094391 0.501960813999176
0.6024630665779114 0.5416074395179749 0.004347825888544321 0.16862745583057404 0.19607843458652496 0.16470588743686676
0.49458128213882446 0.5543975830078125 0.004743082914501429 0.40784314274787903 0.43529412150382996 0.40784314274787903
0.5413793325424194 0.6139270663261414 0.002766798483207822 0.49803921580314636 0.4627451002597809 0.4274509847164154
0.45911329984664917 0.6128216981887817 0.9909090995788574 0.34117648005485535 0.34117648005485535 0.30980393290519714
0.4238916337490082 0.610611081123352 0.991304337978363 0.3490196168422699 0.3333333432674408 0.32156863808631897
0.47783252596855164 0.6008210778236389 0.29841896891593933 0.6078431606292725 0.6078431606292725 0.6392157077789307
0.4083743989467621 0.6076109409332275 0.005533596966415644 0.12941177189350128 0.11764705926179886 0.09803921729326248
0.38793104887008667 0.48965734243392944 0.008695651777088642 0.29019609093666077 0.29019609093666077 0.250980406999588
0.37881773710250854 0.5499762892723083 0.29407113790512085 0.545098066329956 0.5882353186607361 0.6039215922355652
0.3802955746650696 0.5395547151565552 0.18537549674510956 0.1921568661928177 0.22745098173618317 0.2235294133424759
0.552955687046051 0.5376598834991455 0.9897233247756958 0.3960784375667572 0.38823530077934265 0.3294117748737335
0.5738916397094727 0.6194536685943604 0.0031620552763342857 0.15294118225574493 0.13725490868091583 0.125490203499794
0.43768471479415894 0.5114479660987854 0.9897233247756958 0.40392157435417175 0.3960784375667572 0.33725491166114807
0.5049260854721069 0.5273962020874023 0.9893280863761902 0.3686274588108063 0.3686274588108063 0.32156863808631897
0.41477832198143005 0.5520290732383728 0.1762845814228058 0.062745101749897 0.062745101749897 0.062745101749897
0.3721674978733063 0.5646613240242004 0.1932806372642517 0.11372549086809158 0.12156862765550613 0.11764705926179886
0.4162561595439911 0.5000789761543274 0.29328063130378723 0.4588235318660736 0.48235294222831726 0.46666666865348816
0.39827585220336914 0.5795041918754578 0.991304337978363 0.33725491166114807 0.3333333432674408 0.3137255012989044
0.4275861978530884 0.4776567220687866 0.9897233247756958 0.40392157435417175 0.40784314274787903 0.3529411852359772
0.5911329984664917 0.5490288734436035 0.0071146246045827866 0.08235294371843338 0.08235294371843338 0.08235294371843338
0.43004927039146423 0.5191852450370789 0.9897233247756958 0.4156862795352936 0.40784314274787903 0.3607843220233917
0.37167486548423767 0.5673456788063049 0.18932805955410004 0.07450980693101883 0.07450980693101883 0.07450980693101883
0.37438422441482544 0.4969208836555481 0.29169961810112 0.4431372582912445 0.4941176474094391 0.46666666865348816
0.5972906351089478 0.5256592631340027 0.2964426875114441 0.5882353186607361 0.6039215922355652 0.6000000238418579
0.49359604716300964 0.5067108869552612 0.2968379557132721 0.5372549295425415 0.545098066329956 0.5411764979362488
0.3741379380226135 0.5491868257522583 0.15415020287036896 0.054901961237192154 0.054901961237192154 0.054901961237192154
0.38694581389427185 0.47513025999069214 0.13952569663524628 0.3607843220233917 0.364705890417099 0.34117648005485535
0.48226600885391235 0.6132954359054565 0.29920947551727295 0.5960784554481506 0.5960784554481506 0.6274510025978088
0.3977832496166229 0.5376598834991455 0.1608695685863495 0.08627451211214066 0.08627451211214066 0.08627451211214066
0.6142857074737549 0.5419232845306396 0.2964426875114441 0.6392157077789307 0.6509804129600525 0.6705882549285889
0.4160098433494568 0.5963997840881348 0.991304337978363 0.3333333432674408 0.3294117748737335 0.30980393290519714
0.3721674978733063 0.5649771094322205 0.19051383435726166 0.07058823853731155 0.07058823853731155 0.07058823853731155
0.39556649327278137 0.5234485864639282 0.1608695685863495 0.13333334028720856 0.12156862765550613 0.10196078568696976
0.4650246202945709 0.5787146687507629 0.005928853526711464 0.5803921818733215 0.5921568870544434 0.5568627715110779
0.5908867120742798 0.5090793967247009 0.2968379557132721 0.5843137502670288 0.5882353186607361 0.5960784554481506
0.41477832198143005 0.5125532746315002 0.007905138656497002 0.0784313753247261 0.0784313753247261 0.07058823853731155
0.40763548016548157 0.546186625957489 0.17351779341697693 0.06666667014360428 0.06666667014360428 0.06666667014360428
0.40738916397094727 0.616137683391571 0.991304337978363 0.3294117748737335 0.3137255012989044 0.30980393290519714
0.4603448212146759 0.5032370090484619 0.003952569328248501 0.3843137323856354 0.41960784792900085 0.43921568989753723
0.5194581151008606 0.5703458189964294 0.9909090995788574 0.3490196168422699 0.3490196168422699 0.30980393290519714
0.45517241954803467 0.6224538087844849 0.00830039568245411 0.24313725531101227 0.25882354378700256 0.2549019753932953
0.4206896424293518 0.5387651920318604 0.1766798347234726 0.05882352963089943 0.05882352963089943 0.05882352963089943
0.37068966031074524 0.5954523682594299 0.29446640610694885 0.7019608020782471 0.729411780834198 0.7686274647712708
0.506157636642456 0.5821885466575623 0.2905138432979584 0.09019608050584793 0.09019608050584793 0.09019608050584793
0.42241379618644714 0.494394451379776 0.9893280863761902 0.4117647111415863 0.4156862795352936 0.3607843220233917
0.5472906231880188 0.6243486404418945 0.0031620552763342857 0.3960784375667572 0.3529411852359772 0.3450980484485626
0.4869458079338074 0.573503851890564 0.29802370071411133 0.6196078658103943 0.6392157077789307 0.6627451181411743
0.6130542159080505 0.5046581625938416 0.2968379557132721 0.6000000238418579 0.6196078658103943 0.6039215922355652
0.41009852290153503 0.6077688336372375 0.991304337978363 0.3294117748737335 0.3137255012989044 0.30980393290519714
0.5884236693382263 0.5820306539535522 0.29446640610694885 0.6549019813537598 0.6666666865348816 0.6941176652908325
0.6103448271751404 0.5019738078117371 0.2968379557132721 0.5843137502670288 0.6078431606292725 0.6000000238418579
0.5039408802986145 0.6178746223449707 0.29920947551727295 0.5921568870544434 0.5882353186607361 0.5803921818733215
0.5977832674980164 0.4825517237186432 0.9901185631752014 0.3176470696926117 0.3176470696926117 0.2862745225429535
0.413300484418869 0.6058740019798279 0.2964426875114441 0.6039215922355652 0.6235294342041016 0.6470588445663452
0.40615764260292053 0.5267645716667175 0.29486167430877686 0.4901960790157318 0.5098039507865906 0.4941176474094391
0.39137929677963257 0.62166428565979 0.007509881630539894 0.06666667014360428 0.05098039284348488 0.0470588244497776
0.4908866882324219 0.5772935152053833 0.9909090995788574 0.3294117748737335 0.3294117748737335 0.29019609093666077
0.6002463102340698 0.562292754650116 0.9905138611793518 0.3607843220233917 0.3607843220233917 0.3294117748737335
0.40197044610977173 0.4997631311416626 0.15415020287036896 0.4313725531101227 0.4431372582912445 0.4156862795352936
0.437438428401947 0.48065686225891113 0.29446640610694885 0.501960813999176 0.5254902243614197 0.5176470875740051
0.5812807679176331 0.535291314125061 0.006719367578625679 0.23529411852359772 0.2549019753932953 0.23137255012989044
0.3741379380226135 0.5783988833427429 0.0063241105526685715 0.3960784375667572 0.3803921639919281 0.33725491166114807
0.39532020688056946 0.5357650518417358 0.007509881630539894 0.20000000298023224 0.18431372940540314 0.14901961386203766
0.6056650280952454 0.5918205976486206 0.0071146246045827866 0.4941176474094391 0.5254902243614197 0.5372549295425415
0.5815271139144897 0.5831359624862671 0.0035573123022913933 0.2078431397676468 0.2235294133424759 0.22745098173618317
0.6076354384422302 0.4804989695549011 0.2976284623146057 0.5215686559677124 0.5411764979362488 0.5176470875740051
0.40665024518966675 0.49028897285461426 0.14743083715438843 0.3843137323856354 0.38823530077934265 0.364705890417099
0.38645321130752563 0.5728722810745239 0.991304337978363 0.3607843220233917 0.3607843220233917 0.3294117748737335
0.371921181678772 0.5509237051010132 0.29407113790512085 0.5647059082984924 0.6078431606292725 0.6235294342041016
0.5674876570701599 0.49565765261650085 0.9897233247756958 0.4000000059604645 0.3921568691730499 0.3450980484485626
0.41059112548828125 0.6117163896560669 0.005928853526711464 0.08235294371843338 0.0784313753247261 0.062745101749897
0.6103448271751404 0.5641875863075256 0.2964426875114441 0.6274510025978088 0.6470588445663452 0.6705882549285889
0.3938423693180084 0.5771356225013733 0.17430830001831055 0.0470588244497776 0.0470588244497776 0.0470588244497776
0.4325123131275177 0.4804989695549011 0.1723320186138153 0.24705882370471954 0.250980406999588 0.22745098173618317
0.4046798050403595 0.562450647354126 0.17430830001831055 0.05882352963089943 0.05882352963089943 0.05882352963089943
0.5275862216949463 0.5015000700950623 0.9881423115730286 0.4117647111415863 0.40392157435417175 0.35686275362968445
0.3928571343421936 0.5002368688583374 0.1762845814228058 0.6784313917160034 0.7176470756530762 0.7137255072593689
0.3736453056335449 0.5261329412460327 0.18102766573429108 0.30588236451148987 0.32549020648002625 0.33725491166114807
0.5399014949798584 0.5916627049446106 0.0035573123022913933 0.4588235318660736 0.4941176474094391 0.4745098054409027
0.5955665111541748 0.6121901273727417 0.9916995763778687 0.3529411852359772 0.35686275362968445 0.33725491166114807
0.5130541920661926 0.5692405104637146 0.2853755056858063 0.062745101749897 0.062745101749897 0.062745101749897
0.4233990013599396 0.5122374892234802 0.007905138656497002 0.13333334028720856 0.12156862765550613 0.0941176488995552
0.41477832198143005 0.5125532746315002 0.007905138656497002 0.0784313753247261 0.0784313753247261 0.07058823853731155
0.46157634258270264 0.5602400302886963 0.2968379557132721 0.6000000238418579 0.6117647290229797 0.6392157077789307
0.552955687046051 0.5376598834991455 0.9897233247756958 0.3960784375667572 0.38823530077934265 0.3294117748737335
0.4724137783050537 0.5971893072128296 0.9909090995788574 0.3529411852359772 0.35686275362968445 0.32549020648002625
0.44975370168685913 0.5869256258010864 0.2972331941127777 0.6117647290229797 0.6235294342041016 0.658823549747467
0.43103447556495667 0.5722406506538391 0.18142291903495789 0.05882352963089943 0.06666667014360428 0.062745101749897
0.5450738668441772 0.5177640914916992 0.003952569328248501 0.19607843458652496 0.21568627655506134 0.20000000298023224
0.379802942276001 0.5313437581062317 0.00830039568245411 0.24705882370471954 0.239215686917305 0.1882352977991104
0.3933497667312622 0.5485551953315735 0.17312252521514893 0.09019608050584793 0.09019608050584793 0.09019608050584793
0.3977832496166229 0.5270803570747375 0.29446640610694885 0.46666666865348816 0.5098039507865906 0.4941176474094391
0.3839901387691498 0.5177640914916992 0.9905138611793518 0.3607843220233917 0.3490196168422699 0.3137255012989044
0.39556649327278137 0.47544607520103455 0.9901185631752014 0.4156862795352936 0.40784314274787903 0.3607843220233917
0.5933497548103333 0.6177167296409607 0.992094874382019 0.3607843220233917 0.3294117748737335 0.3176470696926117
0.49408867955207825 0.6014527082443237 0.9909090995788574 0.3607843220233917 0.3607843220233917 0.3294117748737335
0.48645320534706116 0.5973471999168396 0.29881423711776733 0.6235294342041016 0.615686297416687 0.658823549747467
0.37931033968925476 0.5929259657859802 0.17035573720932007 0.10588235408067703 0.10980392247438431 0.11764705926179886
0.5088669657707214 0.5062371492385864 0.291304349899292 0.10196078568696976 0.10196078568696976 0.10980392247438431
0.4209359586238861 0.5714511275291443 0.005928853526711464 0.24313725531101227 0.239215686917305 0.2235294133424759
0.5142857432365417 0.48160430788993835 0.9889327883720398 0.2980392277240753 0.2980392277240753 0.250980406999588
0.4770936071872711 0.47860413789749146 0.007509881630539894 0.5490196347236633 0.5803921818733215 0.529411792755127
0.5465517044067383 0.6008210778236389 0.991304337978363 0.3686274588108063 0.3686274588108063 0.3294117748737335
0.5564039349555969 0.62119060754776 0.0031620552763342857 0.3490196168422699 0.3294117748737335 0.3137255012989044
0.44950738549232483 0.6036633253097534 0.2976284623146057 0.6000000238418579 0.6000000238418579 0.6313725709915161
0.38719213008880615 0.5483973026275635 0.9909090995788574 0.364705890417099 0.3529411852359772 0.3176470696926117
0.4554187059402466 0.5007105469703674 0.9889327883720398 0.4000000059604645 0.3921568691730499 0.3450980484485626
0.5315271019935608 0.6301910877227783 0.992094874382019 0.3607843220233917 0.3450980484485626 0.3333333432674408
0.432758629322052 0.6014527082443237 0.2968379557132721 0.5960784554481506 0.6078431606292725 0.6431372761726379
0.5903940796852112 0.6052423715591431 0.28458496928215027 0.12941177189350128 0.15294118225574493 0.15294118225574493
0.432758629322052 0.5245538949966431 0.29525691270828247 0.48627451062202454 0.5058823823928833 0.48235294222831726
0.4036945700645447 0.49565765261650085 0.9897233247756958 0.3803921639919281 0.37254902720451355 0.32549020648002625
0.43128079175949097 0.5097110271453857 0.007509881630539894 0.3294117748737335 0.33725491166114807 0.29411765933036804
0.40246304869651794 0.5027633309364319 0.17391304671764374 0.6235294342041016 0.6431372761726379 0.6549019813537598
0.4165024757385254 0.5703458189964294 0.1711462438106537 0.10196078568696976 0.10196078568696976 0.10196078568696976
0.5551724433898926 0.6099794507026672 0.0031620552763342857 0.42352941632270813 0.38823530077934265 0.3686274588108063
0.43374383449554443 0.48097267746925354 0.0071146246045827866 0.26274511218070984 0.2549019753932953 0.20392157137393951
0.5926108360290527 0.5466603636741638 0.2964426875114441 0.6627451181411743 0.6666666865348816 0.686274528503418
0.5825123190879822 0.5248697400093079 0.004743082914501429 0.18431372940540314 0.1921568661928177 0.1725490242242813
0.4177339971065521 0.6252960562705994 0.991304337978363 0.3019607961177826 0.29019609093666077 0.2705882489681244
0.6100985407829285 0.6019264459609985 0.2964426875114441 0.5921568870544434 0.5960784554481506 0.6039215922355652
0.49778324365615845 0.5986104607582092 0.9909090995788574 0.3529411852359772 0.3529411852359772 0.32156863808631897
0.3736453056335449 0.5520290732383728 0.9909090995788574 0.35686275362968445 0.35686275362968445 0.32549020648002625
0.3849753737449646 0.5029212236404419 0.00909090880304575 0.06666667014360428 0.062745101749897 0.054901961237192154
0.43103447556495667 0.6020843386650085 0.9909090995788574 0.34117648005485535 0.32156863808631897 0.30588236451148987
0.4605911374092102 0.5026053786277771 0.9889327883720398 0.4117647111415863 0.40392157435417175 0.3529411852359772
0.5076354742050171 0.6251381635665894 0.9916995763778687 0.32549020648002625 0.32156863808631897 0.3019607961177826
0.3975369334220886 0.5176061987876892 0.9901185631752014 0.3803921639919281 0.37254902720451355 0.32549020648002625
0.45886698365211487 0.6246644854545593 0.991304337978363 0.2666666805744171 0.2666666805744171 0.23529411852359772
0.45862069725990295 0.5153955221176147 0.004347825888544321 0.43921568989753723 0.46666666865348816 0.43921568989753723
0.5637931227684021 0.6305068731307983 0.992094874382019 0.32549020648002625 0.32156863808631897 0.3019607961177826
0.6115763783454895 0.4746565520763397 0.2976284623146057 0.49803921580314636 0.5176470875740051 0.501960813999176
0.373399019241333 0.5525027513504028 0.007509881630539894 0.26274511218070984 0.2549019753932953 0.20392157137393951
0.4719211757183075 0.4737091362476349 0.9893280863761902 0.3960784375667572 0.4000000059604645 0.3450980484485626
0.6044334769248962 0.47513025999069214 0.2976284623146057 0.49803921580314636 0.5176470875740051 0.501960813999176
0.515763521194458 0.4827096164226532 0.9889327883720398 0.33725491166114807 0.33725491166114807 0.29019609093666077
0.5815271139144897 0.5379756689071655 0.007509881630539894 0.23137255012989044 0.239215686917305 0.21960784494876862
0.38596057891845703 0.5485551953315735 0.15810276567935944 0.062745101749897 0.062745101749897 0.062745101749897
0.5805418491363525 0.5946629047393799 0.003952569328248501 0.0784313753247261 0.0941176488995552 0.09019608050584793
0.49729064106941223 0.49313122034072876 0.2964426875114441 0.5137255191802979 0.5176470875740051 0.49803921580314636
0.3852216601371765 0.5804516077041626 0.15968379378318787 0.03921568766236305 0.03921568766236305 0.03921568766236305
0.39532020688056946 0.5834517478942871 0.16403162479400635 0.03529411926865578 0.03529411926865578 0.03529411926865578
0.41083744168281555 0.5891362428665161 0.2956521809101105 0.6039215922355652 0.6313725709915161 0.6627451181411743
0.44211822748184204 0.4937628209590912 0.0071146246045827866 0.40392157435417175 0.3960784375667572 0.33725491166114807
0.5972906351089478 0.557239830493927 0.2964426875114441 0.6509804129600525 0.6745098233222961 0.6745098233222961
0.3894088566303253 0.5245538949966431 0.9905138611793518 0.35686275362968445 0.35686275362968445 0.30980393290519714
0.38251230120658875 0.5013421773910522 0.00909090880304575 0.2078431397676468 0.2078431397676468 0.16862745583057404
0.39532020688056946 0.5357650518417358 0.007509881630539894 0.20000000298023224 0.18431372940540314 0.14901961386203766
0.49704432487487793 0.5498183965682983 0.9901185631752014 0.3607843220233917 0.3490196168422699 0.3137255012989044
0.4573891758918762 0.5188694000244141 0.2960474193096161 0.5098039507865906 0.5254902243614197 0.5215686559677124
0.39926108717918396 0.5940312743186951 0.29525691270828247 0.6196078658103943 0.6549019813537598 0.6823529601097107
0.3802955746650696 0.47623559832572937 0.1928853690624237 0.0941176488995552 0.10196078568696976 0.09803921729326248
0.39507389068603516 0.5423969626426697 0.15810276567935944 0.0784313753247261 0.0784313753247261 0.0784313753247261
0.3726601004600525 0.6003473997116089 0.29446640610694885 0.6941176652908325 0.7019608020782471 0.7490196228027344
0.4194581210613251 0.499921053647995 0.9897233247756958 0.2705882489681244 0.26274511218070984 0.21176470816135406
0.4492610692977905 0.5024474859237671 0.9893280863761902 0.3764705955982208 0.3803921639919281 0.32549020648002625
0.3997536897659302 0.5864519476890564 0.0071146246045827866 0.3137255012989044 0.30588236451148987 0.25882354378700256
0.5935960412025452 0.5506079196929932 0.0071146246045827866 0.08235294371843338 0.08627451211214066 0.0941176488995552
0.4605911374092102 0.6031896471977234 0.29802370071411133 0.6039215922355652 0.6039215922355652 0.6431372761726379
0.4960591197013855 0.5915048122406006 0.29881423711776733 0.615686297416687 0.6117647290229797 0.6352941393852234
0.3980295658111572 0.5700299739837646 0.17430830001831055 0.05882352963089943 0.05882352963089943 0.05882352963089943
0.41034483909606934 0.5738196969032288 0.29525691270828247 0.6000000238418579 0.615686297416687 0.6509804129600525
0.3775862157344818 0.5155534744262695 0.008695651777088642 0.250980406999588 0.24313725531101227 0.1921568661928177
0.5810344815254211 0.562292754650116 0.0071146246045827866 0.24705882370471954 0.2549019753932953 0.24313725531101227
0.460098534822464 0.5847150087356567 0.005928853526711464 0.21176470816135406 0.21960784494876862 0.2078431397676468
0.47783252596855164 0.48697298765182495 0.2956521809101105 0.5137255191802979 0.5176470875740051 0.5333333611488342
0.40763548016548157 0.6279804110527039 0.0063241105526685715 0.27450981736183167 0.2666666805744171 0.21960784494876862
0.43817734718322754 0.5907152891159058 0.9909090995788574 0.34117648005485535 0.34117648005485535 0.30980393290519714
0.4416256248950958 0.49044686555862427 0.18893280625343323 0.05098039284348488 0.04313725605607033 0.0470588244497776
0.40344828367233276 0.5024474859237671 0.008695651777088642 0.21568627655506134 0.2078431397676468 0.16078431904315948
0.5147783160209656 0.573188066482544 0.9909090995788574 0.3960784375667572 0.3843137323856354 0.3490196168422699
0.4204433560371399 0.6181904077529907 0.007509881630539894 0.0313725508749485 0.05098039284348488 0.027450980618596077
0.43522167205810547 0.6072950959205627 0.9909090995788574 0.3529411852359772 0.3529411852359772 0.32156863808631897
0.5517241358757019 0.5716090202331543 0.9905138611793518 0.38823530077934265 0.3764705955982208 0.34117648005485535
0.4002462923526764 0.556924045085907 0.29486167430877686 0.5568627715110779 0.5960784554481506 0.6313725709915161
0.45394089818000793 0.573345959186554 0.9909090995788574 0.35686275362968445 0.3450980484485626 0.3176470696926117
0.4672413766384125 0.534817636013031 0.005533596966415644 0.5176470875740051 0.529411792755127 0.4941176474094391
0.43916255235671997 0.4771830141544342 0.18932805955410004 0.03921568766236305 0.03921568766236305 0.03921568766236305
0.4596059024333954 0.6098215579986572 0.9909090995788574 0.3450980484485626 0.34117648005485535 0.32156863808631897
0.47906404733657837 0.5744512677192688 0.29802370071411133 0.6196078658103943 0.6313725709915161 0.6666666865348816
0.5463054180145264 0.5062371492385864 0.9889327883720398 0.3764705955982208 0.3764705955982208 0.33725491166114807
0.39137929677963257 0.6166114211082458 0.2960474193096161 0.615686297416687 0.6392157077789307 0.6941176652908325
0.40246304869651794 0.5048160552978516 0.9897233247756958 0.4000000059604645 0.3921568691730499 0.3450980484485626
0.5024630427360535 0.5157113671302795 0.9885375499725342 0.40392157435417175 0.3960784375667572 0.33725491166114807
0.428078830242157 0.47623559832572937 0.29446640610694885 0.5098039507865906 0.5254902243614197 0.529411792755127
0.42216747999191284 0.5040265321731567 0.16403162479400635 0.48627451062202454 0.4901960790157318 0.46666666865348816
0.3770935833454132 0.5087636113166809 0.00909090880304575 0.14509804546833038 0.14509804546833038 0.11372549086809158
0.40566501021385193 0.5362387299537659 0.17312252521514893 0.05882352963089943 0.05882352963089943 0.05882352963089943
0.6125615835189819 0.48760461807250977 0.005928853526711464 0.21960784494876862 0.22745098173618317 0.21568627655506134
0.43916255235671997 0.5496605038642883 0.17865613102912903 0.23137255012989044 0.24705882370471954 0.250980406999588
0.3963054120540619 0.48160430788993835 0.18616600334644318 0.027450980618596077 0.027450980618596077 0.027450980618596077
0.3773398995399475 0.5605558156967163 0.29407113790512085 0.5960784554481506 0.6392157077789307 0.6470588445663452
0.4480295479297638 0.5438181161880493 0.2964426875114441 0.5372549295425415 0.5764706134796143 0.572549045085907
0.44187191128730774 0.5592926144599915 0.9909090995788574 0.3686274588108063 0.35686275362968445 0.3294117748737335
0.5761083960533142 0.5245538949966431 0.9893280863761902 0.3921568691730499 0.3843137323856354 0.3333333432674408
0.37438422441482544 0.499921053647995 0.24664030969142914 0.6470588445663452 0.6745098233222961 0.6431372761726379
0.37438422441482544 0.5550292134284973 0.17509882152080536 0.0941176488995552 0.0941176488995552 0.0941176488995552
0.38201969861984253 0.49549975991249084 0.14150197803974152 0.4000000059604645 0.40392157435417175 0.3803921639919281
0.5128079056739807 0.6046107411384583 0.003952569328248501 0.46666666865348816 0.48627451062202454 0.47058823704719543
0.5246305465698242 0.5588188767433167 0.9905138611793518 0.3686274588108063 0.3686274588108063 0.32156863808631897
0.428078830242157 0.5682930946350098 0.18063241243362427 0.06666667014360428 0.06666667014360428 0.05882352963089943
0.3980295658111572 0.5525027513504028 0.9909090995788574 0.3686274588108063 0.3686274588108063 0.3294117748737335
0.4401477873325348 0.5180798768997192 0.0071146246045827866 0.33725491166114807 0.3764705955982208 0.37254902720451355
0.5049260854721069 0.48444655537605286 0.9889327883720398 0.32156863808631897 0.3294117748737335 0.2862745225429535
0.370197057723999 0.6091899275779724 0.008695651777088642 0.07058823853731155 0.0784313753247261 0.07450980693101883
0.38300493359565735 0.5285015106201172 0.1660079061985016 0.0470588244497776 0.05098039284348488 0.05882352963089943
0.5866994857788086 0.5659245252609253 0.2861660122871399 0.13725490868091583 0.15294118225574493 0.16470588743686676
0.4317733943462372 0.5521869659423828 0.2960474193096161 0.5647059082984924 0.5764706134796143 0.5960784554481506
0.4642857015132904 0.5804516077041626 0.9909090995788574 0.37254902720451355 0.3607843220233917 0.3333333432674408
0.4293103516101837 0.6009789705276489 0.9909090995788574 0.3529411852359772 0.3333333432674408 0.30980393290519714
0.4078817665576935 0.5615032315254211 0.9909090995788574 0.33725491166114807 0.33725491166114807 0.30588236451148987
0.4167487621307373 0.5226590633392334 0.9901185631752014 0.3921568691730499 0.3843137323856354 0.3333333432674408
0.4876847267150879 0.476077675819397 0.004347825888544321 0.49803921580314636 0.5372549295425415 0.5411764979362488
0.4674876928329468 0.5959261059761047 0.9909090995788574 0.35686275362968445 0.35686275362968445 0.32549020648002625
0.48965516686439514 0.5465024709701538 0.9901185631752014 0.3490196168422699 0.33725491166114807 0.3019607961177826
0.3975369334220886 0.5423969626426697 0.29486167430877686 0.501960813999176 0.545098066329956 0.529411792755127
0.3891625702381134 0.5780830383300781 0.17391304671764374 0.05882352963089943 0.05882352963089943 0.05882352963089943
0.39605912566185 0.6177167296409607 0.2960474193096161 0.6117647290229797 0.6196078658103943 0.6705882549285889
0.4130541980266571 0.5630822777748108 0.1770751029253006 0.05098039284348488 0.05098039284348488 0.05098039284348488
0.45418718457221985 0.6008210778236389 0.007905138656497002 0.23137255012989044 0.23529411852359772 0.21176470816135406
0.37832513451576233 0.5575556755065918 0.0071146246045827866 0.2862745225429535 0.27843138575553894 0.22745098173618317
