0.13201969861984253 0.9207326769828796 0.2905138432979584 0.25882354378700256 0.2823529541492462 0.27450981736183167
0.17216749489307404 0.9352597594261169 0.28260868787765503 0.09019608050584793 0.09019608050584793 0.08235294371843338
0.15640394389629364 0.7906205654144287 0.00830039568245411 0.5686274766921997 0.572549045085907 0.501960813999176
0.2502463161945343 0.9347860217094421 0.3581027686595917 0.11372549086809158 0.12156862765550613 0.11764705926179886
0.31921181082725525 0.941102147102356 0.9893280863761902 0.4470588266849518 0.4313725531101227 0.41960784792900085
0.317241370677948 0.8826780319213867 0.00909090880304575 0.6666666865348816 0.6705882549285889 0.615686297416687
0.30344828963279724 0.8023054003715515 0.009486165829002857 0.5686274766921997 0.5647059082984924 0.48235294222831726
0.17758621275424957 0.9046265482902527 0.3525691628456116 0.1568627506494522 0.16470588743686676 0.15294118225574493
0.15812808275222778 0.9395231604576111 0.37826088070869446 0.572549045085907 0.572549045085907 0.5411764979362488
0.17783251404762268 0.8261487483978271 0.9897233247756958 0.38823530077934265 0.38823530077934265 0.34117648005485535
0.13546797633171082 0.821253776550293 0.009486165829002857 0.4745098054409027 0.4745098054409027 0.43529412150382996
0.1347290575504303 0.8556765913963318 0.18102766573429108 0.21568627655506134 0.21960784494876862 0.1882352977991104
0.13300491869449615 0.8569398522377014 0.9893280863761902 0.3921568691730499 0.3960784375667572 0.3333333432674408
0.22487685084342957 0.9291015267372131 0.343873530626297 0.18039216101169586 0.18039216101169586 0.1725490242242813
0.26748767495155334 0.8570977449417114 0.9909090995788574 0.3529411852359772 0.3450980484485626 0.29411765933036804
0.1551724076271057 0.8506237268447876 0.9893280863761902 0.37254902720451355 0.35686275362968445 0.30980393290519714
0.3342364430427551 0.8559924364089966 0.008695651777088642 0.6470588445663452 0.6431372761726379 0.5607843399047852
0.3495073914527893 0.8953102827072144 0.008695651777088642 0.686274528503418 0.6823529601097107 0.6117647290229797
0.22044335305690765 0.8896257877349854 0.009486165829002857 0.5960784554481506 0.5764706134796143 0.501960813999176
0.16551724076271057 0.8229906558990479 0.9897233247756958 0.40392157435417175 0.40784314274787903 0.3529411852359772
0.15320196747779846 0.8402020931243896 0.009881422854959965 0.5607843399047852 0.5686274766921997 0.48235294222831726
0.18029557168483734 0.9314700961112976 0.03754940629005432 0.08627451211214066 0.0941176488995552 0.08235294371843338
0.3448275923728943 0.9065213799476624 0.9897233247756958 0.4431372582912445 0.43921568989753723 0.41960784792900085
0.3261083662509918 0.9306805729866028 0.008695651777088642 0.5764706134796143 0.5803921818733215 0.5176470875740051
0.18448275327682495 0.804989755153656 0.9928853511810303 0.8784313797950745 0.8784313797950745 0.9098039269447327
0.237931028008461 0.9148902297019958 0.009486165829002857 0.615686297416687 0.6039215922355652 0.5372549295425415
0.1785714328289032 0.9145744442939758 0.027272727340459824 0.2862745225429535 0.2705882489681244 0.2235294133424759
0.14507389068603516 0.826780378818512 0.009486165829002857 0.5921568870544434 0.5843137502670288 0.5333333611488342
0.1426108330488205 0.9144165515899658 0.36245059967041016 0.32549020648002625 0.3333333432674408 0.3137255012989044
0.12389162927865982 0.885994017124176 0.17905138432979584 0.1725490242242813 0.1764705926179886 0.18431372940540314
0.23694580793380737 0.805621325969696 0.00830039568245411 0.5098039507865906 0.5058823823928833 0.4274509847164154
0.3371921181678772 0.9456813335418701 0.007905138656497002 0.48235294222831726 0.47058823704719543 0.43529412150382996
0.27512314915657043 0.9335228204727173 0.00909090880304575 0.6196078658103943 0.6039215922355652 0.5607843399047852
0.16576354205608368 0.9444181323051453 0.9893280863761902 0.4313725531101227 0.4274509847164154 0.35686275362968445
0.18842364847660065 0.8512553572654724 0.009881422854959965 0.5137255191802979 0.5333333611488342 0.45490196347236633
0.13694581389427185 0.9055739641189575 0.9897233247756958 0.4274509847164154 0.41960784792900085 0.3686274588108063
0.35862070322036743 0.8893099427223206 0.008695651777088642 0.545098066329956 0.545098066329956 0.49803921580314636
0.17536945641040802 0.9052581787109375 0.12924900650978088 0.125490203499794 0.125490203499794 0.11764705926179886
0.22315271198749542 0.8983104228973389 0.9901185631752014 0.42352941632270813 0.4156862795352936 0.3686274588108063
0.18399015069007874 0.8089373111724854 0.992094874382019 0.8588235378265381 0.8705882430076599 0.8901960849761963
0.3369458019733429 0.91899573802948 0.008695651777088642 0.5960784554481506 0.5803921818733215 0.5372549295425415
0.32044336199760437 0.8258329629898071 0.991304337978363 0.364705890417099 0.3607843220233917 0.34117648005485535
0.12487684935331345 0.9399968385696411 0.072727270424366 0.2666666805744171 0.27450981736183167 0.26274511218070984
0.1465517282485962 0.924522340297699 0.018972331658005714 0.08627451211214066 0.08627451211214066 0.08627451211214066
0.2258620709180832 0.8619927167892456 0.009486165829002857 0.5529412031173706 0.5568627715110779 0.48627451062202454
0.13743841648101807 0.8138322830200195 0.9909090995788574 0.38823530077934265 0.3764705955982208 0.3490196168422699
0.3615763485431671 0.9167851209640503 0.007905138656497002 0.45490196347236633 0.4588235318660736 0.40392157435417175
0.18842364847660065 0.9399968385696411 0.00909090880304575 0.5137255191802979 0.48235294222831726 0.4000000059604645
0.12931033968925476 0.9014685153961182 0.24822133779525757 0.3176470696926117 0.3490196168422699 0.30588236451148987
0.16748768091201782 0.8976788520812988 0.9901185631752014 0.4274509847164154 0.41960784792900085 0.3686274588108063
0.15665024518966675 0.9362071752548218 0.9897233247756958 0.4274509847164154 0.4156862795352936 0.35686275362968445
0.2504926025867462 0.8902573585510254 0.9901185631752014 0.41960784792900085 0.40784314274787903 0.3803921639919281
0.3266009986400604 0.7931470274925232 0.9909090995788574 0.43921568989753723 0.4313725531101227 0.4431372582912445
0.25123152136802673 0.8896257877349854 0.009486165829002857 0.6392157077789307 0.6313725709915161 0.5490196347236633
0.13226601481437683 0.9164692759513855 0.29169961810112 0.2823529541492462 0.3176470696926117 0.3137255012989044
0.3103448152542114 0.9339964985847473 0.008695651777088642 0.5215686559677124 0.5098039507865906 0.48235294222831726
0.24704433977603912 0.941102147102356 0.3533596694469452 0.1882352977991104 0.1882352977991104 0.1882352977991104
0.3300492465496063 0.8938891291618347 0.9901185631752014 0.4274509847164154 0.42352941632270813 0.40784314274787903
0.285221666097641 0.9155218601226807 0.9897233247756958 0.4313725531101227 0.4274509847164154 0.4117647111415863
0.3536945879459381 0.8850466012954712 0.008695651777088642 0.529411792755127 0.5215686559677124 0.4745098054409027
0.22290641069412231 0.8642033934593201 0.9905138611793518 0.37254902720451355 0.3764705955982208 0.30588236451148987
0.31847289204597473 0.8828359246253967 0.00909090880304575 0.5960784554481506 0.6000000238418579 0.545098066329956
0.34778323769569397 0.9101531505584717 0.9897233247756958 0.4274509847164154 0.42352941632270813 0.40392157435417175
0.21551723778247833 0.8809410929679871 0.010276679880917072 0.5254902243614197 0.5215686559677124 0.43921568989753723
0.26748767495155334 0.8223590850830078 0.9909090995788574 0.3607843220233917 0.364705890417099 0.3450980484485626
0.3022167384624481 0.815885066986084 0.009486165829002857 0.47058823704719543 0.47843137383461 0.3921568691730499
0.3103448152542114 0.8994157314300537 0.9901185631752014 0.40392157435417175 0.4000000059604645 0.3843137323856354
0.2066502422094345 0.8845728635787964 0.9901185631752014 0.4117647111415863 0.40392157435417175 0.3529411852359772
0.1544335037469864 0.8667298555374146 0.9897233247756958 0.40392157435417175 0.3960784375667572 0.3490196168422699
0.29605910181999207 0.8670456409454346 0.00909090880304575 0.6392157077789307 0.6313725709915161 0.5843137502670288
0.1751231551170349 0.9063634872436523 0.2446640282869339 0.11764705926179886 0.125490203499794 0.11372549086809158
0.36206895112991333 0.9196273684501648 0.007905138656497002 0.5764706134796143 0.572549045085907 0.501960813999176
0.143349751830101 0.902258038520813 0.9897233247756958 0.4156862795352936 0.40784314274787903 0.3607843220233917
0.2571428716182709 0.8060950636863708 0.008695651777088642 0.46666666865348816 0.4627451002597809 0.3803921639919281
0.12561576068401337 0.8138322830200195 0.9901185631752014 0.3803921639919281 0.3803921639919281 0.3333333432674408
0.15615764260292053 0.9035212397575378 0.2766798436641693 0.16862745583057404 0.1764705926179886 0.16470588743686676
0.2849753797054291 0.9112584590911865 0.00909090880304575 0.6392157077789307 0.6392157077789307 0.6078431606292725
0.1948275864124298 0.907784640789032 0.3592885434627533 0.18039216101169586 0.18039216101169586 0.1725490242242813
0.19605910778045654 0.924838125705719 0.365612655878067 0.47843137383461 0.4901960790157318 0.5176470875740051
0.1623152643442154 0.9401547312736511 0.3762845993041992 0.3176470696926117 0.33725491166114807 0.3490196168422699
0.17290639877319336 0.9013106226921082 0.038339920341968536 0.4941176474094391 0.48235294222831726 0.40784314274787903
0.22931034862995148 0.8514132499694824 0.9905138611793518 0.3921568691730499 0.3843137323856354 0.3333333432674408
0.2746305465698242 0.805463433265686 0.00909090880304575 0.47843137383461 0.4745098054409027 0.3921568691730499
0.23694580793380737 0.8662561178207397 0.9905138611793518 0.3960784375667572 0.38823530077934265 0.34117648005485535
0.3135468065738678 0.9212063550949097 0.9897233247756958 0.47058823704719543 0.46666666865348816 0.45098039507865906
0.20812807977199554 0.8370440602302551 0.00909090880304575 0.529411792755127 0.5411764979362488 0.46666666865348816
0.3027093708515167 0.8190430998802185 0.009486165829002857 0.6392157077789307 0.6196078658103943 0.5333333611488342
0.22290641069412231 0.9177325367927551 0.343478262424469 0.18039216101169586 0.18039216101169586 0.1725490242242813
0.29507389664649963 0.8318332433700562 0.009486165829002857 0.5843137502670288 0.5803921818733215 0.501960813999176
0.3054187297821045 0.9458392262458801 0.008695651777088642 0.5647059082984924 0.5568627715110779 0.5098039507865906
0.23694580793380737 0.805621325969696 0.00830039568245411 0.5098039507865906 0.5058823823928833 0.4274509847164154
0.35566502809524536 0.8585188984870911 0.008695651777088642 0.6313725709915161 0.6352941393852234 0.5647059082984924
0.1862068921327591 0.91883784532547 0.32529643177986145 0.16862745583057404 0.16862745583057404 0.16078431904315948
0.12339901179075241 0.8155692219734192 0.009486165829002857 0.3843137323856354 0.37254902720451355 0.3450980484485626
0.3280788064002991 0.9178904294967651 0.9897233247756958 0.4627451002597809 0.4470588266849518 0.4431372582912445
0.16896551847457886 0.9365229606628418 0.07470355927944183 0.2235294133424759 0.23137255012989044 0.21960784494876862
0.26379311084747314 0.7970945835113525 0.9924901127815247 0.9058823585510254 0.9098039269447327 0.9254902005195618
0.24926108121871948 0.8319911360740662 0.008695651777088642 0.6666666865348816 0.6549019813537598 0.5803921818733215
0.35394087433815 0.9339964985847473 0.9893280863761902 0.4588235318660736 0.4431372582912445 0.43921568989753723
0.13990147411823273 0.9126796126365662 0.2924901247024536 0.25882354378700256 0.29411765933036804 0.29019609093666077
0.1344827562570572 0.9090478420257568 0.012252964079380035 0.364705890417099 0.364705890417099 0.32549020648002625
0.14458128809928894 0.8736775517463684 0.9897233247756958 0.3490196168422699 0.3450980484485626 0.27450981736183167
0.1948275864124298 0.7918837666511536 0.9936758875846863 0.9058823585510254 0.9176470637321472 0.9372549057006836
0.33965516090393066 0.8618348240852356 0.9905138611793518 0.3450980484485626 0.3490196168422699 0.32549020648002625
0.24532020092010498 0.799463152885437 0.008695651777088642 0.529411792755127 0.5215686559677124 0.43921568989753723
0.26034483313560486 0.9087320566177368 0.9897233247756958 0.4431372582912445 0.4313725531101227 0.40392157435417175
0.17758621275424957 0.913153350353241 0.03478260710835457 0.08627451211214066 0.08627451211214066 0.08627451211214066
0.32783252000808716 0.8935733437538147 0.9901185631752014 0.41960784792900085 0.4156862795352936 0.4000000059604645
0.25270935893058777 0.9316279888153076 0.9897233247756958 0.4745098054409027 0.4588235318660736 0.42352941632270813
0.18965516984462738 0.9461550712585449 0.3292490243911743 0.16862745583057404 0.16862745583057404 0.16078431904315948
0.2886699438095093 0.8760461211204529 0.9905138611793518 0.3843137323856354 0.3843137323856354 0.3450980484485626
0.21773399412631989 0.8462024331092834 0.00909090880304575 0.6313725709915161 0.6274510025978088 0.5568627715110779
0.14482758939266205 0.9212063550949097 0.36205533146858215 0.4117647111415863 0.43529412150382996 0.41960784792900085
0.2655172348022461 0.9392073154449463 0.00909090880304575 0.5254902243614197 0.5176470875740051 0.4588235318660736
0.17610837519168854 0.9122059345245361 0.030434781685471535 0.2666666805744171 0.2705882489681244 0.21568627655506134
0.17216749489307404 0.9038370251655579 0.09209486097097397 0.2549019753932953 0.25882354378700256 0.22745098173618317
0.2896551787853241 0.8539396524429321 0.008695651777088642 0.6549019813537598 0.6666666865348816 0.5921568870544434
0.3376847207546234 0.8872572183609009 0.9901185631752014 0.43529412150382996 0.4313725531101227 0.4117647111415863
0.15640394389629364 0.8353071212768555 0.9893280863761902 0.38823530077934265 0.3803921639919281 0.3333333432674408
0.3105911314487457 0.8930996656417847 0.00909090880304575 0.5921568870544434 0.5803921818733215 0.5215686559677124
0.1748768538236618 0.9238907098770142 0.9897233247756958 0.43529412150382996 0.4274509847164154 0.3764705955982208
0.3608374297618866 0.8809410929679871 0.9901185631752014 0.43529412150382996 0.4313725531101227 0.4117647111415863
0.28842365741729736 0.886309802532196 0.9901185631752014 0.42352941632270813 0.42352941632270813 0.3921568691730499
0.26009851694107056 0.9098373651504517 0.9897233247756958 0.42352941632270813 0.4117647111415863 0.3843137323856354
0.3694581389427185 0.9062055945396423 0.007905138656497002 0.5411764979362488 0.5254902243614197 0.47843137383461
0.36280786991119385 0.832938551902771 0.9909090995788574 0.3333333432674408 0.33725491166114807 0.3137255012989044
0.26699507236480713 0.8959419131278992 0.00909090880304575 0.5568627715110779 0.5490196347236633 0.49803921580314636
0.3322660028934479 0.8608874082565308 0.9905138611793518 0.35686275362968445 0.35686275362968445 0.32549020648002625
0.2376847267150879 0.9158377051353455 0.009486165829002857 0.6313725709915161 0.6196078658103943 0.5529412031173706
0.23719212412834167 0.9210484623908997 0.3501976430416107 0.18431372940540314 0.18431372940540314 0.1764705926179886
0.2463054209947586 0.8765197992324829 0.9905138611793518 0.3529411852359772 0.34117648005485535 0.30588236451148987
0.34655171632766724 0.9407863616943359 0.007905138656497002 0.45098039507865906 0.4431372582912445 0.3843137323856354
0.2827586233615875 0.8730459213256836 0.00909090880304575 0.6745098233222961 0.6666666865348816 0.615686297416687
0.13226601481437683 0.7899889349937439 0.008695651777088642 0.5176470875740051 0.5137255191802979 0.43529412150382996
0.23128078877925873 0.9396810531616211 0.34664031863212585 0.18431372940540314 0.18431372940540314 0.1764705926179886
0.17660097777843475 0.9011526703834534 0.043478261679410934 0.5529412031173706 0.5490196347236633 0.47058823704719543
0.126600980758667 0.8989420533180237 0.020948616787791252 0.42352941632270813 0.42352941632270813 0.3843137323856354
0.13177339732646942 0.9224696159362793 0.9897233247756958 0.42352941632270813 0.40784314274787903 0.3607843220233917
0.20862068235874176 0.8354650139808655 0.00909090880304575 0.5607843399047852 0.572549045085907 0.5058823823928833
0.3285714387893677 0.9281541109085083 0.008695651777088642 0.572549045085907 0.5764706134796143 0.5215686559677124
0.27955666184425354 0.8935733437538147 0.9901185631752014 0.4274509847164154 0.4117647111415863 0.4000000059604645
0.16945812106132507 0.902258038520813 0.09288537502288818 0.25882354378700256 0.25882354378700256 0.21960784494876862
0.20024630427360535 0.8747828602790833 0.010276679880917072 0.5960784554481506 0.6078431606292725 0.5411764979362488
0.20123152434825897 0.7975683212280273 0.9936758875846863 0.8980392217636108 0.9137254953384399 0.9254902005195618
0.185960590839386 0.8589925765991211 0.009881422854959965 0.5803921818733215 0.572549045085907 0.4901960790157318
0.29113301634788513 0.8480972647666931 0.9909090995788574 0.38823530077934265 0.38823530077934265 0.35686275362968445
0.25935959815979004 0.8266224265098572 0.9909090995788574 0.3843137323856354 0.38823530077934265 0.35686275362968445
0.237931028008461 0.9235749244689941 0.9897233247756958 0.364705890417099 0.3529411852359772 0.3176470696926117
0.2665024697780609 0.8207800388336182 0.008695651777088642 0.6549019813537598 0.6313725709915161 0.5686274766921997
0.16428571939468384 0.9444181323051453 0.07509881258010864 0.239215686917305 0.24705882370471954 0.23529411852359772
0.1825123131275177 0.9115743041038513 0.365612655878067 0.3686274588108063 0.3843137323856354 0.3803921639919281
0.14778324961662292 0.9295752644538879 0.9897233247756958 0.4470588266849518 0.4313725531101227 0.3843137323856354
0.17339901626110077 0.9379441142082214 0.02648221328854561 0.0941176488995552 0.0941176488995552 0.08627451211214066
0.36354678869247437 0.810358464717865 0.00909090880304575 0.43921568989753723 0.41960784792900085 0.34117648005485535
0.1822660118341446 0.8291488885879517 0.9897233247756958 0.3490196168422699 0.3529411852359772 0.2980392277240753
0.18719211220741272 0.8013579845428467 0.00830039568245411 0.5803921818733215 0.5686274766921997 0.501960813999176
0.253201961517334 0.8932575583457947 0.9901185631752014 0.4274509847164154 0.4156862795352936 0.38823530077934265
0.22733990848064423 0.9172587990760803 0.009486165829002857 0.6117647290229797 0.5921568870544434 0.5176470875740051
0.26847290992736816 0.8686246871948242 0.00909090880304575 0.658823549747467 0.6470588445663452 0.5882353186607361
0.30812808871269226 0.8798357844352722 0.9905138611793518 0.38823530077934265 0.3843137323856354 0.364705890417099
0.205911323428154 0.8965734839439392 0.009486165829002857 0.5764706134796143 0.5843137502670288 0.49803921580314636
0.2460591197013855 0.8133586049079895 0.9916995763778687 0.9098039269447327 0.9137254953384399 0.9215686321258545
0.1302955597639084 0.7993052005767822 0.9901185631752014 0.3921568691730499 0.40392157435417175 0.33725491166114807
0.25541871786117554 0.8672035336494446 0.00909090880304575 0.5764706134796143 0.5843137502670288 0.501960813999176
0.2613300383090973 0.805305540561676 0.9924901127815247 0.8823529481887817 0.886274516582489 0.9019607901573181
0.3142857253551483 0.9399968385696411 0.008695651777088642 0.5137255191802979 0.5137255191802979 0.46666666865348816
0.35837438702583313 0.8822043538093567 0.9901185631752014 0.42352941632270813 0.41960784792900085 0.40392157435417175
0.23201970756053925 0.860255777835846 0.9905138611793518 0.40784314274787903 0.4000000059604645 0.34117648005485535
0.21995073556900024 0.8774672150611877 0.9905138611793518 0.4000000059604645 0.3921568691730499 0.3450980484485626
0.17167487740516663 0.9074687957763672 0.08537549525499344 0.10588235408067703 0.10588235408067703 0.09803921729326248
0.16798029839992523 0.9019421935081482 0.02964426949620247 0.529411792755127 0.5333333611488342 0.47843137383461
0.16354680061340332 0.9420495629310608 0.2549407184123993 0.07450980693101883 0.07450980693101883 0.06666667014360428
0.18078817427158356 0.9273645877838135 0.03754940629005432 0.09019608050584793 0.09019608050584793 0.09019608050584793
0.23940886557102203 0.8228327631950378 0.9905138611793518 0.40392157435417175 0.40784314274787903 0.38823530077934265
0.1746305376291275 0.9450497627258301 0.3241106867790222 0.16078431904315948 0.16078431904315948 0.15294118225574493
0.16527093946933746 0.8809410929679871 0.9897233247756958 0.4000000059604645 0.3960784375667572 0.32549020648002625
0.17684729397296906 0.9076266884803772 0.29328063130378723 0.1411764770746231 0.13725490868091583 0.12941177189350128
0.21970443427562714 0.7926732897758484 0.9932806491851807 0.9529411792755127 0.95686274766922 0.9725490212440491
0.17906403541564941 0.8596242070198059 0.9897233247756958 0.40392157435417175 0.3960784375667572 0.3450980484485626
0.30369457602500916 0.9172587990760803 0.9897233247756958 0.43529412150382996 0.42352941632270813 0.40392157435417175
0.2628078758716583 0.816358745098114 0.9909090995788574 0.8078431487083435 0.8274509906768799 0.8392156958580017
0.17339901626110077 0.9047844409942627 0.27391305565834045 0.1764705926179886 0.18431372940540314 0.18039216101169586
0.23743842542171478 0.869572103023529 0.9905138611793518 0.41960784792900085 0.40392157435417175 0.35686275362968445
0.1899014711380005 0.8124111890792847 0.9916995763778687 0.8705882430076599 0.886274516582489 0.9215686321258545
0.27586206793785095 0.9150481820106506 0.00909090880304575 0.6784313917160034 0.6666666865348816 0.5921568870544434
0.12906403839588165 0.8392546772956848 0.18339921534061432 0.3176470696926117 0.32549020648002625 0.32156863808631897
0.1310344785451889 0.9112584590911865 0.07470355927944183 0.05882352963089943 0.05882352963089943 0.05098039284348488
0.3642857074737549 0.8558345437049866 0.9905138611793518 0.35686275362968445 0.3529411852359772 0.3333333432674408
0.3056650161743164 0.815885066986084 0.009486165829002857 0.43529412150382996 0.43529412150382996 0.34117648005485535
0.24039408564567566 0.8250434398651123 0.9905138611793518 0.40784314274787903 0.4117647111415863 0.38823530077934265
0.18891625106334686 0.8403600454330444 0.009486165829002857 0.5254902243614197 0.5137255191802979 0.47843137383461
0.22832512855529785 0.8282014727592468 0.9905138611793518 0.3843137323856354 0.3921568691730499 0.3490196168422699
0.3416256010532379 0.9444181323051453 0.9893280863761902 0.45098039507865906 0.43529412150382996 0.42352941632270813
0.1748768538236618 0.9057318568229675 0.17786560952663422 0.125490203499794 0.125490203499794 0.11764705926179886
0.143349751830101 0.9268909096717834 0.2972331941127777 0.1411764770746231 0.14901961386203766 0.13725490868091583
0.1864532083272934 0.7964629530906677 0.9936758875846863 0.8901960849761963 0.9019607901573181 0.9215686321258545
0.2665024697780609 0.8154113292694092 0.991304337978363 0.8588235378265381 0.8784313797950745 0.8901960849761963
0.12512315809726715 0.9283120036125183 0.3011857569217682 0.1725490242242813 0.18039216101169586 0.16862745583057404
0.1982758641242981 0.9363650679588318 0.9893280863761902 0.43529412150382996 0.4274509847164154 0.3686274588108063
0.36625614762306213 0.9325754046440125 0.9893280863761902 0.45098039507865906 0.4470588266849518 0.4274509847164154
0.30788177251815796 0.8875730037689209 0.00909090880304575 0.5843137502670288 0.5843137502670288 0.545098066329956
0.22684729099273682 0.9420495629310608 0.9893280863761902 0.41960784792900085 0.40392157435417175 0.35686275362968445
0.254679799079895 0.9178904294967651 0.9897233247756958 0.43529412150382996 0.42352941632270813 0.3960784375667572
0.14950738847255707 0.9390494227409363 0.9897233247756958 0.4313725531101227 0.42352941632270813 0.364705890417099
0.2706896662712097 0.8809410929679871 0.00909090880304575 0.5960784554481506 0.5803921818733215 0.5372549295425415
0.17980295419692993 0.9431549310684204 0.32569169998168945 0.16470588743686676 0.16470588743686676 0.1568627506494522
0.321921169757843 0.8375177383422852 0.9909090995788574 0.3843137323856354 0.37254902720451355 0.3529411852359772
0.253201961517334 0.7945681214332581 0.9928853511810303 0.9137254953384399 0.929411768913269 0.9411764740943909
0.35172414779663086 0.8539396524429321 0.9905138611793518 0.34117648005485535 0.3450980484485626 0.32156863808631897
0.2460591197013855 0.924364447593689 0.00909090880304575 0.5098039507865906 0.49803921580314636 0.43921568989753723
0.13399015367031097 0.9115743041038513 0.012648221105337143 0.08627451211214066 0.08627451211214066 0.08627451211214066
0.1825123131275177 0.91883784532547 0.04229249060153961 0.21176470816135406 0.21176470816135406 0.18039216101169586
0.2423645257949829 0.9467867016792297 0.35217392444610596 0.1882352977991104 0.1882352977991104 0.18039216101169586
0.14162561297416687 0.8621506690979004 0.01067193690687418 0.5882353186607361 0.6000000238418579 0.5176470875740051
0.3502463102340698 0.8427285552024841 0.9909090995788574 0.34117648005485535 0.33725491166114807 0.3176470696926117
0.3568965494632721 0.9371545910835266 0.007509881630539894 0.658823549747467 0.658823549747467 0.6117647290229797
0.1862068921327591 0.8660982251167297 0.9901185631752014 0.3803921639919281 0.3843137323856354 0.3294117748737335
0.1431034505367279 0.9088899493217468 0.07588932663202286 0.07058823853731155 0.0784313753247261 0.07450980693101883
0.2704433500766754 0.8458866477012634 0.008695651777088642 0.5490196347236633 0.5529412031173706 0.4901960790157318
0.1741379350423813 0.9055739641189575 0.2557312250137329 0.11764705926179886 0.125490203499794 0.12156862765550613
0.286699503660202 0.897520899772644 0.9901185631752014 0.43529412150382996 0.4313725531101227 0.4156862795352936
0.1667487621307373 0.9016264081001282 0.04387351870536804 0.501960813999176 0.5137255191802979 0.4313725531101227
0.14901477098464966 0.9167851209640503 0.36205533146858215 0.3450980484485626 0.3607843220233917 0.37254902720451355
0.14778324961662292 0.9398389458656311 0.07430829852819443 0.27450981736183167 0.29411765933036804 0.27843138575553894
0.3177340030670166 0.8755723834037781 0.9905138611793518 0.4274509847164154 0.42352941632270813 0.40392157435417175
0.23177340626716614 0.9396810531616211 0.3604743182659149 0.3450980484485626 0.34117648005485535 0.3607843220233917
0.18940886855125427 0.9343123435974121 0.00909090880304575 0.545098066329956 0.5372549295425415 0.4470588266849518
0.2615763545036316 0.815885066986084 0.991304337978363 0.843137264251709 0.8627451062202454 0.8745098114013672
0.27266010642051697 0.8340439200401306 0.00909090880304575 0.6509804129600525 0.6470588445663452 0.5764706134796143
0.20369458198547363 0.9338386058807373 0.00909090880304575 0.529411792755127 0.5215686559677124 0.43921568989753723
0.32783252000808716 0.8127269744873047 0.991304337978363 0.40392157435417175 0.4000000059604645 0.3843137323856354
0.13423645496368408 0.8455708026885986 0.18102766573429108 0.16470588743686676 0.16078431904315948 0.15294118225574493
0.17610837519168854 0.9384177923202515 0.32490119338035583 0.16470588743686676 0.16470588743686676 0.1568627506494522
0.2785714268684387 0.9016264081001282 0.00909090880304575 0.5568627715110779 0.5372549295425415 0.5137255191802979
0.29162561893463135 0.9115743041038513 0.00909090880304575 0.5843137502670288 0.5843137502670288 0.545098066329956
0.1825123131275177 0.9207326769828796 0.010276679880917072 0.3764705955982208 0.37254902720451355 0.29411765933036804
0.3305418789386749 0.8531501889228821 0.008695651777088642 0.545098066329956 0.5215686559677124 0.4588235318660736
0.17266009747982025 0.9469445943832397 0.37114623188972473 0.32156863808631897 0.3333333432674408 0.3607843220233917
0.3603448271751404 0.9183641076087952 0.007905138656497002 0.5803921818733215 0.5686274766921997 0.501960813999176
0.25985223054885864 0.9069951176643372 0.9897233247756958 0.4274509847164154 0.4156862795352936 0.38823530077934265
0.12980295717716217 0.8690983653068542 0.011067193932831287 0.4117647111415863 0.4156862795352936 0.3529411852359772
0.14926108717918396 0.8307279348373413 0.009881422854959965 0.5098039507865906 0.501960813999176 0.4431372582912445
0.27487683296203613 0.8133586049079895 0.9916995763778687 0.8980392217636108 0.9137254953384399 0.9176470637321472
0.14753694832324982 0.810358464717865 0.00909090880304575 0.4627451002597809 0.4627451002597809 0.4156862795352936
0.18103447556495667 0.9444181323051453 0.010276679880917072 0.3960784375667572 0.38823530077934265 0.34117648005485535
0.27266010642051697 0.8338859677314758 0.00909090880304575 0.6509804129600525 0.6470588445663452 0.5764706134796143
0.1312807947397232 0.8870993256568909 0.011857707053422928 0.5058823823928833 0.501960813999176 0.41960784792900085
0.12906403839588165 0.8291488885879517 0.009881422854959965 0.3803921639919281 0.3686274588108063 0.34117648005485535
0.158620685338974 0.9306805729866028 0.9897233247756958 0.43529412150382996 0.41960784792900085 0.37254902720451355
0.17142857611179352 0.8203063607215881 0.9901185631752014 0.37254902720451355 0.3803921639919281 0.33725491166114807
0.1990147829055786 0.8065687417984009 0.9928853511810303 0.8784313797950745 0.8901960849761963 0.9098039269447327
0.12561576068401337 0.8796778917312622 0.9893280863761902 0.3960784375667572 0.38823530077934265 0.3294117748737335
0.24852216243743896 0.9425233006477356 0.00909090880304575 0.5176470875740051 0.501960813999176 0.4588235318660736
0.18152709305286407 0.9469445943832397 0.9893280863761902 0.4117647111415863 0.40784314274787903 0.33725491166114807
0.13743841648101807 0.9256276488304138 0.30948618054389954 0.3960784375667572 0.40392157435417175 0.3843137323856354
0.15024630725383759 0.9291015267372131 0.9897233247756958 0.47058823704719543 0.4588235318660736 0.4000000059604645
0.1940886676311493 0.886467695236206 0.9901185631752014 0.40784314274787903 0.3960784375667572 0.33725491166114807
0.1746305376291275 0.9418916702270508 0.07075098901987076 0.2980392277240753 0.2980392277240753 0.29019609093666077
0.22413793206214905 0.8577293753623962 0.9905138611793518 0.3921568691730499 0.3843137323856354 0.3333333432674408
0.2142857164144516 0.9193115234375 0.36284583806991577 0.529411792755127 0.5490196347236633 0.5607843399047852
0.1662561595439911 0.9126796126365662 0.3339920938014984 0.125490203499794 0.13333334028720856 0.12941177189350128
0.16502462327480316 0.9256276488304138 0.3268774747848511 0.18431372940540314 0.1882352977991104 0.19607843458652496
0.22758620977401733 0.8455708026885986 0.9905138611793518 0.3607843220233917 0.3529411852359772 0.3019607961177826
0.35886698961257935 0.8567819595336914 0.9905138611793518 0.364705890417099 0.3686274588108063 0.3450980484485626
0.2458128035068512 0.7975683212280273 0.008695651777088642 0.5607843399047852 0.5568627715110779 0.47843137383461
0.21256157755851746 0.8034107089042664 0.007905138656497002 0.572549045085907 0.5647059082984924 0.4745098054409027
0.2970443367958069 0.9472603797912598 0.9893280863761902 0.40784314274787903 0.3921568691730499 0.3803921639919281
0.20394088327884674 0.8787304759025574 0.010276679880917072 0.6196078658103943 0.6274510025978088 0.545098066329956
0.1512315273284912 0.9147323369979858 0.29169961810112 0.2823529541492462 0.3176470696926117 0.3137255012989044
0.17561575770378113 0.9074687957763672 0.25652173161506653 0.10588235408067703 0.11372549086809158 0.10980392247438431
0.22733990848064423 0.8937312364578247 0.009486165829002857 0.6784313917160034 0.6666666865348816 0.6000000238418579
0.3133004903793335 0.8185694217681885 0.991304337978363 0.4117647111415863 0.4156862795352936 0.3921568691730499
0.24704433977603912 0.8023054003715515 0.9928853511810303 0.9215686321258545 0.9254902005195618 0.9411764740943909
0.1630541831254959 0.9332070350646973 0.07509881258010864 0.250980406999588 0.25882354378700256 0.24705882370471954
0.2901477813720703 0.8632559776306152 0.00909090880304575 0.5411764979362488 0.545098066329956 0.4745098054409027
0.20812807977199554 0.9052581787109375 0.3553359806537628 0.10196078568696976 0.09803921729326248 0.0784313753247261
0.13620689511299133 0.8319911360740662 0.17984189093112946 0.6313725709915161 0.6705882549285889 0.7098039388656616
0.16921181976795197 0.9109426736831665 0.3071146309375763 0.08235294371843338 0.09019608050584793 0.0784313753247261
0.26847290992736816 0.816200852394104 0.00909090880304575 0.5647059082984924 0.5764706134796143 0.5098039507865906
0.23620688915252686 0.9317858815193176 0.00909090880304575 0.5568627715110779 0.5411764979362488 0.4941176474094391
0.3253694474697113 0.9096794724464417 0.9897233247756958 0.4588235318660736 0.45490196347236633 0.43921568989753723
0.17931035161018372 0.9103110432624817 0.09802371263504028 0.04313725605607033 0.05098039284348488 0.0313725508749485
0.26428571343421936 0.8899415731430054 0.00909090880304575 0.6000000238418579 0.6039215922355652 0.5490196347236633
0.3133004903793335 0.8654665946960449 0.00909090880304575 0.5843137502670288 0.5764706134796143 0.5254902243614197
0.35541871190071106 0.8987841606140137 0.9901185631752014 0.45098039507865906 0.45490196347236633 0.4313725531101227
0.23300492763519287 0.9060477018356323 0.3581027686595917 0.32156863808631897 0.3294117748737335 0.3176470696926117
0.2785714268684387 0.9090478420257568 0.00909090880304575 0.6431372761726379 0.6392157077789307 0.5568627715110779
0.30320197343826294 0.8995736837387085 0.00909090880304575 0.529411792755127 0.5176470875740051 0.48235294222831726
0.2618226706981659 0.9365229606628418 0.9893280863761902 0.43921568989753723 0.41960784792900085 0.3960784375667572
0.3135468065738678 0.816516637802124 0.009486165829002857 0.4470588266849518 0.4313725531101227 0.32549020648002625
0.3682265877723694 0.7912521958351135 0.009486165829002857 0.3490196168422699 0.34117648005485535 0.2823529541492462
0.14753694832324982 0.9099952578544617 0.9897233247756958 0.3803921639919281 0.364705890417099 0.32156863808631897
0.20960591733455658 0.9111005663871765 0.009486165829002857 0.5176470875740051 0.5176470875740051 0.47058823704719543
0.2817733883857727 0.8045160174369812 0.992094874382019 0.929411768913269 0.9450980424880981 0.9490196108818054
0.27536946535110474 0.9327332973480225 0.00909090880304575 0.5254902243614197 0.5176470875740051 0.46666666865348816
0.18004925549030304 0.9351018667221069 0.36719366908073425 0.24313725531101227 0.239215686917305 0.23137255012989044
0.1344827562570572 0.8945207595825195 0.9897233247756958 0.32549020648002625 0.3176470696926117 0.2666666805744171
0.2844827473163605 0.9177325367927551 0.9897233247756958 0.4588235318660736 0.45490196347236633 0.4470588266849518
0.33546799421310425 0.9374703764915466 0.00830039568245411 0.5686274766921997 0.5529412031173706 0.5098039507865906
0.1428571492433548 0.9043107628822327 0.2750988006591797 0.19607843458652496 0.20392157137393951 0.20000000298023224
0.285221666097641 0.907784640789032 0.00909090880304575 0.6901960968971252 0.6666666865348816 0.6039215922355652
0.3694581389427185 0.9062055945396423 0.007905138656497002 0.5411764979362488 0.5254902243614197 0.47843137383461
0.2817733883857727 0.930048942565918 0.9897233247756958 0.47058823704719543 0.4588235318660736 0.43921568989753723
0.3007389307022095 0.8727301359176636 0.00909090880304575 0.6039215922355652 0.6078431606292725 0.5529412031173706
0.2743842303752899 0.8686246871948242 0.00909090880304575 0.658823549747467 0.6627451181411743 0.6000000238418579
0.26379311084747314 0.940944254398346 0.9893280863761902 0.4274509847164154 0.4156862795352936 0.38823530077934265
0.3408867120742798 0.7910942435264587 0.009881422854959965 0.30588236451148987 0.30980393290519714 0.2549019753932953
0.21650245785713196 0.8809410929679871 0.009881422854959965 0.529411792755127 0.5372549295425415 0.45098039507865906
0.1987684667110443 0.9185220003128052 0.3320158123970032 0.1725490242242813 0.1725490242242813 0.16470588743686676
0.2729063928127289 0.8615190386772156 0.9905138611793518 0.3843137323856354 0.3843137323856354 0.33725491166114807
0.33596059679985046 0.8981525301933289 0.9901185631752014 0.4470588266849518 0.43529412150382996 0.4156862795352936
0.1394088715314865 0.9259434938430786 0.30513834953308105 0.3450980484485626 0.3529411852359772 0.3333333432674408
0.17364531755447388 0.8316753506660461 0.9897233247756958 0.4000000059604645 0.4000000059604645 0.3529411852359772
0.2586206793785095 0.9046265482902527 0.9897233247756958 0.4274509847164154 0.4156862795352936 0.38823530077934265
0.13571429252624512 0.9062055945396423 0.29328063130378723 0.2980392277240753 0.3137255012989044 0.3176470696926117
0.1667487621307373 0.9172587990760803 0.32529643177986145 0.2078431397676468 0.21176470816135406 0.21960784494876862
0.3655172288417816 0.8536238670349121 0.008695651777088642 0.6392157077789307 0.6352941393852234 0.5568627715110779
0.2105911374092102 0.9371545910835266 0.3644268810749054 0.37254902720451355 0.3764705955982208 0.3843137323856354
0.1788177341222763 0.9109426736831665 0.2343873530626297 0.1568627506494522 0.16862745583057404 0.13333334028720856
0.24876847863197327 0.9284698963165283 0.00909090880304575 0.615686297416687 0.6078431606292725 0.5254902243614197
0.1467980295419693 0.9223117232322693 0.07470355927944183 0.30588236451148987 0.32549020648002625 0.30980393290519714
0.28374382853507996 0.8207800388336182 0.991304337978363 0.4156862795352936 0.41960784792900085 0.4274509847164154
0.24137930572032928 0.9207326769828796 0.9897233247756958 0.43529412150382996 0.4274509847164154 0.3803921639919281
0.22684729099273682 0.8774672150611877 0.9905138611793518 0.3921568691730499 0.3803921639919281 0.3450980484485626
0.15788176655769348 0.7929890751838684 0.9916995763778687 0.3764705955982208 0.3803921639919281 0.35686275362968445
0.2339901477098465 0.9393652081489563 0.00909090880304575 0.5960784554481506 0.5960784554481506 0.5490196347236633
0.2108374387025833 0.9437865018844604 0.33992093801498413 0.18039216101169586 0.18039216101169586 0.1725490242242813
0.18029557168483734 0.9328911900520325 0.038339920341968536 0.08235294371843338 0.08235294371843338 0.07450980693101883
0.2145320177078247 0.9295752644538879 0.9897233247756958 0.4431372582912445 0.43529412150382996 0.3843137323856354
0.31527093052864075 0.8771514296531677 0.9905138611793518 0.3921568691730499 0.38823530077934265 0.37254902720451355
0.17635467648506165 0.9196273684501648 0.9897233247756958 0.4588235318660736 0.4431372582912445 0.3960784375667572
0.22931034862995148 0.8834675550460815 0.009486165829002857 0.6941176652908325 0.6941176652908325 0.6470588445663452
0.18374384939670563 0.91899573802948 0.36719366908073425 0.501960813999176 0.5098039507865906 0.49803921580314636
0.33965516090393066 0.8553608059883118 0.9905138611793518 0.3490196168422699 0.3529411852359772 0.3294117748737335
0.2977832555770874 0.8229906558990479 0.991304337978363 0.40392157435417175 0.4000000059604645 0.3921568691730499
0.20911329984664917 0.9464708566665649 0.36640316247940063 0.3490196168422699 0.3607843220233917 0.3803921639919281
0.23891626298427582 0.9182062149047852 0.35098814964294434 0.18431372940540314 0.18431372940540314 0.18431372940540314
0.2938423752784729 0.9069951176643372 0.00909090880304575 0.658823549747467 0.6470588445663452 0.6117647290229797
0.3682265877723694 0.9382598996162415 0.9893280863761902 0.46666666865348816 0.4431372582912445 0.4431372582912445
0.17931035161018372 0.9311542510986328 0.36719366908073425 0.09803921729326248 0.0941176488995552 0.08627451211214066
0.25197044014930725 0.7956734299659729 0.008695651777088642 0.45098039507865906 0.4588235318660736 0.37254902720451355
0.1347290575504303 0.9268909096717834 0.3027667999267578 0.2666666805744171 0.27843138575553894 0.250980406999588
0.14458128809928894 0.9319437742233276 0.018577074632048607 0.08627451211214066 0.08627451211214066 0.08627451211214066
0.16034482419490814 0.9414179921150208 0.37747034430503845 0.4000000059604645 0.40784314274787903 0.40392157435417175
0.23497536778450012 0.7912521958351135 0.9932806491851807 0.9490196108818054 0.9529411792755127 0.9686274528503418
0.34408867359161377 0.9469445943832397 0.9897233247756958 0.45098039507865906 0.43529412150382996 0.42352941632270813
0.28793102502822876 0.9373124837875366 0.00909090880304575 0.4941176474094391 0.49803921580314636 0.4431372582912445
0.21330049633979797 0.8762040138244629 0.010276679880917072 0.615686297416687 0.6039215922355652 0.545098066329956
0.2024630606174469 0.8037264943122864 0.9932806491851807 0.886274516582489 0.8901960849761963 0.9098039269447327
0.19261083006858826 0.8398863077163696 0.009486165829002857 0.5568627715110779 0.5607843399047852 0.4901960790157318
0.1709359586238861 0.7928311824798584 0.00830039568245411 0.6627451181411743 0.6431372761726379 0.5647059082984924
0.3682265877723694 0.8351492285728455 0.0071146246045827866 0.40784314274787903 0.4156862795352936 0.3333333432674408
0.15689654648303986 0.8959419131278992 0.011462450958788395 0.545098066329956 0.5490196347236633 0.4941176474094391
0.30024629831314087 0.7978841066360474 0.009486165829002857 0.4117647111415863 0.4156862795352936 0.3529411852359772
0.17709359526634216 0.9152060747146606 0.035177864134311676 0.08627451211214066 0.08627451211214066 0.08627451211214066
0.312561571598053 0.8893099427223206 0.00909090880304575 0.5176470875740051 0.5215686559677124 0.4901960790157318
0.23300492763519287 0.9444181323051453 0.9893280863761902 0.47058823704719543 0.4627451002597809 0.4117647111415863
0.16822659969329834 0.9169430136680603 0.07588932663202286 0.2980392277240753 0.30588236451148987 0.2862745225429535
0.16157636046409607 0.8334122896194458 0.009881422854959965 0.4745098054409027 0.4901960790157318 0.4313725531101227
0.338177353143692 0.91915363073349 0.9897233247756958 0.46666666865348816 0.4627451002597809 0.4470588266849518
0.2098522186279297 0.8773093223571777 0.009881422854959965 0.658823549747467 0.6627451181411743 0.5921568870544434
0.35935959219932556 0.9316279888153076 0.9893280863761902 0.45098039507865906 0.4470588266849518 0.4274509847164154
0.18546797335147858 0.8119374513626099 0.008695651777088642 0.5921568870544434 0.6000000238418579 0.5176470875740051
0.143349751830101 0.9336807131767273 0.07430829852819443 0.32549020648002625 0.3450980484485626 0.3176470696926117
0.27660098671913147 0.8136743903160095 0.9916995763778687 0.9019607901573181 0.9176470637321472 0.9215686321258545
0.12561576068401337 0.8506237268447876 0.9893280863761902 0.32156863808631897 0.3294117748737335 0.27843138575553894
0.28694581985473633 0.8187273144721985 0.991304337978363 0.4431372582912445 0.47058823704719543 0.501960813999176
0.158620685338974 0.874940812587738 0.011067193932831287 0.5490196347236633 0.5568627715110779 0.47058823704719543
0.3694581389427185 0.8089373111724854 0.00909090880304575 0.27843138575553894 0.2666666805744171 0.20000000298023224
0.3576354682445526 0.9396810531616211 0.9893280863761902 0.4274509847164154 0.42352941632270813 0.4156862795352936
0.19137930870056152 0.7906205654144287 0.007905138656497002 0.43921568989753723 0.4431372582912445 0.3803921639919281
0.36231526732444763 0.9107847809791565 0.9897233247756958 0.40784314274787903 0.40392157435417175 0.3843137323856354
0.18399015069007874 0.8089373111724854 0.992094874382019 0.8588235378265381 0.8705882430076599 0.8901960849761963
0.1748768538236618 0.9287857413291931 0.3695652186870575 0.062745101749897 0.0784313753247261 0.09019608050584793
0.18029557168483734 0.7934628129005432 0.9932806491851807 0.8901960849761963 0.8941176533699036 0.9137254953384399
0.14802955090999603 0.810674250125885 0.9916995763778687 0.3450980484485626 0.3450980484485626 0.2980392277240753
0.2416256219148636 0.8769935369491577 0.00909090880304575 0.5803921818733215 0.5764706134796143 0.4941176474094391
0.36206895112991333 0.8387809991836548 0.0071146246045827866 0.6274510025978088 0.6117647290229797 0.5137255191802979
0.2384236454963684 0.8119374513626099 0.9916995763778687 0.9137254953384399 0.9215686321258545 0.9176470637321472
0.2184729129076004 0.9141007661819458 0.9897233247756958 0.45490196347236633 0.43921568989753723 0.40392157435417175
0.16527093946933746 0.9436286091804504 0.3747035562992096 0.3137255012989044 0.34117648005485535 0.364705890417099
0.15147782862186432 0.9171009063720703 0.0181818176060915 0.08627451211214066 0.08627451211214066 0.08627451211214066
0.2940886616706848 0.8638875484466553 0.00909090880304575 0.6078431606292725 0.6117647290229797 0.5490196347236633
0.26871922612190247 0.9459971785545349 0.00909090880304575 0.572549045085907 0.5647059082984924 0.5058823823928833
0.15394088625907898 0.9122059345245361 0.3644268810749054 0.3803921639919281 0.4000000059604645 0.3843137323856354
0.3576354682445526 0.8743091821670532 0.008695651777088642 0.4941176474094391 0.48627451062202454 0.4274509847164154
0.1541871875524521 0.8289909958839417 0.009486165829002857 0.5372549295425415 0.529411792755127 0.47058823704719543
0.35492610931396484 0.8372019529342651 0.0071146246045827866 0.6274510025978088 0.6078431606292725 0.5215686559677124
0.19113300740718842 0.9196273684501648 0.9897233247756958 0.4470588266849518 0.4313725531101227 0.38823530077934265
0.27536946535110474 0.8125690817832947 0.00909090880304575 0.5960784554481506 0.6078431606292725 0.5254902243614197
0.29556649923324585 0.9153639674186707 0.00909090880304575 0.5176470875740051 0.5058823823928833 0.47058823704719543
0.15591132640838623 0.9264171719551086 0.9897233247756958 0.4313725531101227 0.41960784792900085 0.3607843220233917
0.15147782862186432 0.8037264943122864 0.9916995763778687 0.37254902720451355 0.3803921639919281 0.32549020648002625
0.1465517282485962 0.8814148306846619 0.011462450958788395 0.5137255191802979 0.4941176474094391 0.4156862795352936
0.2140394151210785 0.913311243057251 0.33992093801498413 0.1764705926179886 0.1764705926179886 0.16862745583057404
0.1633004993200302 0.8117795586585999 0.9916995763778687 0.3333333432674408 0.3607843220233917 0.3333333432674408
0.18940886855125427 0.8585188984870911 0.9901185631752014 0.3921568691730499 0.3843137323856354 0.3333333432674408
0.3216748833656311 0.8310437202453613 0.991304337978363 0.40392157435417175 0.4000000059604645 0.3803921639919281
0.12512315809726715 0.827411949634552 0.1826086938381195 0.16078431904315948 0.16470588743686676 0.1725490242242813
0.16576354205608368 0.908416211605072 0.3395256996154785 0.13725490868091583 0.1411764770746231 0.14901961386203766
0.2926108241081238 0.8313595652580261 0.991304337978363 0.40784314274787903 0.38823530077934265 0.37254902720451355
0.2859605848789215 0.8790462613105774 0.9905138611793518 0.4117647111415863 0.4117647111415863 0.364705890417099
0.126600980758667 0.8157271146774292 0.16758893430233002 0.4901960790157318 0.49803921580314636 0.47843137383461
0.2825123071670532 0.8779409527778625 0.00909090880304575 0.6039215922355652 0.5960784554481506 0.5372549295425415
0.2591133117675781 0.8960998058319092 0.9901185631752014 0.4313725531101227 0.41960784792900085 0.3921568691730499
0.22906403243541718 0.9016264081001282 0.009486165829002857 0.5529412031173706 0.5568627715110779 0.48627451062202454
0.19211822748184204 0.9047844409942627 0.3537549376487732 0.18039216101169586 0.16470588743686676 0.15294118225574493
0.2504926025867462 0.8544133901596069 0.9909090995788574 0.3529411852359772 0.3450980484485626 0.29411765933036804
0.3495073914527893 0.8953102827072144 0.008695651777088642 0.686274528503418 0.6823529601097107 0.6117647290229797
0.19975370168685913 0.9289436340332031 0.9897233247756958 0.4313725531101227 0.4156862795352936 0.3686274588108063
