0.4655172526836395 0.804989755153656 0.30474308133125305 0.5215686559677124 0.5568627715110779 0.5372549295425415
0.47857141494750977 0.8428864479064941 0.9897233247756958 0.33725491166114807 0.33725491166114807 0.2980392277240753
0.5753694772720337 0.8012000918388367 0.29328063130378723 0.5098039507865906 0.545098066329956 0.5411764979362488
0.3889162540435791 0.9117321968078613 0.007509881630539894 0.4745098054409027 0.46666666865348816 0.40784314274787903
0.5731527209281921 0.8780988454818726 0.9897233247756958 0.364705890417099 0.3686274588108063 0.3490196168422699
0.48226600885391235 0.8736775517463684 0.9893280863761902 0.3843137323856354 0.3843137323856354 0.3529411852359772
0.47906404733657837 0.8495184183120728 0.9897233247756958 0.3333333432674408 0.34117648005485535 0.2980392277240753
0.3884236514568329 0.8681509494781494 0.00830039568245411 0.47058823704719543 0.4588235318660736 0.4000000059604645
0.5423645377159119 0.902258038520813 0.9889327883720398 0.3529411852359772 0.35686275362968445 0.33725491166114807
0.4288177192211151 0.8477814793586731 0.008695651777088642 0.4627451002597809 0.45490196347236633 0.37254902720451355
0.5261083841323853 0.9347860217094421 0.008695651777088642 0.45098039507865906 0.45098039507865906 0.40392157435417175
0.4480295479297638 0.8116216659545898 0.28379446268081665 0.12156862765550613 0.12156862765550613 0.11372549086809158
0.4640394151210785 0.8507816195487976 0.9897233247756958 0.3607843220233917 0.3607843220233917 0.3137255012989044
0.5847290754318237 0.8402020931243896 0.16007904708385468 0.34117648005485535 0.364705890417099 0.35686275362968445
0.4965517222881317 0.8400442004203796 0.005928853526711464 0.34117648005485535 0.3333333432674408 0.24313725531101227
0.37118226289749146 0.8372019529342651 0.0071146246045827866 0.49803921580314636 0.4941176474094391 0.4117647111415863
0.5379310250282288 0.8882046341896057 0.00909090880304575 0.5333333611488342 0.5529412031173706 0.4745098054409027
0.5389162302017212 0.8758882284164429 0.9893280863761902 0.364705890417099 0.364705890417099 0.32549020648002625
0.3938423693180084 0.8514132499694824 0.008695651777088642 0.4431372582912445 0.48235294222831726 0.3843137323856354
0.5600985288619995 0.7953576445579529 0.29367589950561523 0.5333333611488342 0.5529412031173706 0.5647059082984924
0.5241379141807556 0.8030949234962463 0.19090908765792847 0.24705882370471954 0.250980406999588 0.23137255012989044
0.5785714387893677 0.8856781721115112 0.008695651777088642 0.4313725531101227 0.4274509847164154 0.3176470696926117
0.44211822748184204 0.8747828602790833 0.9897233247756958 0.38823530077934265 0.3960784375667572 0.3529411852359772
0.5556650161743164 0.8244118094444275 0.00830039568245411 0.32156863808631897 0.32156863808631897 0.29019609093666077
0.5522167682647705 0.8531501889228821 0.9901185631752014 0.32549020648002625 0.32156863808631897 0.3019607961177826
0.5209359526634216 0.9231011867523193 0.9889327883720398 0.40392157435417175 0.40392157435417175 0.37254902720451355
0.4236453175544739 0.9123638272285461 0.9893280863761902 0.4156862795352936 0.4117647111415863 0.3921568691730499
0.38620689511299133 0.7975683212280273 0.008695651777088642 0.250980406999588 0.24705882370471954 0.16470588743686676
0.5692118406295776 0.8604137301445007 0.00830039568245411 0.2666666805744171 0.2666666805744171 0.21960784494876862
0.3997536897659302 0.9178904294967651 0.007905138656497002 0.5529412031173706 0.529411792755127 0.46666666865348816
0.5522167682647705 0.7907784581184387 0.007905138656497002 0.3333333432674408 0.3176470696926117 0.2823529541492462
0.373399019241333 0.9366808533668518 0.0071146246045827866 0.5803921818733215 0.5764706134796143 0.5058823823928833
0.48620688915252686 0.8122532963752747 0.3181818127632141 0.6823529601097107 0.658823549747467 0.572549045085907
0.47881773114204407 0.8098847270011902 0.15889328718185425 0.15294118225574493 0.15294118225574493 0.14509804546833038
0.46600985527038574 0.8037264943122864 0.3011857569217682 0.5215686559677124 0.5490196347236633 0.5215686559677124
0.5642856955528259 0.8480972647666931 0.00830039568245411 0.4156862795352936 0.40784314274787903 0.35686275362968445
0.39950740337371826 0.8394126296043396 0.00830039568245411 0.4000000059604645 0.3960784375667572 0.32549020648002625
0.4322659969329834 0.8124111890792847 0.9901185631752014 0.3294117748737335 0.3294117748737335 0.2980392277240753
0.5288177132606506 0.8021475076675415 0.2505928874015808 0.27843138575553894 0.2666666805744171 0.23137255012989044
0.5761083960533142 0.8828359246253967 0.008695651777088642 0.37254902720451355 0.3607843220233917 0.2862745225429535
0.42216747999191284 0.8084636330604553 0.9901185631752014 0.3450980484485626 0.34117648005485535 0.32156863808631897
0.3778325021266937 0.8514132499694824 0.9905138611793518 0.40392157435417175 0.4117647111415863 0.3686274588108063
0.5660098791122437 0.827411949634552 0.00830039568245411 0.30588236451148987 0.30588236451148987 0.2666666805744171
0.6157635450363159 0.8209379315376282 0.992094874382019 0.29411765933036804 0.27843138575553894 0.2666666805744171
0.3770935833454132 0.8899415731430054 0.00830039568245411 0.6313725709915161 0.6313725709915161 0.5372549295425415
0.400738924741745 0.8672035336494446 0.9901185631752014 0.4156862795352936 0.4156862795352936 0.3686274588108063
0.5748768448829651 0.805463433265686 0.991304337978363 0.2862745225429535 0.2862745225429535 0.27843138575553894
0.5342364311218262 0.8203063607215881 0.9905138611793518 0.30980393290519714 0.3176470696926117 0.27450981736183167
0.5280787944793701 0.9369966983795166 0.9889327883720398 0.40784314274787903 0.4117647111415863 0.38823530077934265
0.5913792848587036 0.8334122896194458 0.1509881466627121 0.250980406999588 0.26274511218070984 0.22745098173618317
0.3815270960330963 0.9381020069122314 0.9893280863761902 0.43529412150382996 0.4313725531101227 0.4156862795352936
0.42315271496772766 0.8877309560775757 0.9897233247756958 0.4156862795352936 0.4156862795352936 0.3764705955982208
0.6032019853591919 0.8676772713661194 0.18063241243362427 0.30980393290519714 0.3450980484485626 0.364705890417099
0.4655172526836395 0.8136743903160095 0.005533596966415644 0.3921568691730499 0.3843137323856354 0.2862745225429535
0.4689655303955078 0.8798357844352722 0.00909090880304575 0.545098066329956 0.5372549295425415 0.48627451062202454
0.584482729434967 0.9066792726516724 0.008695651777088642 0.3921568691730499 0.38823530077934265 0.30588236451148987
0.472660094499588 0.8100426197052002 0.2667984068393707 0.1568627506494522 0.16078431904315948 0.1411764770746231
0.5837438702583313 0.8635717630386353 0.00830039568245411 0.21568627655506134 0.2235294133424759 0.16862745583057404
0.4322659969329834 0.8097268342971802 0.2869565188884735 0.10588235408067703 0.10588235408067703 0.09803921729326248
0.5431034564971924 0.8225169777870178 0.9905138611793518 0.3019607961177826 0.3019607961177826 0.2549019753932953
0.570443332195282 0.8833096623420715 0.008695651777088642 0.3450980484485626 0.3450980484485626 0.250980406999588
0.5209359526634216 0.8242539167404175 0.007509881630539894 0.1921568661928177 0.1882352977991104 0.16862745583057404
0.4603448212146759 0.8817306160926819 0.9893280863761902 0.37254902720451355 0.37254902720451355 0.3333333432674408
0.38275861740112305 0.8450971245765686 0.9905138611793518 0.40392157435417175 0.4117647111415863 0.35686275362968445
0.3768472969532013 0.7985157370567322 0.00909090880304575 0.29411765933036804 0.2823529541492462 0.2078431397676468
0.5081281065940857 0.9328911900520325 0.9889327883720398 0.4000000059604645 0.3960784375667572 0.3764705955982208
0.5083743929862976 0.7974103689193726 0.9901185631752014 0.3019607961177826 0.30588236451148987 0.2862745225429535
0.4689655303955078 0.8359387516975403 0.005928853526711464 0.615686297416687 0.615686297416687 0.5215686559677124
0.5721675157546997 0.821253776550293 0.00830039568245411 0.34117648005485535 0.30588236451148987 0.2705882489681244
0.5123152732849121 0.9183641076087952 0.9889327883720398 0.364705890417099 0.3686274588108063 0.33725491166114807
0.45049262046813965 0.9065213799476624 0.9893280863761902 0.38823530077934265 0.3921568691730499 0.3607843220233917
0.4894088804721832 0.8010421395301819 0.009486165829002857 0.4901960790157318 0.47058823704719543 0.3960784375667572
0.5775862336158752 0.8362545371055603 0.9909090995788574 0.29019609093666077 0.2862745225429535 0.2666666805744171
0.5894088745117188 0.8990999460220337 0.008695651777088642 0.3686274588108063 0.3803921639919281 0.3137255012989044
0.4832512438297272 0.9459971785545349 0.9889327883720398 0.38823530077934265 0.3921568691730499 0.3686274588108063
0.46600985527038574 0.8132007122039795 0.3075098693370819 0.45490196347236633 0.501960813999176 0.48627451062202454
0.6012315154075623 0.7896731495857239 0.29367589950561523 0.45098039507865906 0.48627451062202454 0.48235294222831726
0.6034482717514038 0.9272066950798035 0.00830039568245411 0.46666666865348816 0.47058823704719543 0.4000000059604645
0.6017241477966309 0.8529922366142273 0.007905138656497002 0.2705882489681244 0.25882354378700256 0.23137255012989044
0.48990148305892944 0.8147796988487244 0.2924901247024536 0.13333334028720856 0.13333334028720856 0.125490203499794
0.557635486125946 0.8460445404052734 0.9901185631752014 0.30980393290519714 0.30588236451148987 0.2862745225429535
0.5098522305488586 0.9226275086402893 0.9889327883720398 0.3960784375667572 0.3960784375667572 0.364705890417099
0.5431034564971924 0.8010421395301819 0.29367589950561523 0.5529412031173706 0.5764706134796143 0.5764706134796143
0.5731527209281921 0.8649929165840149 0.9901185631752014 0.3529411852359772 0.3490196168422699 0.3333333432674408
0.42709359526634216 0.8648349642753601 0.9897233247756958 0.37254902720451355 0.3764705955982208 0.3450980484485626
0.5243842601776123 0.9418916702270508 0.008695651777088642 0.48235294222831726 0.4901960790157318 0.43921568989753723
0.5076354742050171 0.8343597054481506 0.0063241105526685715 0.4745098054409027 0.5137255191802979 0.5215686559677124
0.39532020688056946 0.9459971785545349 0.9893280863761902 0.43529412150382996 0.4313725531101227 0.42352941632270813
0.47512316703796387 0.9284698963165283 0.9889327883720398 0.3960784375667572 0.3960784375667572 0.364705890417099
0.408620685338974 0.83830726146698 0.9905138611793518 0.3803921639919281 0.3803921639919281 0.34117648005485535
0.49064040184020996 0.8084636330604553 0.25691699981689453 0.16470588743686676 0.16862745583057404 0.14901961386203766
0.49852216243743896 0.9417337775230408 0.008695651777088642 0.572549045085907 0.5764706134796143 0.5058823823928833
0.4046798050403595 0.9044686555862427 0.9897233247756958 0.4274509847164154 0.42352941632270813 0.40392157435417175
0.4793103337287903 0.8430444002151489 0.9897233247756958 0.33725491166114807 0.33725491166114807 0.2980392277240753
0.471182256937027 0.8338859677314758 0.9897233247756958 0.3294117748737335 0.3333333432674408 0.3019607961177826
0.3842364549636841 0.8128848671913147 0.9905138611793518 0.3333333432674408 0.3294117748737335 0.3137255012989044
0.5266009569168091 0.7977262139320374 0.29407113790512085 0.6313725709915161 0.6549019813537598 0.6549019813537598
0.5753694772720337 0.9395231604576111 0.9885375499725342 0.4156862795352936 0.41960784792900085 0.3960784375667572
0.4640394151210785 0.8045160174369812 0.005533596966415644 0.3450980484485626 0.3294117748737335 0.2823529541492462
0.44187191128730774 0.8081477880477905 0.18063241243362427 0.16862745583057404 0.1764705926179886 0.1725490242242813
0.5194581151008606 0.821885347366333 0.9901185631752014 0.3333333432674408 0.3294117748737335 0.30980393290519714
0.4559113383293152 0.8930996656417847 0.00909090880304575 0.5529412031173706 0.5764706134796143 0.4745098054409027
0.471182256937027 0.7951997518539429 0.2956521809101105 0.501960813999176 0.5372549295425415 0.5176470875740051
0.43152710795402527 0.8086215257644653 0.2814229130744934 0.10980392247438431 0.10980392247438431 0.10196078568696976
0.45862069725990295 0.7981998920440674 0.9901185631752014 0.3176470696926117 0.3137255012989044 0.2980392277240753
0.44630542397499084 0.8885204195976257 0.008695651777088642 0.5921568870544434 0.6196078658103943 0.5568627715110779
0.6068965792655945 0.9125217199325562 0.9889327883720398 0.40392157435417175 0.40392157435417175 0.37254902720451355
0.4487684667110443 0.924680233001709 0.008695651777088642 0.5411764979362488 0.5529412031173706 0.48627451062202454
0.5268473029136658 0.8002526164054871 0.156521737575531 0.1568627506494522 0.13725490868091583 0.125490203499794
0.4219211935997009 0.9153639674186707 0.007905138656497002 0.5254902243614197 0.5372549295425415 0.4627451002597809
0.5189655423164368 0.816516637802124 0.9901185631752014 0.32156863808631897 0.3176470696926117 0.2980392277240753
0.44581282138824463 0.9336807131767273 0.9893280863761902 0.4117647111415863 0.4156862795352936 0.3921568691730499
0.49064040184020996 0.8829938173294067 0.9893280863761902 0.3686274588108063 0.3686274588108063 0.33725491166114807
0.5322660207748413 0.9344702363014221 0.008695651777088642 0.501960813999176 0.47843137383461 0.42352941632270813
0.5692118406295776 0.8285173177719116 0.9909090995788574 0.32549020648002625 0.3294117748737335 0.30980393290519714
0.4088670015335083 0.821411669254303 0.9905138611793518 0.3529411852359772 0.3529411852359772 0.3137255012989044
0.5081281065940857 0.8994157314300537 0.009881422854959965 0.4627451002597809 0.47843137383461 0.3803921639919281
0.6130542159080505 0.8102005124092102 0.992094874382019 0.6549019813537598 0.6901960968971252 0.6784313917160034
0.5911329984664917 0.8332543969154358 0.14822134375572205 0.2549019753932953 0.27450981736183167 0.250980406999588
0.5982758402824402 0.8042002320289612 0.29288536310195923 0.05098039284348488 0.06666667014360428 0.062745101749897
0.4167487621307373 0.9305226802825928 0.007905138656497002 0.5137255191802979 0.5058823823928833 0.4470588266849518
0.5827586054801941 0.9156797528266907 0.008695651777088642 0.4627451002597809 0.4745098054409027 0.3921568691730499
0.6022167205810547 0.816200852394104 0.008695651777088642 0.3450980484485626 0.33725491166114807 0.2862745225429535
0.5859605669975281 0.9060477018356323 0.9889327883720398 0.4274509847164154 0.4313725531101227 0.4000000059604645
0.3726601004600525 0.8899415731430054 0.00830039568245411 0.572549045085907 0.5764706134796143 0.5137255191802979
0.6113300323486328 0.8360966444015503 0.007905138656497002 0.2980392277240753 0.2862745225429535 0.250980406999588
0.45123153924942017 0.9339964985847473 0.9893280863761902 0.4117647111415863 0.40784314274787903 0.38823530077934265
0.4172413647174835 0.7921996116638184 0.2964426875114441 0.5176470875740051 0.5568627715110779 0.5529412031173706
0.6066502332687378 0.799778938293457 0.29328063130378723 0.45490196347236633 0.4941176474094391 0.4627451002597809
0.4290640354156494 0.8119374513626099 0.0063241105526685715 0.3843137323856354 0.3529411852359772 0.26274511218070984
0.5997536778450012 0.8073582649230957 0.9916995763778687 0.3137255012989044 0.2980392277240753 0.29411765933036804
0.3817734122276306 0.8765197992324829 0.00830039568245411 0.4588235318660736 0.47058823704719543 0.3960784375667572
0.5374384522438049 0.805147647857666 0.9905138611793518 0.29411765933036804 0.29411765933036804 0.2862745225429535
0.5083743929862976 0.8608874082565308 0.007509881630539894 0.4274509847164154 0.4588235318660736 0.3686274588108063
0.5450738668441772 0.8545712828636169 0.9897233247756958 0.3490196168422699 0.3529411852359772 0.32156863808631897
0.575123131275177 0.794094443321228 0.007905138656497002 0.25882354378700256 0.250980406999588 0.20392157137393951
0.5566502213478088 0.8763619065284729 0.9893280863761902 0.3490196168422699 0.3450980484485626 0.3294117748737335
0.49384236335754395 0.8032528162002563 0.009486165829002857 0.1764705926179886 0.18431372940540314 0.16470588743686676
0.4199507534503937 0.8042002320289612 0.2509881556034088 0.10980392247438431 0.10588235408067703 0.09803921729326248
0.4243842363357544 0.8727301359176636 0.00830039568245411 0.6078431606292725 0.6274510025978088 0.5372549295425415
0.3886699378490448 0.8136743903160095 0.007905138656497002 0.32156863808631897 0.3137255012989044 0.26274511218070984
0.3736453056335449 0.9363650679588318 0.0071146246045827866 0.5254902243614197 0.5137255191802979 0.4470588266849518
0.5359606146812439 0.8825201392173767 0.00909090880304575 0.572549045085907 0.5921568870544434 0.501960813999176
0.568965494632721 0.8512553572654724 0.9901185631752014 0.32549020648002625 0.3294117748737335 0.30588236451148987
0.49852216243743896 0.9417337775230408 0.008695651777088642 0.572549045085907 0.5764706134796143 0.5058823823928833
0.5524630546569824 0.794094443321228 0.29367589950561523 0.572549045085907 0.5882353186607361 0.5843137502670288
0.4990147650241852 0.8398863077163696 0.9897233247756958 0.3294117748737335 0.34117648005485535 0.30588236451148987
0.4214285612106323 0.83830726146698 0.007905138656497002 0.08235294371843338 0.09019608050584793 0.0470588244497776
0.48275861144065857 0.9325754046440125 0.00909090880304575 0.4941176474094391 0.5058823823928833 0.43921568989753723
0.4330049157142639 0.7899889349937439 0.9901185631752014 0.33725491166114807 0.3333333432674408 0.3137255012989044
0.6071428656578064 0.8188852071762085 0.9916995763778687 0.3019607961177826 0.2823529541492462 0.2705882489681244
0.45344826579093933 0.805621325969696 0.23794466257095337 0.16470588743686676 0.16862745583057404 0.14901961386203766
0.5682265758514404 0.7978841066360474 0.9909090995788574 0.2862745225429535 0.2823529541492462 0.2666666805744171
0.37881773710250854 0.8689404726028442 0.008695651777088642 0.545098066329956 0.5490196347236633 0.4941176474094391
0.5517241358757019 0.8168324828147888 0.007905138656497002 0.2980392277240753 0.3019607961177826 0.2823529541492462
0.5667487978935242 0.8316753506660461 0.9909090995788574 0.3294117748737335 0.3333333432674408 0.3137255012989044
0.5692118406295776 0.9150481820106506 0.008695651777088642 0.4588235318660736 0.4627451002597809 0.4000000059604645
0.6034482717514038 0.8765197992324829 0.9901185631752014 0.3607843220233917 0.364705890417099 0.3450980484485626
0.5795566439628601 0.930206835269928 0.00830039568245411 0.5058823823928833 0.5098039507865906 0.45490196347236633
0.4532019793987274 0.7977262139320374 0.2956521809101105 0.5254902243614197 0.5686274766921997 0.5529412031173706
0.47807881236076355 0.810674250125885 0.2822134494781494 0.13333334028720856 0.13333334028720856 0.125490203499794
0.6142857074737549 0.9360492825508118 0.00830039568245411 0.3843137323856354 0.3921568691730499 0.30980393290519714
0.4527093470096588 0.8814148306846619 0.008695651777088642 0.501960813999176 0.47843137383461 0.4313725531101227
0.40763548016548157 0.8480972647666931 0.9901185631752014 0.35686275362968445 0.364705890417099 0.32156863808631897
0.6049261093139648 0.8169903755187988 0.9916995763778687 0.27843138575553894 0.2666666805744171 0.24705882370471954
0.4322659969329834 0.8019895553588867 0.9901185631752014 0.3450980484485626 0.34117648005485535 0.32549020648002625
0.49729064106941223 0.8278856873512268 0.9897233247756958 0.3333333432674408 0.33725491166114807 0.30588236451148987
0.49014776945114136 0.8449392318725586 0.0063241105526685715 0.5215686559677124 0.5254902243614197 0.4627451002597809
0.5647783279418945 0.8362545371055603 0.9905138611793518 0.33725491166114807 0.34117648005485535 0.32156863808631897
0.48990148305892944 0.7967787981033325 0.00909090880304575 0.34117648005485535 0.3294117748737335 0.26274511218070984
0.43078818917274475 0.8720985054969788 0.9897233247756958 0.4000000059604645 0.40784314274787903 0.35686275362968445
0.5423645377159119 0.7904626727104187 0.007905138656497002 0.2862745225429535 0.27450981736183167 0.24705882370471954
0.4157635569572449 0.8834675550460815 0.00830039568245411 0.5921568870544434 0.5882353186607361 0.5176470875740051
0.606157660484314 0.8645191788673401 0.9905138611793518 0.34117648005485535 0.34117648005485535 0.3333333432674408
0.37167486548423767 0.8474656343460083 0.008695651777088642 0.45098039507865906 0.45098039507865906 0.3490196168422699
0.42709359526634216 0.9360492825508118 0.9893280863761902 0.4156862795352936 0.41960784792900085 0.4000000059604645
0.43817734718322754 0.8844149708747864 0.9897233247756958 0.3803921639919281 0.38823530077934265 0.3450980484485626
0.5371921062469482 0.8368861675262451 0.9901185631752014 0.33725491166114807 0.3333333432674408 0.3176470696926117
0.3899014890193939 0.810674250125885 0.007905138656497002 0.23529411852359772 0.22745098173618317 0.18039216101169586
0.5541871786117554 0.8762040138244629 0.9893280863761902 0.3490196168422699 0.3450980484485626 0.3294117748737335
0.4049261212348938 0.9256276488304138 0.007905138656497002 0.615686297416687 0.6078431606292725 0.5607843399047852
0.5830049514770508 0.8777830600738525 0.00830039568245411 0.34117648005485535 0.3333333432674408 0.24313725531101227
0.43004927039146423 0.805621325969696 0.26758894324302673 0.12156862765550613 0.12156862765550613 0.11372549086809158
0.4931034445762634 0.8518869280815125 0.006719367578625679 0.5215686559677124 0.545098066329956 0.4431372582912445
0.6044334769248962 0.8122532963752747 0.008695651777088642 0.3490196168422699 0.3529411852359772 0.2980392277240753
0.6105911135673523 0.9254697561264038 0.9885375499725342 0.40784314274787903 0.4117647111415863 0.38823530077934265
0.568965494632721 0.7956734299659729 0.29367589950561523 0.5333333611488342 0.5529412031173706 0.5372549295425415
0.4839901626110077 0.8263066411018372 0.9897233247756958 0.3137255012989044 0.3137255012989044 0.2823529541492462
0.5445812940597534 0.8405179381370544 0.9901185631752014 0.3176470696926117 0.3137255012989044 0.29411765933036804
0.5322660207748413 0.8420969247817993 0.9901185631752014 0.3176470696926117 0.3137255012989044 0.30588236451148987
0.5834975242614746 0.907784640789032 0.008695651777088642 0.5372549295425415 0.5333333611488342 0.45490196347236633
0.3699507415294647 0.9213643074035645 0.007509881630539894 0.4941176474094391 0.48627451062202454 0.4274509847164154
0.5995073914527893 0.7989894151687622 0.29328063130378723 0.47058823704719543 0.5215686559677124 0.4941176474094391
0.45763546228408813 0.8788883686065674 0.9897233247756958 0.3607843220233917 0.364705890417099 0.3333333432674408
0.411822646856308 0.8589925765991211 0.00830039568245411 0.5764706134796143 0.5803921818733215 0.4588235318660736
0.45837438106536865 0.8102005124092102 0.16996046900749207 0.15294118225574493 0.15294118225574493 0.14509804546833038
0.42610836029052734 0.8147796988487244 0.0063241105526685715 0.4117647111415863 0.38823530077934265 0.29411765933036804
0.5615763664245605 0.8668877482414246 0.008695651777088642 0.2705882489681244 0.27450981736183167 0.20392157137393951
0.42709359526634216 0.9360492825508118 0.9893280863761902 0.4156862795352936 0.41960784792900085 0.4000000059604645
0.37931033968925476 0.8670456409454346 0.008695651777088642 0.5333333611488342 0.529411792755127 0.45098039507865906
0.5541871786117554 0.7915679812431335 0.29367589950561523 0.5607843399047852 0.5764706134796143 0.5803921818733215
0.48300492763519287 0.8542554974555969 0.007509881630539894 0.47058823704719543 0.48235294222831726 0.4000000059604645
0.565763533115387 0.8782567381858826 0.008695651777088642 0.3764705955982208 0.3764705955982208 0.2823529541492462
0.5795566439628601 0.8474656343460083 0.9905138611793518 0.3333333432674408 0.33725491166114807 0.3176470696926117
0.3721674978733063 0.8638875484466553 0.9905138611793518 0.3960784375667572 0.3960784375667572 0.35686275362968445
0.5512315034866333 0.8278856873512268 0.9905138611793518 0.3019607961177826 0.30588236451148987 0.2823529541492462
0.411822646856308 0.8845728635787964 0.9897233247756958 0.40784314274787903 0.40784314274787903 0.3764705955982208
0.4199507534503937 0.843518078327179 0.9901185631752014 0.3764705955982208 0.3764705955982208 0.33725491166114807
0.5852216482162476 0.9278383255004883 0.00830039568245411 0.4470588266849518 0.43921568989753723 0.38823530077934265
0.6091132760047913 0.8286752104759216 0.17865613102912903 0.3686274588108063 0.4156862795352936 0.40784314274787903
0.5827586054801941 0.8132007122039795 0.00830039568245411 0.3490196168422699 0.33725491166114807 0.2705882489681244
0.5445812940597534 0.8473077416419983 0.008695651777088642 0.43529412150382996 0.4431372582912445 0.3607843220233917
0.4566502571105957 0.8133586049079895 0.29169961810112 0.10980392247438431 0.10980392247438431 0.10196078568696976
0.4529556632041931 0.816358745098114 0.9901185631752014 0.30588236451148987 0.3019607961177826 0.2823529541492462
0.5465517044067383 0.9003631472587585 0.00909090880304575 0.4000000059604645 0.40784314274787903 0.3529411852359772
0.4884236454963684 0.929891049861908 0.9889327883720398 0.4000000059604645 0.4000000059604645 0.3686274588108063
0.5874384045600891 0.8005684614181519 0.29328063130378723 0.4941176474094391 0.5333333611488342 0.529411792755127
0.5147783160209656 0.7970945835113525 0.00909090880304575 0.3176470696926117 0.30980393290519714 0.25882354378700256
0.4889162480831146 0.8076741099357605 0.3114624619483948 0.37254902720451355 0.40392157435417175 0.4470588266849518
0.5667487978935242 0.8852044939994812 0.9893280863761902 0.3686274588108063 0.3686274588108063 0.3607843220233917
0.43472906947135925 0.9163113832473755 0.00830039568245411 0.5372549295425415 0.5529412031173706 0.49803921580314636
0.47758620977401733 0.941260039806366 0.00909090880304575 0.3921568691730499 0.40784314274787903 0.3490196168422699
0.5906403660774231 0.8116216659545898 0.9916995763778687 0.2705882489681244 0.2666666805744171 0.25882354378700256
0.47413793206214905 0.891836404800415 0.009486165829002857 0.43529412150382996 0.4274509847164154 0.33725491166114807
0.379802942276001 0.7963050603866577 0.2960474193096161 0.4745098054409027 0.5058823823928833 0.5137255191802979
0.5266009569168091 0.8057792782783508 0.29407113790512085 0.14901961386203766 0.14901961386203766 0.14901961386203766
0.601477861404419 0.9256276488304138 0.00830039568245411 0.5960784554481506 0.6000000238418579 0.529411792755127
0.6147783398628235 0.9392073154449463 0.00830039568245411 0.38823530077934265 0.3960784375667572 0.3137255012989044
0.4083743989467621 0.908258318901062 0.9897233247756958 0.40392157435417175 0.40392157435417175 0.37254902720451355
0.5029556751251221 0.8068845868110657 0.15810276567935944 0.2078431397676468 0.2078431397676468 0.2078431397676468
0.5512315034866333 0.8252013325691223 0.00830039568245411 0.3529411852359772 0.3529411852359772 0.32156863808631897
0.4325123131275177 0.8144639134407043 0.005928853526711464 0.40784314274787903 0.3921568691730499 0.2862745225429535
0.5238916277885437 0.8040423393249512 0.23003952205181122 0.08627451211214066 0.08235294371843338 0.06666667014360428
0.576600968837738 0.8405179381370544 0.9909090995788574 0.3450980484485626 0.34117648005485535 0.32156863808631897
0.5507389307022095 0.8675193190574646 0.008695651777088642 0.4431372582912445 0.45098039507865906 0.35686275362968445
0.48669952154159546 0.8234643936157227 0.9897233247756958 0.33725491166114807 0.3333333432674408 0.3137255012989044
0.47906404733657837 0.8100426197052002 0.2715415060520172 0.14901961386203766 0.15294118225574493 0.13333334028720856
0.5298029780387878 0.9208905696868896 0.00909090880304575 0.5921568870544434 0.5960784554481506 0.5254902243614197
0.6128078699111938 0.8360966444015503 0.007905138656497002 0.29019609093666077 0.3019607961177826 0.25882354378700256
0.4566502571105957 0.8040423393249512 0.005533596966415644 0.27843138575553894 0.26274511218070984 0.21568627655506134
0.6007389426231384 0.8231486082077026 0.9916995763778687 0.2705882489681244 0.2666666805744171 0.250980406999588
0.4017241299152374 0.8725722432136536 0.9901185631752014 0.4156862795352936 0.4156862795352936 0.3764705955982208
0.3768472969532013 0.929733157157898 0.007509881630539894 0.5686274766921997 0.5607843399047852 0.5137255191802979
0.4219211935997009 0.8708353042602539 0.9897233247756958 0.38823530077934265 0.3960784375667572 0.3450980484485626
0.6115763783454895 0.8081477880477905 0.992094874382019 0.572549045085907 0.5882353186607361 0.5843137502670288
0.4928571283817291 0.8229906558990479 0.9897233247756958 0.29411765933036804 0.29019609093666077 0.2705882489681244
0.43399015069007874 0.9066792726516724 0.9893280863761902 0.42352941632270813 0.42352941632270813 0.3843137323856354
0.5866994857788086 0.799621045589447 0.29328063130378723 0.47843137383461 0.5254902243614197 0.5176470875740051
0.41428571939468384 0.9406284689903259 0.9893280863761902 0.4274509847164154 0.42352941632270813 0.40784314274787903
0.5977832674980164 0.8643612861633301 0.9905138611793518 0.3294117748737335 0.32549020648002625 0.30980393290519714
0.4325123131275177 0.8097268342971802 0.0063241105526685715 0.30588236451148987 0.2823529541492462 0.23529411852359772
0.49064040184020996 0.8600978851318359 0.9897233247756958 0.3490196168422699 0.3607843220233917 0.3176470696926117
0.5512315034866333 0.8252013325691223 0.00830039568245411 0.3529411852359772 0.3529411852359772 0.32156863808631897
0.6133005023002625 0.8651508092880249 0.17865613102912903 0.3019607961177826 0.33725491166114807 0.3333333432674408
0.5884236693382263 0.9114164113998413 0.9889327883720398 0.40784314274787903 0.40392157435417175 0.3843137323856354
0.48251232504844666 0.8869414329528809 0.009486165829002857 0.4274509847164154 0.43921568989753723 0.364705890417099
0.4753694534301758 0.8089373111724854 0.1826086938381195 0.12941177189350128 0.12941177189350128 0.12156862765550613
0.38768473267555237 0.8815727233886719 0.9901185631752014 0.4156862795352936 0.42352941632270813 0.3803921639919281
0.5581280589103699 0.8195168375968933 0.007905138656497002 0.2980392277240753 0.29411765933036804 0.27450981736183167
0.46231526136398315 0.8018316626548767 0.2956521809101105 0.545098066329956 0.5882353186607361 0.572549045085907
0.3928571343421936 0.9058898091316223 0.9897233247756958 0.4431372582912445 0.43921568989753723 0.41960784792900085
0.37093594670295715 0.9038370251655579 0.007905138656497002 0.5098039507865906 0.49803921580314636 0.4313725531101227
0.4088670015335083 0.8242539167404175 0.9905138611793518 0.364705890417099 0.364705890417099 0.3176470696926117
0.4194581210613251 0.8057792782783508 0.18102766573429108 0.1764705926179886 0.18431372940540314 0.18039216101169586
0.5184729099273682 0.8413074612617493 0.9897233247756958 0.34117648005485535 0.34117648005485535 0.30980393290519714
0.3980295658111572 0.8312016129493713 0.9905138611793518 0.37254902720451355 0.37254902720451355 0.32549020648002625
0.37561577558517456 0.8136743903160095 0.9909090995788574 0.3607843220233917 0.35686275362968445 0.34117648005485535
0.609359622001648 0.9447339177131653 0.00830039568245411 0.4745098054409027 0.46666666865348816 0.3764705955982208
0.5088669657707214 0.8180956840515137 0.9897233247756958 0.30980393290519714 0.30588236451148987 0.2862745225429535
0.5931034684181213 0.8297805190086365 0.991304337978363 0.27450981736183167 0.2666666805744171 0.2705882489681244
0.5366995334625244 0.8132007122039795 0.9905138611793518 0.2980392277240753 0.3019607961177826 0.2705882489681244
0.3854679763317108 0.9283120036125183 0.9893280863761902 0.4470588266849518 0.4431372582912445 0.42352941632270813
0.5332512259483337 0.8897836804389954 0.009486165829002857 0.4313725531101227 0.4627451002597809 0.3686274588108063
0.49334976077079773 0.8788883686065674 0.008695651777088642 0.5098039507865906 0.5254902243614197 0.43529412150382996
0.3815270960330963 0.7975683212280273 0.00909090880304575 0.25882354378700256 0.23529411852359772 0.1725490242242813
0.6009852290153503 0.8225169777870178 0.008695651777088642 0.2980392277240753 0.2980392277240753 0.25882354378700256
0.506403923034668 0.8831517696380615 0.008695651777088642 0.42352941632270813 0.43921568989753723 0.3843137323856354
0.4492610692977905 0.8566240072250366 0.008695651777088642 0.0470588244497776 0.04313725605607033 0.0235294122248888
0.4332512319087982 0.9118900895118713 0.00830039568245411 0.7019608020782471 0.7098039388656616 0.658823549747467
0.5985221862792969 0.8499920964241028 0.18142291903495789 0.32156863808631897 0.35686275362968445 0.3764705955982208
0.5278325080871582 0.8027790784835815 0.2403162121772766 0.3529411852359772 0.3529411852359772 0.32156863808631897
0.557881772518158 0.8872572183609009 0.00909090880304575 0.4117647111415863 0.42352941632270813 0.3490196168422699
0.4490147829055786 0.800094723701477 0.9901185631752014 0.3333333432674408 0.3294117748737335 0.3137255012989044
0.44261083006858826 0.8365703225135803 0.9901185631752014 0.33725491166114807 0.3450980484485626 0.3019607961177826
0.5679802894592285 0.8305700421333313 0.9909090995788574 0.3333333432674408 0.33725491166114807 0.3137255012989044
0.6130542159080505 0.8780988454818726 0.9897233247756958 0.3607843220233917 0.35686275362968445 0.33725491166114807
0.4672413766384125 0.810674250125885 0.16047431528568268 0.1568627506494522 0.1568627506494522 0.14901961386203766
0.4677339792251587 0.8094110488891602 0.17865613102912903 0.14901961386203766 0.14901961386203766 0.1411764770746231
0.5431034564971924 0.8138322830200195 0.9905138611793518 0.3176470696926117 0.32156863808631897 0.29019609093666077
0.5637931227684021 0.8128848671913147 0.9909090995788574 0.27450981736183167 0.27450981736183167 0.2823529541492462
0.46157634258270264 0.8529922366142273 0.9897233247756958 0.3490196168422699 0.35686275362968445 0.3137255012989044
0.5066502690315247 0.8315174579620361 0.9897233247756958 0.33725491166114807 0.33725491166114807 0.30588236451148987
0.41009852290153503 0.8769935369491577 0.9897233247756958 0.3843137323856354 0.3843137323856354 0.3529411852359772
0.4869458079338074 0.924522340297699 0.9889327883720398 0.3960784375667572 0.40392157435417175 0.3607843220233917
0.4997536838054657 0.8926259279251099 0.9893280863761902 0.3764705955982208 0.3764705955982208 0.3450980484485626
0.3849753737449646 0.8293067812919617 0.0071146246045827866 0.43529412150382996 0.4431372582912445 0.3607843220233917
0.5697044134140015 0.9066792726516724 0.00909090880304575 0.3450980484485626 0.3607843220233917 0.29411765933036804
0.5566502213478088 0.8690983653068542 0.9897233247756958 0.35686275362968445 0.3607843220233917 0.33725491166114807
0.509605884552002 0.9207326769828796 0.009486165829002857 0.5921568870544434 0.5882353186607361 0.5098039507865906
0.5024630427360535 0.8149376511573792 0.3027667999267578 0.10980392247438431 0.0941176488995552 0.08235294371843338
0.5054187178611755 0.9212063550949097 0.009486165829002857 0.501960813999176 0.4901960790157318 0.42352941632270813
0.5320196747779846 0.7929890751838684 0.00909090880304575 0.26274511218070984 0.25882354378700256 0.239215686917305
0.48669952154159546 0.9019421935081482 0.009486165829002857 0.49803921580314636 0.5137255191802979 0.4470588266849518
0.4408867061138153 0.8559924364089966 0.9897233247756958 0.3686274588108063 0.3764705955982208 0.32549020648002625
0.5024630427360535 0.8853623867034912 0.9893280863761902 0.3607843220233917 0.364705890417099 0.3333333432674408
0.48596060276031494 0.9174166917800903 0.009486165829002857 0.6431372761726379 0.6509804129600525 0.5686274766921997
0.3694581389427185 0.8173061609268188 0.9909090995788574 0.3294117748737335 0.3333333432674408 0.30980393290519714
0.5635467767715454 0.9251539707183838 0.9889327883720398 0.38823530077934265 0.3921568691730499 0.3607843220233917
0.6098521947860718 0.8799936771392822 0.9897233247756958 0.3529411852359772 0.3490196168422699 0.3294117748737335
0.5564039349555969 0.8143060207366943 0.9909090995788574 0.2823529541492462 0.27450981736183167 0.29411765933036804
0.5556650161743164 0.810990035533905 0.007905138656497002 0.3607843220233917 0.3529411852359772 0.30588236451148987
0.43842363357543945 0.8102005124092102 0.16916996240615845 0.14509804546833038 0.15294118225574493 0.1411764770746231
0.5381773114204407 0.827411949634552 0.007905138656497002 0.35686275362968445 0.35686275362968445 0.3176470696926117
0.6128078699111938 0.8662561178207397 0.17865613102912903 0.3019607961177826 0.33725491166114807 0.3333333432674408
0.4014778435230255 0.941260039806366 0.007509881630539894 0.4431372582912445 0.43921568989753723 0.3686274588108063
0.48669952154159546 0.8094110488891602 0.1766798347234726 0.15294118225574493 0.15294118225574493 0.15294118225574493
0.5916256308555603 0.8883625268936157 0.9897233247756958 0.38823530077934265 0.3843137323856354 0.3686274588108063
0.5347290635108948 0.7895152568817139 0.29407113790512085 0.6235294342041016 0.6470588445663452 0.6470588445663452
0.4958128035068512 0.7972524762153625 0.009486165829002857 0.35686275362968445 0.3490196168422699 0.29019609093666077
0.5697044134140015 0.9171009063720703 0.008695651777088642 0.4313725531101227 0.43529412150382996 0.3803921639919281
0.5330049395561218 0.9272066950798035 0.008695651777088642 0.501960813999176 0.5254902243614197 0.4156862795352936
0.3928571343421936 0.8340439200401306 0.9905138611793518 0.364705890417099 0.364705890417099 0.3176470696926117
0.4923645257949829 0.9333649277687073 0.9889327883720398 0.4117647111415863 0.4117647111415863 0.3803921639919281
0.4290640354156494 0.7975683212280273 0.2960474193096161 0.5254902243614197 0.5647059082984924 0.5607843399047852
0.47487685084342957 0.8624664545059204 0.00830039568245411 0.45490196347236633 0.4627451002597809 0.3803921639919281
0.609359622001648 0.9216800928115845 0.9885375499725342 0.38823530077934265 0.3921568691730499 0.3686274588108063
0.46206897497177124 0.8057792782783508 0.22490118443965912 0.18039216101169586 0.18431372940540314 0.16078431904315948
0.5918719172477722 0.7985157370567322 0.007905138656497002 0.27450981736183167 0.26274511218070984 0.22745098173618317
0.4837438464164734 0.9090478420257568 0.9893280863761902 0.38823530077934265 0.38823530077934265 0.35686275362968445
0.3970443308353424 0.8046739101409912 0.007905138656497002 0.24313725531101227 0.23529411852359772 0.1882352977991104
0.5884236693382263 0.7895152568817139 0.29367589950561523 0.48627451062202454 0.5098039507865906 0.501960813999176
0.3891625702381134 0.9002052545547485 0.007905138656497002 0.47843137383461 0.45490196347236633 0.4000000059604645
0.4642857015132904 0.9441023468971252 0.008695651777088642 0.4588235318660736 0.4627451002597809 0.4000000059604645
0.3815270960330963 0.8544133901596069 0.008695651777088642 0.572549045085907 0.5686274766921997 0.4901960790157318
0.39064040780067444 0.8013579845428467 0.9905138611793518 0.3490196168422699 0.3529411852359772 0.3333333432674408
0.39113301038742065 0.9232591390609741 0.9893280863761902 0.42352941632270813 0.4274509847164154 0.40392157435417175
0.5539408922195435 0.9118900895118713 0.00909090880304575 0.48235294222831726 0.4941176474094391 0.4274509847164154
0.39901477098464966 0.896731436252594 0.007905138656497002 0.4470588266849518 0.48235294222831726 0.4000000059604645
0.565517246723175 0.7901468276977539 0.007905138656497002 0.3529411852359772 0.34117648005485535 0.32156863808631897
0.5036945939064026 0.8362545371055603 0.9897233247756958 0.3529411852359772 0.3529411852359772 0.32156863808631897
0.4832512438297272 0.8132007122039795 0.28893280029296875 0.13725490868091583 0.13725490868091583 0.12941177189350128
0.5194581151008606 0.8032528162002563 0.009881422854959965 0.37254902720451355 0.3490196168422699 0.29411765933036804
0.39852216839790344 0.7936207056045532 0.9905138611793518 0.3450980484485626 0.3490196168422699 0.3294117748737335
0.48275861144065857 0.9071530103683472 0.009486165829002857 0.42352941632270813 0.45490196347236633 0.3607843220233917
0.5169950723648071 0.805463433265686 0.2557312250137329 0.14901961386203766 0.14901961386203766 0.1411764770746231
0.6036945581436157 0.9464708566665649 0.00830039568245411 0.5058823823928833 0.5176470875740051 0.45098039507865906
0.5197044610977173 0.9150481820106506 0.9889327883720398 0.3921568691730499 0.38823530077934265 0.3686274588108063
0.41108375787734985 0.8360966444015503 0.9905138611793518 0.3843137323856354 0.3921568691730499 0.3490196168422699
0.5423645377159119 0.8840991854667664 0.9893280863761902 0.3803921639919281 0.3803921639919281 0.3490196168422699
0.5243842601776123 0.9324175119400024 0.008695651777088642 0.40392157435417175 0.4156862795352936 0.34117648005485535
0.5807881951332092 0.9057318568229675 0.9889327883720398 0.3960784375667572 0.4000000059604645 0.3803921639919281
0.543596088886261 0.9328911900520325 0.008695651777088642 0.5647059082984924 0.5803921818733215 0.5137255191802979
0.4652709364891052 0.8092530965805054 0.2656126618385315 0.14509804546833038 0.14509804546833038 0.13725490868091583
0.4012315273284912 0.8842570781707764 0.9897233247756958 0.42352941632270813 0.42352941632270813 0.3921568691730499
0.5389162302017212 0.7988315224647522 0.007905138656497002 0.30980393290519714 0.30980393290519714 0.27843138575553894
0.4635468125343323 0.8678351640701294 0.00909090880304575 0.05098039284348488 0.0470588244497776 0.03921568766236305
0.4283251166343689 0.8199905157089233 0.9901185631752014 0.3607843220233917 0.3607843220233917 0.3294117748737335
0.5650246143341064 0.9335228204727173 0.9885375499725342 0.4117647111415863 0.4156862795352936 0.3843137323856354
0.39950740337371826 0.8589925765991211 0.9901185631752014 0.3960784375667572 0.3960784375667572 0.364705890417099
0.5221675038337708 0.8596242070198059 0.00830039568245411 0.5098039507865906 0.5215686559677124 0.43921568989753723
0.40566501021385193 0.9346281290054321 0.9893280863761902 0.43529412150382996 0.4313725531101227 0.4156862795352936
0.4413793087005615 0.9368388056755066 0.00830039568245411 0.6431372761726379 0.6509804129600525 0.6078431606292725
0.6046798229217529 0.9169430136680603 0.9885375499725342 0.4431372582912445 0.43921568989753723 0.41960784792900085
0.575123131275177 0.9141007661819458 0.9889327883720398 0.3921568691730499 0.3921568691730499 0.3607843220233917
0.46625617146492004 0.8277277946472168 0.9901185631752014 0.34117648005485535 0.3450980484485626 0.32156863808631897
0.5145320296287537 0.8068845868110657 0.260474294424057 0.1411764770746231 0.1411764770746231 0.13333334028720856
0.5298029780387878 0.7947260141372681 0.01067193690687418 0.2549019753932953 0.250980406999588 0.23137255012989044
0.45788177847862244 0.810674250125885 0.005533596966415644 0.2705882489681244 0.25882354378700256 0.1921568661928177
0.4807881712913513 0.8932575583457947 0.009486165829002857 0.5490196347236633 0.5647059082984924 0.46666666865348816
0.6113300323486328 0.8656244874000549 0.007905138656497002 0.22745098173618317 0.23137255012989044 0.1764705926179886
0.3965517282485962 0.8122532963752747 0.007509881630539894 0.32549020648002625 0.3176470696926117 0.2666666805744171
0.5729063749313354 0.8193588852882385 0.00830039568245411 0.3019607961177826 0.2823529541492462 0.2705882489681244
0.3817734122276306 0.7980419993400574 0.9905138611793518 0.3294117748737335 0.3333333432674408 0.30980393290519714
0.5426108241081238 0.8037264943122864 0.9905138611793518 0.29411765933036804 0.29411765933036804 0.2862745225429535
0.5165024399757385 0.805305540561676 0.19960474967956543 0.08235294371843338 0.08235294371843338 0.07450980693101883
0.5150246024131775 0.8299384117126465 0.9901185631752014 0.32549020648002625 0.32156863808631897 0.3019607961177826
0.5980295538902283 0.8822043538093567 0.00830039568245411 0.3803921639919281 0.3843137323856354 0.3294117748737335
0.39014777541160583 0.8912047743797302 0.007905138656497002 0.5254902243614197 0.529411792755127 0.4588235318660736
0.5896551609039307 0.8124111890792847 0.9916995763778687 0.2666666805744171 0.26274511218070984 0.2549019753932953
0.4475369453430176 0.8023054003715515 0.9901185631752014 0.34117648005485535 0.33725491166114807 0.32156863808631897
0.5128079056739807 0.805463433265686 0.14980237185955048 0.19607843458652496 0.20392157137393951 0.20000000298023224
0.5128079056739807 0.8057792782783508 0.009486165829002857 0.3333333432674408 0.32156863808631897 0.2862745225429535
0.5876847505569458 0.8340439200401306 0.9909090995788574 0.32156863808631897 0.32549020648002625 0.3019607961177826
0.4995073974132538 0.9447339177131653 0.008695651777088642 0.4274509847164154 0.4313725531101227 0.3607843220233917
0.3967980444431305 0.7934628129005432 0.9905138611793518 0.2823529541492462 0.2862745225429535 0.2666666805744171
0.5706896781921387 0.8206221461296082 0.991304337978363 0.24705882370471954 0.24705882370471954 0.24705882370471954
0.4009852111339569 0.8653087019920349 0.9901185631752014 0.4000000059604645 0.4000000059604645 0.3607843220233917
0.4529556632041931 0.805621325969696 0.25691699981689453 0.13725490868091583 0.13725490868091583 0.12941177189350128
0.4844827651977539 0.9212063550949097 0.9893280863761902 0.4117647111415863 0.4117647111415863 0.3803921639919281
0.3923645317554474 0.9166271686553955 0.007509881630539894 0.5333333611488342 0.5254902243614197 0.43529412150382996
0.45911329984664917 0.8517290353775024 0.007905138656497002 0.5882353186607361 0.6039215922355652 0.5137255191802979
0.5556650161743164 0.8466761112213135 0.00830039568245411 0.45098039507865906 0.43921568989753723 0.37254902720451355
0.4371921122074127 0.8403600454330444 0.007905138656497002 0.5411764979362488 0.5333333611488342 0.48627451062202454
0.4795566499233246 0.91915363073349 0.9893280863761902 0.3960784375667572 0.3960784375667572 0.364705890417099
0.42561575770378113 0.8744670748710632 0.00830039568245411 0.5137255191802979 0.5254902243614197 0.4431372582912445
0.5108374357223511 0.8198326230049133 0.007905138656497002 0.11764705926179886 0.12156862765550613 0.10196078568696976
0.4445812702178955 0.9422074556350708 0.9889327883720398 0.41960784792900085 0.4156862795352936 0.3960784375667572
0.4894088804721832 0.897520899772644 0.9893280863761902 0.3803921639919281 0.3803921639919281 0.3490196168422699
0.5913792848587036 0.8509395122528076 0.9905138611793518 0.32549020648002625 0.32549020648002625 0.3176470696926117
0.5073891878128052 0.885994017124176 0.9893280863761902 0.38823530077934265 0.3921568691730499 0.3607843220233917
0.6022167205810547 0.9275224804878235 0.00830039568245411 0.5137255191802979 0.5176470875740051 0.4627451002597809
0.5921182036399841 0.8883625268936157 0.9897233247756958 0.38823530077934265 0.3843137323856354 0.3686274588108063
0.6115763783454895 0.8062529563903809 0.008695651777088642 0.2549019753932953 0.25882354378700256 0.20392157137393951
0.44236454367637634 0.8585188984870911 0.9897233247756958 0.3607843220233917 0.3686274588108063 0.3176470696926117
0.42955663800239563 0.8728880286216736 0.00830039568245411 0.5333333611488342 0.5254902243614197 0.4431372582912445
0.4596059024333954 0.8057792782783508 0.2549407184123993 0.14901961386203766 0.15294118225574493 0.13333334028720856
0.5177339911460876 0.9437865018844604 0.008695651777088642 0.5372549295425415 0.5411764979362488 0.48627451062202454
0.5201970338821411 0.9202589392662048 0.00909090880304575 0.4313725531101227 0.4627451002597809 0.3803921639919281
0.5386699438095093 0.7961471676826477 0.007905138656497002 0.12941177189350128 0.11764705926179886 0.09019608050584793
0.43817734718322754 0.8007263541221619 0.2960474193096161 0.5215686559677124 0.5607843399047852 0.5568627715110779
0.5009852051734924 0.8072003722190857 0.15849801898002625 0.20000000298023224 0.20000000298023224 0.20000000298023224
