0.1541871875524521 0.7282488346099854 0.9905138611793518 0.40784314274787903 0.4000000059604645 0.41960784792900085
0.1541871875524521 0.7533554434776306 0.9905138611793518 0.3960784375667572 0.3921568691730499 0.4117647111415863
0.008620689623057842 0.7869887948036194 0.17312252521514893 0.6980392336845398 0.7019608020782471 0.6392157077789307
0.1825123131275177 0.7303016185760498 0.9916995763778687 0.9254902005195618 0.9411764740943909 0.9529411792755127
0.20886699855327606 0.8222011923789978 0.008695651777088642 0.5490196347236633 0.5647059082984924 0.4745098054409027
0.008866994641721249 0.8528343439102173 0.3996047377586365 0.6784313917160034 0.686274528503418 0.6431372761726379
0.1391625553369522 0.7740407586097717 0.00830039568245411 0.6823529601097107 0.6745098233222961 0.6235294342041016
0.2068965584039688 0.8624664545059204 0.009881422854959965 0.6117647290229797 0.6196078658103943 0.5254902243614197
0.19334974884986877 0.8605716228485107 0.009881422854959965 0.686274528503418 0.6627451181411743 0.6000000238418579
0.007881773635745049 0.821727454662323 0.5814229249954224 0.6549019813537598 0.6666666865348816 0.6235294342041016
0.00665024621412158 0.723985493183136 0.6387351751327515 0.7019608020782471 0.7019608020782471 0.6627451181411743
0.08596058934926987 0.8582030534744263 0.18577075004577637 0.11372549086809158 0.11764705926179886 0.125490203499794
0.033497538417577744 0.8288331031799316 0.009881422854959965 0.3607843220233917 0.364705890417099 0.3019607961177826
0.1746305376291275 0.8623085618019104 0.9897233247756958 0.3764705955982208 0.3607843220233917 0.3137255012989044
0.030788177624344826 0.8203063607215881 0.22648221254348755 0.09019608050584793 0.10196078568696976 0.07450980693101883
0.008128078654408455 0.7841465473175049 0.42332014441490173 0.6470588445663452 0.658823549747467 0.6313725709915161
0.00911330059170723 0.8072003722190857 0.15731225907802582 0.6823529601097107 0.7019608020782471 0.6235294342041016
0.00665024621412158 0.7689878344535828 0.9138339757919312 0.5098039507865906 0.5098039507865906 0.4627451002597809
0.24088670313358307 0.7606189846992493 0.007905138656497002 0.5372549295425415 0.5176470875740051 0.43921568989753723
0.008128078654408455 0.8209379315376282 0.530434787273407 0.6705882549285889 0.686274528503418 0.6274510025978088
0.007635468151420355 0.8144639134407043 0.6351778507232666 0.6784313917160034 0.6784313917160034 0.6470588445663452
0.008374384604394436 0.8589925765991211 0.552964448928833 0.6431372761726379 0.6549019813537598 0.6196078658103943
0.015763547271490097 0.8168324828147888 0.03320158272981644 0.26274511218070984 0.25882354378700256 0.24313725531101227
0.08226601034402847 0.8015158772468567 0.009486165829002857 0.48235294222831726 0.48235294222831726 0.43529412150382996
0.013793103396892548 0.8480972647666931 0.013438735157251358 0.14901961386203766 0.14901961386203766 0.11764705926179886
0.14605911076068878 0.804831862449646 0.008695651777088642 0.49803921580314636 0.4901960790157318 0.4313725531101227
0.0071428571827709675 0.7140375971794128 0.41383400559425354 0.6666666865348816 0.6705882549285889 0.6509804129600525
0.007635468151420355 0.7642507553100586 0.4992094933986664 0.6352941393852234 0.6392157077789307 0.6470588445663452
0.11798029392957687 0.8182535767555237 0.009486165829002857 0.4588235318660736 0.45098039507865906 0.4000000059604645
0.02068965509533882 0.8113058805465698 0.9893280863761902 0.3176470696926117 0.30588236451148987 0.2862745225429535
0.15960590541362762 0.8405179381370544 0.009881422854959965 0.529411792755127 0.5215686559677124 0.4745098054409027
0.007881773635745049 0.8646770715713501 0.6972332000732422 0.6039215922355652 0.6039215922355652 0.5568627715110779
0.007389162667095661 0.8092530965805054 0.6873517632484436 0.6784313917160034 0.6823529601097107 0.6117647290229797
0.05911330133676529 0.7533554434776306 0.9897233247756958 0.40784314274787903 0.4000000059604645 0.3529411852359772
0.008128078654408455 0.8132007122039795 0.4806324243545532 0.6823529601097107 0.6901960968971252 0.6352941393852234
0.17758621275424957 0.8528343439102173 0.009881422854959965 0.5254902243614197 0.5215686559677124 0.45098039507865906
0.061330050230026245 0.8116216659545898 0.9889327883720398 0.3686274588108063 0.3607843220233917 0.3137255012989044
0.024876847863197327 0.8482551574707031 0.2557312250137329 0.10980392247438431 0.11372549086809158 0.12156862765550613
0.0071428571827709675 0.7331438660621643 0.5031620264053345 0.6470588445663452 0.658823549747467 0.6235294342041016
0.00665024621412158 0.7696194648742676 0.8857707381248474 0.572549045085907 0.5764706134796143 0.5568627715110779
0.20073892176151276 0.7467235326766968 0.007905138656497002 0.5803921818733215 0.5490196347236633 0.4588235318660736
0.23620688915252686 0.7290383577346802 0.9936758875846863 0.9686274528503418 0.9803921580314636 1.0
0.009359605610370636 0.7609347701072693 0.08616600930690765 0.6470588445663452 0.658823549747467 0.5921568870544434
0.021182265132665634 0.7203537225723267 0.9901185631752014 0.40784314274787903 0.3960784375667572 0.3607843220233917
0.11674876511096954 0.7809884548187256 0.008695651777088642 0.5333333611488342 0.5254902243614197 0.46666666865348816
0.08842364698648453 0.7828832864761353 0.9893280863761902 0.37254902720451355 0.3607843220233917 0.32549020648002625
0.014532019384205341 0.8182535767555237 0.08181817829608917 0.6196078658103943 0.6313725709915161 0.5960784554481506
0.008374384604394436 0.8119374513626099 0.42332014441490173 0.7019608020782471 0.7019608020782471 0.6705882549285889
0.1312807947397232 0.7255644798278809 0.9905138611793518 0.40784314274787903 0.40392157435417175 0.3960784375667572
0.1549261063337326 0.7985157370567322 0.008695651777088642 0.5215686559677124 0.5098039507865906 0.43529412150382996
0.04162561520934105 0.7806726694107056 0.9893280863761902 0.3490196168422699 0.34117648005485535 0.29019609093666077
0.09655172377824783 0.7808305621147156 0.00909090880304575 0.48627451062202454 0.4901960790157318 0.43529412150382996
0.23103448748588562 0.7339333891868591 0.007905138656497002 0.5215686559677124 0.501960813999176 0.42352941632270813
0.15591132640838623 0.7819358706474304 0.00830039568245411 0.5372549295425415 0.5372549295425415 0.4901960790157318
0.007635468151420355 0.8210958242416382 0.6288537383079529 0.6666666865348816 0.6784313917160034 0.6352941393852234
0.08497536927461624 0.8411495089530945 0.9889327883720398 0.35686275362968445 0.35686275362968445 0.30980393290519714
0.006896551698446274 0.7285646796226501 0.5616600513458252 0.6666666865348816 0.6745098233222961 0.6196078658103943
0.0071428571827709675 0.7550923824310303 0.6090909242630005 0.6627451181411743 0.6666666865348816 0.6470588445663452
0.03201970458030701 0.8075161576271057 0.009881422854959965 0.4156862795352936 0.4117647111415863 0.3921568691730499
0.02413793094456196 0.8297805190086365 0.25375494360923767 0.11764705926179886 0.125490203499794 0.12156862765550613
0.06995073705911636 0.8648349642753601 0.00830039568245411 0.21960784494876862 0.21568627655506134 0.19607843458652496
0.009605911560356617 0.7498815655708313 0.0624505914747715 0.38823530077934265 0.3764705955982208 0.30980393290519714
0.06305418908596039 0.8572556376457214 0.18339921534061432 0.0784313753247261 0.08235294371843338 0.09019608050584793
0.07093595713376999 0.8223590850830078 0.9889327883720398 0.3529411852359772 0.34117648005485535 0.2823529541492462
0.03620689734816551 0.8506237268447876 0.17509882152080536 0.062745101749897 0.062745101749897 0.054901961237192154
0.23251231014728546 0.724459171295166 0.9932806491851807 0.9686274528503418 0.9803921580314636 1.0
0.007389162667095661 0.746565580368042 0.5023715496063232 0.6509804129600525 0.6549019813537598 0.6313725709915161
0.007881773635745049 0.7415127158164978 0.21541501581668854 0.6901960968971252 0.7058823704719543 0.6392157077789307
0.0064039407297968864 0.7179851531982422 0.9304347634315491 0.501960813999176 0.501960813999176 0.45490196347236633
0.007389162667095661 0.7599873542785645 0.5213438868522644 0.6352941393852234 0.6431372761726379 0.6392157077789307
0.034729063510894775 0.8201484084129333 0.26363635063171387 0.16470588743686676 0.16862745583057404 0.1764705926179886
0.1830049306154251 0.7339333891868591 0.9916995763778687 0.9176470637321472 0.9333333373069763 0.9450980424880981
0.007635468151420355 0.8458866477012634 0.782608687877655 0.572549045085907 0.5764706134796143 0.5137255191802979
0.008866994641721249 0.8342018127441406 0.9786561131477356 0.3333333432674408 0.32549020648002625 0.27843138575553894
0.11379310488700867 0.8621506690979004 0.18853755295276642 0.16862745583057404 0.1764705926179886 0.1725490242242813
0.009852216579020023 0.735038697719574 0.04940711334347725 0.21960784494876862 0.18431372940540314 0.14901961386203766
0.00665024621412158 0.7561976909637451 0.7632411122322083 0.7019608020782471 0.7019608020782471 0.6549019813537598
0.008866994641721249 0.7934628129005432 0.12806324660778046 0.6470588445663452 0.6549019813537598 0.6000000238418579
0.008374384604394436 0.7809884548187256 0.39209485054016113 0.6392157077789307 0.6313725709915161 0.5843137502670288
0.12142857164144516 0.7874624729156494 0.008695651777088642 0.48627451062202454 0.47843137383461 0.41960784792900085
0.15689654648303986 0.8553608059883118 0.9897233247756958 0.3921568691730499 0.3843137323856354 0.3333333432674408
0.11428571492433548 0.805621325969696 0.00909090880304575 0.48235294222831726 0.46666666865348816 0.4313725531101227
0.007635468151420355 0.7183009386062622 0.2652173936367035 0.6431372761726379 0.6745098233222961 0.615686297416687
0.18522167205810547 0.7700931429862976 0.007905138656497002 0.49803921580314636 0.4745098054409027 0.4117647111415863
0.0071428571827709675 0.7950418591499329 0.7861660122871399 0.6627451181411743 0.6666666865348816 0.6431372761726379
0.011083743534982204 0.8466761112213135 0.03280632570385933 0.12156862765550613 0.11764705926179886 0.10196078568696976
0.006896551698446274 0.7737249135971069 0.8086956739425659 0.6745098233222961 0.6745098233222961 0.6666666865348816
0.038669951260089874 0.8533080816268921 0.009881422854959965 0.22745098173618317 0.22745098173618317 0.1882352977991104
0.12192118167877197 0.8585188984870911 0.9893280863761902 0.33725491166114807 0.3490196168422699 0.2823529541492462
0.007389162667095661 0.8185694217681885 0.865217387676239 0.5372549295425415 0.545098066329956 0.501960813999176
0.008620689623057842 0.832464873790741 0.44940710067749023 0.6941176652908325 0.7019608020782471 0.658823549747467
0.008866994641721249 0.724143385887146 0.11857707798480988 0.658823549747467 0.686274528503418 0.615686297416687
0.00665024621412158 0.7713564038276672 0.9142292737960815 0.5098039507865906 0.5098039507865906 0.4627451002597809
0.006896551698446274 0.7861992716789246 0.842687726020813 0.6196078658103943 0.6235294342041016 0.5921568870544434
0.007389162667095661 0.724459171295166 0.4221343994140625 0.6666666865348816 0.6705882549285889 0.6509804129600525
0.1108374372124672 0.8643612861633301 0.010276679880917072 0.30588236451148987 0.29411765933036804 0.23529411852359772
0.02019704505801201 0.8400442004203796 0.16561265289783478 0.1411764770746231 0.14509804546833038 0.11372549086809158
0.007635468151420355 0.8345175981521606 0.6735177636146545 0.6470588445663452 0.6549019813537598 0.6039215922355652
0.008374384604394436 0.8359387516975403 0.46086955070495605 0.6745098233222961 0.6980392336845398 0.6509804129600525
0.19605910778045654 0.7388283610343933 0.007905138656497002 0.48627451062202454 0.4745098054409027 0.40784314274787903
0.007389162667095661 0.7113532423973083 0.3343873620033264 0.6313725709915161 0.6549019813537598 0.6078431606292725
0.008866994641721249 0.7565134763717651 0.13320158421993256 0.7058823704719543 0.7137255072593689 0.658823549747467
0.00665024621412158 0.7726196050643921 0.9454545378684998 0.45490196347236633 0.4431372582912445 0.3843137323856354
0.007389162667095661 0.7666193246841431 0.5379446744918823 0.6313725709915161 0.6392157077789307 0.6274510025978088
0.008620689623057842 0.7914100885391235 0.30474308133125305 0.6549019813537598 0.6705882549285889 0.6117647290229797
0.1512315273284912 0.729354202747345 0.00830039568245411 0.48235294222831726 0.4745098054409027 0.4156862795352936
0.21330049633979797 0.7358282208442688 0.007905138656497002 0.5058823823928833 0.501960813999176 0.42352941632270813
0.138669952750206 0.7303016185760498 0.9905138611793518 0.4156862795352936 0.4156862795352936 0.4156862795352936
0.06083744019269943 0.7446707487106323 0.9901185631752014 0.41960784792900085 0.40784314274787903 0.3803921639919281
0.007635468151420355 0.7483025193214417 0.43913042545318604 0.658823549747467 0.658823549747467 0.658823549747467
0.11157635599374771 0.8613611459732056 0.010276679880917072 0.3137255012989044 0.3019607961177826 0.24313725531101227
0.00665024621412158 0.7205116152763367 0.6284584999084473 0.7019608020782471 0.7019608020782471 0.6705882549285889
0.008128078654408455 0.8586767911911011 0.5873517990112305 0.6352941393852234 0.6392157077789307 0.6078431606292725
0.008128078654408455 0.75730299949646 0.3011857569217682 0.6431372761726379 0.6509804129600525 0.5960784554481506
0.047044336795806885 0.7238275408744812 0.9901185631752014 0.4274509847164154 0.4156862795352936 0.3490196168422699
0.12758620083332062 0.8244118094444275 0.009486165829002857 0.4117647111415863 0.4117647111415863 0.3803921639919281
0.006896551698446274 0.7903047800064087 0.9197628498077393 0.48627451062202454 0.47843137383461 0.4274509847164154
0.029556650668382645 0.7164061069488525 0.9901185631752014 0.4313725531101227 0.42352941632270813 0.3764705955982208
0.0435960590839386 0.8656244874000549 0.009881422854959965 0.21568627655506134 0.20392157137393951 0.1764705926179886
0.028325123712420464 0.827254056930542 0.17549407482147217 0.0941176488995552 0.0941176488995552 0.0941176488995552
0.007881773635745049 0.7494078874588013 0.35217392444610596 0.6235294342041016 0.6352941393852234 0.5921568870544434
0.20886699855327606 0.827411949634552 0.008695651777088642 0.5490196347236633 0.5411764979362488 0.45098039507865906
0.007635468151420355 0.8203063607215881 0.6581027507781982 0.6705882549285889 0.6784313917160034 0.6274510025978088
0.0071428571827709675 0.8236222863197327 0.9616600871086121 0.3803921639919281 0.364705890417099 0.3176470696926117
0.007881773635745049 0.8180956840515137 0.5486165881156921 0.6627451181411743 0.6784313917160034 0.6235294342041016
0.12142857164144516 0.7874624729156494 0.008695651777088642 0.48627451062202454 0.47843137383461 0.41960784792900085
0.19926108419895172 0.7983577847480774 0.9936758875846863 0.8901960849761963 0.9019607901573181 0.9215686321258545
0.008374384604394436 0.7890415191650391 0.39723318815231323 0.6392157077789307 0.6509804129600525 0.6078431606292725
0.00665024621412158 0.7702510952949524 0.9754940867424011 0.37254902720451355 0.3529411852359772 0.3294117748737335
0.007389162667095661 0.7167219519615173 0.3707509934902191 0.6509804129600525 0.6705882549285889 0.6431372761726379
0.010098522529006004 0.7411969304084778 0.024110671132802963 0.47843137383461 0.45098039507865906 0.38823530077934265
0.0064039407297968864 0.7165640592575073 0.695652186870575 0.7098039388656616 0.7137255072593689 0.658823549747467
0.0071428571827709675 0.8092530965805054 0.866007924079895 0.5529412031173706 0.5568627715110779 0.5254902243614197
0.04802955687046051 0.7847781181335449 0.9893280863761902 0.3764705955982208 0.3686274588108063 0.32156863808631897
0.07832512259483337 0.8349913358688354 0.00909090880304575 0.43921568989753723 0.4274509847164154 0.3529411852359772
0.03916256129741669 0.8597820997238159 0.009881422854959965 0.239215686917305 0.23529411852359772 0.21568627655506134
0.21970443427562714 0.8518869280815125 0.9905138611793518 0.3843137323856354 0.38823530077934265 0.3333333432674408
0.1751231551170349 0.849202573299408 0.009881422854959965 0.46666666865348816 0.4745098054409027 0.38823530077934265
0.0071428571827709675 0.8076741099357605 0.8905138373374939 0.5254902243614197 0.5254902243614197 0.48627451062202454
0.008128078654408455 0.75714510679245 0.28972330689430237 0.6509804129600525 0.658823549747467 0.6039215922355652
0.008866994641721249 0.7614085078239441 0.1201581060886383 0.6901960968971252 0.6941176652908325 0.6392157077789307
0.01822660118341446 0.832622766494751 0.012252964079380035 0.2666666805744171 0.2705882489681244 0.20000000298023224
0.014285714365541935 0.8334122896194458 0.07035572826862335 0.40784314274787903 0.4000000059604645 0.3529411852359772
0.0258620698004961 0.8316753506660461 0.9893280863761902 0.3176470696926117 0.3176470696926117 0.2862745225429535
0.10098522156476974 0.8278856873512268 0.9885375499725342 0.3686274588108063 0.3764705955982208 0.3333333432674408
0.04236453026533127 0.8542554974555969 0.009486165829002857 0.19607843458652496 0.18431372940540314 0.14901961386203766
0.22339901328086853 0.8386231064796448 0.9905138611793518 0.4000000059604645 0.3921568691730499 0.3450980484485626
0.2022167444229126 0.8256750106811523 0.008695651777088642 0.6196078658103943 0.6313725709915161 0.5490196347236633
0.06576354801654816 0.8662561178207397 0.18379446864128113 0.0784313753247261 0.08627451211214066 0.08235294371843338
0.006896551698446274 0.7741986513137817 0.8383399248123169 0.6392157077789307 0.6431372761726379 0.6196078658103943
0.008128078654408455 0.7718300819396973 0.4067193567752838 0.6313725709915161 0.6392157077789307 0.5960784554481506
0.22733990848064423 0.8673614263534546 0.009486165829002857 0.615686297416687 0.6039215922355652 0.529411792755127
0.007881773635745049 0.8684667348861694 0.7837944626808167 0.5372549295425415 0.529411792755127 0.47058823704719543
0.007635468151420355 0.8607295155525208 0.8671936988830566 0.47058823704719543 0.47843137383461 0.3960784375667572
0.0913793072104454 0.8242539167404175 0.1826086938381195 0.15294118225574493 0.15294118225574493 0.15294118225574493
0.00665024621412158 0.7434075474739075 0.7308300137519836 0.7098039388656616 0.7019608020782471 0.6549019813537598
0.19113300740718842 0.8100426197052002 0.992094874382019 0.8745098114013672 0.8941176533699036 0.9176470637321472
0.1623152643442154 0.7790936231613159 0.00830039568245411 0.5607843399047852 0.5647059082984924 0.501960813999176
0.08916255831718445 0.7711985111236572 0.9897233247756958 0.4156862795352936 0.4156862795352936 0.3686274588108063
0.008128078654408455 0.7778304219245911 0.38735178112983704 0.6235294342041016 0.6274510025978088 0.572549045085907
0.008620689623057842 0.7388283610343933 0.1505928784608841 0.6901960968971252 0.7058823704719543 0.6470588445663452
0.21182265877723694 0.8016737699508667 0.007905138656497002 0.5490196347236633 0.5490196347236633 0.45490196347236633
0.06773398816585541 0.7825675010681152 0.009486165829002857 0.5333333611488342 0.5058823823928833 0.43529412150382996
0.11724138259887695 0.8250434398651123 0.009486165829002857 0.4901960790157318 0.49803921580314636 0.45490196347236633
0.007389162667095661 0.7111953496932983 0.31343874335289 0.6235294342041016 0.6549019813537598 0.6039215922355652
0.12783251702785492 0.8007263541221619 0.9897233247756958 0.37254902720451355 0.3803921639919281 0.32549020648002625
0.00911330059170723 0.8283593654632568 0.3221343755722046 0.6509804129600525 0.686274528503418 0.6196078658103943
0.09334975481033325 0.7236696481704712 0.008695651777088642 0.5137255191802979 0.5098039507865906 0.43921568989753723
0.007635468151420355 0.7280909419059753 0.31620553135871887 0.6235294342041016 0.6549019813537598 0.6117647290229797
0.008374384604394436 0.751934289932251 0.16047431528568268 0.7058823704719543 0.7137255072593689 0.658823549747467
0.2182265967130661 0.7282488346099854 0.9928853511810303 0.9529411792755127 0.9647058844566345 0.9843137264251709
0.10566502809524536 0.8638875484466553 0.1877470314502716 0.12156862765550613 0.125490203499794 0.13333334028720856
0.2298029512166977 0.8552029132843018 0.00909090880304575 0.572549045085907 0.5764706134796143 0.5137255191802979
0.019950738176703453 0.8195168375968933 0.04545454680919647 0.18431372940540314 0.1921568661928177 0.18039216101169586
0.008374384604394436 0.8122532963752747 0.4422924816608429 0.6901960968971252 0.6941176652908325 0.6627451181411743
0.007881773635745049 0.8517290353775024 0.7328063249588013 0.6039215922355652 0.6078431606292725 0.5529412031173706
0.22881773114204407 0.8078320026397705 0.9924901127815247 0.9254902005195618 0.9333333373069763 0.929411768913269
0.11600985378026962 0.8522027730941772 0.18893280625343323 0.1725490242242813 0.1764705926179886 0.18431372940540314
0.14113301038742065 0.816358745098114 0.00909090880304575 0.6392157077789307 0.6235294342041016 0.5882353186607361
0.21330049633979797 0.7336175441741943 0.9928853511810303 0.9529411792755127 0.9647058844566345 0.9843137264251709
0.14088669419288635 0.7520922422409058 0.9901185631752014 0.3529411852359772 0.3450980484485626 0.35686275362968445
0.08965517580509186 0.7107216119766235 0.9905138611793518 0.43921568989753723 0.4274509847164154 0.3921568691730499
0.07660098373889923 0.8180956840515137 0.16482213139533997 0.6901960968971252 0.6941176652908325 0.7098039388656616
0.007635468151420355 0.735196590423584 0.365612655878067 0.6313725709915161 0.6509804129600525 0.6274510025978088
0.056157633662223816 0.8649929165840149 0.1826086938381195 0.054901961237192154 0.062745101749897 0.05882352963089943
0.007389162667095661 0.7261961102485657 0.36086955666542053 0.6392157077789307 0.6627451181411743 0.615686297416687
0.18423645198345184 0.8229906558990479 0.00909090880304575 0.658823549747467 0.6509804129600525 0.5607843399047852
0.11059113591909409 0.8406758308410645 0.1881422996520996 0.16470588743686676 0.16862745583057404 0.1764705926179886
0.007389162667095661 0.8169903755187988 0.8490118384361267 0.5647059082984924 0.572549045085907 0.529411792755127
0.12931033968925476 0.735512375831604 0.9901185631752014 0.4274509847164154 0.4156862795352936 0.3960784375667572
0.006896551698446274 0.788725733757019 0.8403161764144897 0.615686297416687 0.6196078658103943 0.5882353186607361
0.007635468151420355 0.8312016129493713 0.7581027746200562 0.6196078658103943 0.6274510025978088 0.572549045085907
0.10935960710048676 0.7217748165130615 0.9905138611793518 0.4000000059604645 0.4000000059604645 0.3607843220233917
0.170689657330513 0.8073582649230957 0.008695651777088642 0.5529412031173706 0.545098066329956 0.4470588266849518
0.11650246381759644 0.7105637192726135 0.9905138611793518 0.4156862795352936 0.4117647111415863 0.3960784375667572
0.18793103098869324 0.8425706624984741 0.9901185631752014 0.38823530077934265 0.3803921639919281 0.32156863808631897
0.0071428571827709675 0.7383546233177185 0.5130434632301331 0.6470588445663452 0.658823549747467 0.6313725709915161
0.008374384604394436 0.8531501889228821 0.5118576884269714 0.6509804129600525 0.6784313917160034 0.615686297416687
0.008866994641721249 0.8023054003715515 0.2865612506866455 0.6509804129600525 0.686274528503418 0.6196078658103943
0.008866994641721249 0.7284067869186401 0.1304347813129425 0.6784313917160034 0.6941176652908325 0.6352941393852234
0.0071428571827709675 0.7640928626060486 0.6501976251602173 0.6745098233222961 0.6666666865348816 0.6784313917160034
0.0064039407297968864 0.7454602718353271 0.8450592756271362 0.6313725709915161 0.6352941393852234 0.615686297416687
0.008128078654408455 0.7740407586097717 0.40316206216812134 0.6392157077789307 0.6392157077789307 0.6000000238418579
0.008128078654408455 0.8398863077163696 0.5928853750228882 0.6549019813537598 0.6627451181411743 0.6196078658103943
0.06773398816585541 0.8242539167404175 0.9889327883720398 0.3450980484485626 0.33725491166114807 0.2862745225429535
0.008374384604394436 0.8023054003715515 0.4264822006225586 0.6901960968971252 0.6901960968971252 0.6509804129600525
0.008866994641721249 0.8176220059394836 0.37667983770370483 0.6705882549285889 0.6823529601097107 0.6392157077789307
0.008866994641721249 0.8147796988487244 0.3233201503753662 0.6549019813537598 0.6784313917160034 0.6235294342041016
0.0064039407297968864 0.7321964502334595 0.9280632138252258 0.5058823823928833 0.5058823823928833 0.4588235318660736
0.08891625702381134 0.8180956840515137 0.16877470910549164 0.12156862765550613 0.12156862765550613 0.16078431904315948
0.007389162667095661 0.7380388379096985 0.4584980309009552 0.658823549747467 0.6627451181411743 0.6313725709915161
0.1669950783252716 0.8338859677314758 0.9897233247756958 0.3490196168422699 0.3529411852359772 0.29019609093666077
0.006896551698446274 0.7661455869674683 0.7897233366966248 0.6980392336845398 0.6941176652908325 0.6784313917160034
0.009852216579020023 0.8615190386772156 0.09446640312671661 0.45098039507865906 0.4588235318660736 0.40784314274787903
0.007389162667095661 0.7257224321365356 0.3916996121406555 0.6549019813537598 0.6627451181411743 0.6509804129600525
0.008866994641721249 0.7923575043678284 0.13913042843341827 0.658823549747467 0.6666666865348816 0.615686297416687
0.007635468151420355 0.8149376511573792 0.6177865862846375 0.6745098233222961 0.6745098233222961 0.6274510025978088
0.14901477098464966 0.740407407283783 0.00830039568245411 0.501960813999176 0.4941176474094391 0.43529412150382996
0.008128078654408455 0.816042959690094 0.49249011278152466 0.6745098233222961 0.6901960968971252 0.6352941393852234
0.007635468151420355 0.8499920964241028 0.8687747120857239 0.47058823704719543 0.4745098054409027 0.40392157435417175
0.19778324663639069 0.8313595652580261 0.00909090880304575 0.4941176474094391 0.5058823823928833 0.42352941632270813
0.00665024621412158 0.718616783618927 0.6205533742904663 0.6980392336845398 0.6980392336845398 0.6509804129600525
0.2182265967130661 0.729669988155365 0.9928853511810303 0.9529411792755127 0.9647058844566345 0.9843137264251709
0.09556650370359421 0.8174640536308289 0.24071146547794342 0.09019608050584793 0.08235294371843338 0.0941176488995552
0.007635468151420355 0.7549344897270203 0.4581027626991272 0.6509804129600525 0.6509804129600525 0.658823549747467
0.17758621275424957 0.8124111890792847 0.008695651777088642 0.5372549295425415 0.5490196347236633 0.46666666865348816
0.09162561595439911 0.7290383577346802 0.9901185631752014 0.43529412150382996 0.4156862795352936 0.3921568691730499
0.007635468151420355 0.8593083620071411 0.8343873620033264 0.4941176474094391 0.49803921580314636 0.4431372582912445
0.12881773710250854 0.7819358706474304 0.9893280863761902 0.3960784375667572 0.3960784375667572 0.364705890417099
0.15985222160816193 0.8149376511573792 0.00909090880304575 0.5960784554481506 0.6039215922355652 0.5215686559677124
0.23571428656578064 0.7181430459022522 0.007905138656497002 0.5215686559677124 0.5333333611488342 0.4588235318660736
0.18054187297821045 0.7801989316940308 0.9928853511810303 0.9176470637321472 0.9215686321258545 0.9411764740943909
0.07339901477098465 0.7257224321365356 0.9901185631752014 0.4274509847164154 0.4274509847164154 0.3803921639919281
0.008374384604394436 0.8529922366142273 0.5656126737594604 0.6431372761726379 0.658823549747467 0.6039215922355652
0.0071428571827709675 0.810516357421875 0.9241106510162354 0.45098039507865906 0.45490196347236633 0.3843137323856354
0.011576354503631592 0.8417811393737793 0.03913043439388275 0.12156862765550613 0.12156862765550613 0.11372549086809158
0.00665024621412158 0.7590399384498596 0.8750988245010376 0.5960784554481506 0.5960784554481506 0.5647059082984924
0.2342364490032196 0.8313595652580261 0.9905138611793518 0.3843137323856354 0.3843137323856354 0.3450980484485626
0.22931034862995148 0.7423022389411926 0.007905138656497002 0.6000000238418579 0.5921568870544434 0.501960813999176
0.07635468244552612 0.8062529563903809 0.9889327883720398 0.3490196168422699 0.35686275362968445 0.3019607961177826
0.06157635524868965 0.8503078818321228 0.9889327883720398 0.3450980484485626 0.3450980484485626 0.2980392277240753
0.031527094542980194 0.7669351100921631 0.9897233247756958 0.34117648005485535 0.3333333432674408 0.2862745225429535
0.00665024621412158 0.7584083080291748 0.812252938747406 0.6705882549285889 0.6666666865348816 0.6470588445663452
0.0064039407297968864 0.7391441464424133 0.9375494122505188 0.47843137383461 0.48235294222831726 0.4274509847164154
0.22463053464889526 0.7876204252243042 0.00830039568245411 0.5372549295425415 0.545098066329956 0.4627451002597809
0.15320196747779846 0.8665719032287598 0.01067193690687418 0.5921568870544434 0.5882353186607361 0.5058823823928833
0.007389162667095661 0.8203063607215881 0.7316205501556396 0.6549019813537598 0.6627451181411743 0.6078431606292725
0.007635468151420355 0.7378809452056885 0.30513834953308105 0.6352941393852234 0.658823549747467 0.6117647290229797
0.007881773635745049 0.7149850130081177 0.2142292559146881 0.6627451181411743 0.686274528503418 0.6313725709915161
0.007635468151420355 0.7986736297607422 0.6118577122688293 0.6509804129600525 0.6549019813537598 0.6235294342041016
0.008128078654408455 0.7361440062522888 0.18142291903495789 0.686274528503418 0.7019608020782471 0.6431372761726379
0.008866994641721249 0.8432022929191589 0.3837944567203522 0.6901960968971252 0.6941176652908325 0.6705882549285889
0.04532019793987274 0.7636191248893738 0.9897233247756958 0.3686274588108063 0.37254902720451355 0.30980393290519714
0.10049261152744293 0.7153007984161377 0.9905138611793518 0.43921568989753723 0.4274509847164154 0.3921568691730499
0.16773399710655212 0.7279330492019653 0.9909090995788574 0.9176470637321472 0.9333333373069763 0.9450980424880981
0.010098522529006004 0.7258803248405457 0.024110671132802963 0.5176470875740051 0.4941176474094391 0.4313725531101227
0.12955665588378906 0.8676772713661194 0.18418972194194794 0.13725490868091583 0.15294118225574493 0.14901961386203766
0.0071428571827709675 0.7153007984161377 0.3944664001464844 0.6549019813537598 0.6627451181411743 0.6431372761726379
0.0071428571827709675 0.8084636330604553 0.8814229369163513 0.5372549295425415 0.5372549295425415 0.49803921580314636
0.008128078654408455 0.75746089220047 0.3181818127632141 0.6392157077789307 0.6549019813537598 0.5960784554481506
0.03522167354822159 0.8138322830200195 0.9893280863761902 0.3294117748737335 0.3176470696926117 0.2823529541492462
0.008866994641721249 0.8626243472099304 0.417391300201416 0.6784313917160034 0.6823529601097107 0.6509804129600525
0.008620689623057842 0.8531501889228821 0.47193676233291626 0.6627451181411743 0.6784313917160034 0.6235294342041016
0.23103448748588562 0.7686720490455627 0.007905138656497002 0.5764706134796143 0.5647059082984924 0.4901960790157318
0.007389162667095661 0.821885347366333 0.8501976132392883 0.5490196347236633 0.5568627715110779 0.5137255191802979
0.008128078654408455 0.7501973509788513 0.22213438153266907 0.6980392336845398 0.7137255072593689 0.6549019813537598
0.00665024621412158 0.7603031992912292 0.8909090757369995 0.5686274766921997 0.5647059082984924 0.545098066329956
0.12561576068401337 0.8506237268447876 0.9893280863761902 0.32156863808631897 0.3294117748737335 0.27843138575553894
0.00911330059170723 0.8007263541221619 0.12173912674188614 0.6470588445663452 0.6470588445663452 0.6000000238418579
0.007389162667095661 0.8125690817832947 0.7213438749313354 0.6666666865348816 0.6784313917160034 0.6117647290229797
0.05467980355024338 0.7809884548187256 0.009486165829002857 0.5176470875740051 0.5058823823928833 0.47058823704719543
0.09408867359161377 0.8512553572654724 0.9889327883720398 0.37254902720451355 0.3803921639919281 0.3294117748737335
0.10566502809524536 0.7153007984161377 0.9905138611793518 0.4588235318660736 0.4470588266849518 0.41960784792900085
0.08054187148809433 0.7715142965316772 0.9897233247756958 0.40784314274787903 0.4000000059604645 0.3490196168422699
0.00665024621412158 0.7543028593063354 0.8999999761581421 0.5490196347236633 0.5529412031173706 0.529411792755127
0.008620689623057842 0.7730933427810669 0.15731225907802582 0.6941176652908325 0.7019608020782471 0.6509804129600525
0.14187191426753998 0.8533080816268921 0.9893280863761902 0.38823530077934265 0.38823530077934265 0.34117648005485535
0.007389162667095661 0.7509868741035461 0.5185770988464355 0.6392157077789307 0.6431372761726379 0.6196078658103943
0.13645319640636444 0.7557240128517151 0.00830039568245411 0.5372549295425415 0.5254902243614197 0.4588235318660736
0.09039408713579178 0.7558819055557251 0.9897233247756958 0.40784314274787903 0.4000000059604645 0.3529411852359772
0.00911330059170723 0.8157271146774292 0.13675889372825623 0.6823529601097107 0.6941176652908325 0.6196078658103943
0.12364532053470612 0.7282488346099854 0.00830039568245411 0.545098066329956 0.545098066329956 0.49803921580314636
0.21354679763317108 0.8653087019920349 0.009881422854959965 0.6941176652908325 0.6901960968971252 0.6117647290229797
0.008128078654408455 0.7639349699020386 0.290909081697464 0.6666666865348816 0.6705882549285889 0.615686297416687
0.008128078654408455 0.7906205654144287 0.46679842472076416 0.6549019813537598 0.6666666865348816 0.6392157077789307
0.0064039407297968864 0.7440391778945923 0.8671936988830566 0.6000000238418579 0.6117647290229797 0.5764706134796143
0.006896551698446274 0.7287225723266602 0.5743082761764526 0.6705882549285889 0.6784313917160034 0.6235294342041016
0.222660094499588 0.8523606657981873 0.00909090880304575 0.6078431606292725 0.6196078658103943 0.5372549295425415
0.008866994641721249 0.7606189846992493 0.12924900650978088 0.6941176652908325 0.7019608020782471 0.6470588445663452
0.13546797633171082 0.7451444864273071 0.00830039568245411 0.5960784554481506 0.5803921818733215 0.5333333611488342
0.22315271198749542 0.8209379315376282 0.9905138611793518 0.40392157435417175 0.42352941632270813 0.40784314274787903
0.08226601034402847 0.821411669254303 0.9889327883720398 0.34117648005485535 0.34117648005485535 0.29411765933036804
0.04088670015335083 0.7216169238090515 0.01067193690687418 0.6000000238418579 0.5921568870544434 0.5098039507865906
0.008620689623057842 0.8402020931243896 0.45612648129463196 0.6784313917160034 0.6901960968971252 0.6470588445663452
0.1189655140042305 0.8548871278762817 0.9889327883720398 0.3764705955982208 0.3843137323856354 0.34117648005485535
0.00911330059170723 0.713090181350708 0.10513833910226822 0.6509804129600525 0.6666666865348816 0.6000000238418579
0.18054187297821045 0.8188852071762085 0.00909090880304575 0.4901960790157318 0.501960813999176 0.41960784792900085
0.007389162667095661 0.7950418591499329 0.6197628378868103 0.6549019813537598 0.658823549747467 0.6274510025978088
0.00665024621412158 0.7484604716300964 0.9754940867424011 0.37254902720451355 0.364705890417099 0.3137255012989044
0.19162560999393463 0.8139902353286743 0.991304337978363 0.8666666746139526 0.8823529481887817 0.9176470637321472
0.056157633662223816 0.7550923824310303 0.009486165829002857 0.5215686559677124 0.5058823823928833 0.4588235318660736
0.1667487621307373 0.7843044400215149 0.992094874382019 0.7137255072593689 0.7254902124404907 0.7450980544090271
0.007635468151420355 0.799463152885437 0.5545454621315002 0.6470588445663452 0.658823549747467 0.615686297416687
0.006896551698446274 0.734880805015564 0.5992094874382019 0.6784313917160034 0.6784313917160034 0.6470588445663452
0.15369458496570587 0.8624664545059204 0.9897233247756958 0.38823530077934265 0.3803921639919281 0.3333333432674408
0.10246305167675018 0.7972524762153625 0.9893280863761902 0.40392157435417175 0.3960784375667572 0.3490196168422699
0.11379310488700867 0.7648823857307434 0.9897233247756958 0.3843137323856354 0.3803921639919281 0.3607843220233917
0.008128078654408455 0.7631454467773438 0.27786561846733093 0.6666666865348816 0.6745098233222961 0.6235294342041016
0.008374384604394436 0.8506237268447876 0.5003952383995056 0.6509804129600525 0.6745098233222961 0.6274510025978088
0.0071428571827709675 0.8166745901107788 0.9707509875297546 0.364705890417099 0.3490196168422699 0.30588236451148987
0.00911330059170723 0.810990035533905 0.16877470910549164 0.6784313917160034 0.6980392336845398 0.6196078658103943
0.14532019197940826 0.7820938229560852 0.00830039568245411 0.48235294222831726 0.47843137383461 0.40784314274787903
0.007881773635745049 0.8387809991836548 0.5984189510345459 0.6627451181411743 0.6627451181411743 0.6313725709915161
0.14901477098464966 0.7127743363380432 0.9905138611793518 0.4156862795352936 0.4117647111415863 0.4313725531101227
0.014285714365541935 0.7969366908073425 0.9865612387657166 0.239215686917305 0.22745098173618317 0.1921568661928177
0.0071428571827709675 0.7915679812431335 0.7786561250686646 0.6784313917160034 0.6823529601097107 0.6509804129600525
0.008866994641721249 0.8409916162490845 0.39288538694381714 0.6901960968971252 0.6941176652908325 0.6627451181411743
0.007635468151420355 0.7429338097572327 0.4003952443599701 0.6549019813537598 0.6627451181411743 0.6509804129600525
0.006896551698446274 0.7760934829711914 0.8158102631568909 0.6627451181411743 0.6627451181411743 0.6549019813537598
0.007389162667095661 0.8102005124092102 0.7055336236953735 0.6705882549285889 0.6823529601097107 0.6078431606292725
0.09778325259685516 0.8533080816268921 0.9889327883720398 0.3960784375667572 0.38823530077934265 0.34117648005485535
0.13325123488903046 0.7797252535820007 0.008695651777088642 0.5411764979362488 0.5372549295425415 0.4588235318660736
0.01527093630284071 0.7849360704421997 0.9881423115730286 0.2823529541492462 0.29019609093666077 0.24705882370471954
0.10270936042070389 0.8201484084129333 0.17075099050998688 0.34117648005485535 0.34117648005485535 0.3803921639919281
0.17931035161018372 0.7175114750862122 0.9909090995788574 0.9450980424880981 0.9607843160629272 0.95686274766922
0.16453202068805695 0.8291488885879517 0.009486165829002857 0.4313725531101227 0.43921568989753723 0.35686275362968445
0.007881773635745049 0.7543028593063354 0.365217387676239 0.615686297416687 0.615686297416687 0.5764706134796143
0.12019704282283783 0.7337754368782043 0.008695651777088642 0.5215686559677124 0.5215686559677124 0.4745098054409027
0.21896551549434662 0.7767251133918762 0.007905138656497002 0.6000000238418579 0.5960784554481506 0.5254902243614197
0.008128078654408455 0.854729175567627 0.6383399367332458 0.6470588445663452 0.6352941393852234 0.6078431606292725
0.007635468151420355 0.7745144367218018 0.5292490124702454 0.6274510025978088 0.6352941393852234 0.6235294342041016
0.008374384604394436 0.7828832864761353 0.3379446566104889 0.615686297416687 0.6274510025978088 0.5607843399047852
0.023645320907235146 0.8207800388336182 0.021739130839705467 0.16078431904315948 0.1568627506494522 0.14901961386203766
0.009359605610370636 0.8563082218170166 0.33122530579566956 0.7843137383460999 0.8078431487083435 0.7529411911964417
0.032758619636297226 0.8390967845916748 0.9893280863761902 0.3450980484485626 0.3333333432674408 0.30588236451148987
0.006896551698446274 0.7113532423973083 0.5328063368797302 0.6627451181411743 0.6901960968971252 0.6196078658103943
0.16970443725585938 0.7978841066360474 0.9928853511810303 0.8156862854957581 0.8196078538894653 0.8352941274642944
0.19950738549232483 0.810990035533905 0.9916995763778687 0.8823529481887817 0.886274516582489 0.9058823585510254
0.008374384604394436 0.7503553032875061 0.1664031594991684 0.6980392336845398 0.7137255072593689 0.6549019813537598
0.01034482754766941 0.8645191788673401 0.03992094844579697 0.10196078568696976 0.09803921729326248 0.08235294371843338
0.02413793094456196 0.8185694217681885 0.18418972194194794 0.34117648005485535 0.3529411852359772 0.32549020648002625
0.24137930572032928 0.7953576445579529 0.008695651777088642 0.5137255191802979 0.5058823823928833 0.42352941632270813
0.008866994641721249 0.8422548770904541 0.3964426815509796 0.6941176652908325 0.6980392336845398 0.6666666865348816
0.12093596160411835 0.7704089879989624 0.9897233247756958 0.3843137323856354 0.3921568691730499 0.3490196168422699
0.03497536852955818 0.8656244874000549 0.01067193690687418 0.1921568661928177 0.18039216101169586 0.15294118225574493
0.008866994641721249 0.7836728096008301 0.1924901157617569 0.6980392336845398 0.7098039388656616 0.6352941393852234
0.14088669419288635 0.7498815655708313 0.9901185631752014 0.40392157435417175 0.3960784375667572 0.40784314274787903
0.09433497488498688 0.8223590850830078 0.9889327883720398 0.34117648005485535 0.3490196168422699 0.30588236451148987
0.024876847863197327 0.723985493183136 0.9901185631752014 0.3843137323856354 0.3843137323856354 0.33725491166114807
0.2068965584039688 0.8180956840515137 0.008695651777088642 0.501960813999176 0.5137255191802979 0.4313725531101227
0.00911330059170723 0.8114637732505798 0.9794466495513916 0.3176470696926117 0.3019607961177826 0.25882354378700256
0.00665024621412158 0.7535133361816406 0.8351778388023376 0.6392157077789307 0.6431372761726379 0.6196078658103943
0.09261083602905273 0.713563859462738 0.9905138611793518 0.43921568989753723 0.4274509847164154 0.3921568691730499
0.008128078654408455 0.7467235326766968 0.22173912823200226 0.6941176652908325 0.7098039388656616 0.6509804129600525
0.00665024621412158 0.7318806052207947 0.7106719613075256 0.7215686440467834 0.7137255072593689 0.6627451181411743
0.17906403541564941 0.7415127158164978 0.9916995763778687 0.9058823585510254 0.9215686321258545 0.9333333373069763
0.007635468151420355 0.8225169777870178 0.6541501879692078 0.6784313917160034 0.6784313917160034 0.6313725709915161
0.02857142873108387 0.8299384117126465 0.17588932812213898 0.0941176488995552 0.10196078568696976 0.09019608050584793
0.007881773635745049 0.8654665946960449 0.7750988006591797 0.5411764979362488 0.545098066329956 0.4901960790157318
0.20911329984664917 0.7917258739471436 0.007905138656497002 0.5372549295425415 0.545098066329956 0.45098039507865906
0.2305418699979782 0.7928311824798584 0.9932806491851807 0.9450980424880981 0.9490196108818054 0.95686274766922
0.007635468151420355 0.8023054003715515 0.6138339638710022 0.6627451181411743 0.6666666865348816 0.6352941393852234
0.020443350076675415 0.8179377913475037 0.17351779341697693 0.5176470875740051 0.5254902243614197 0.5058823823928833
0.007635468151420355 0.8477814793586731 0.8667984008789062 0.47843137383461 0.48235294222831726 0.41960784792900085
0.00911330059170723 0.7718300819396973 0.09051383286714554 0.6352941393852234 0.6431372761726379 0.5921568870544434
0.008128078654408455 0.788567841053009 0.42371541261672974 0.6627451181411743 0.6666666865348816 0.6431372761726379
0.006896551698446274 0.7590399384498596 0.7604743242263794 0.7019608020782471 0.7019608020782471 0.6549019813537598
0.008866994641721249 0.7478288412094116 0.1252964437007904 0.6941176652908325 0.6941176652908325 0.6470588445663452
0.13004925847053528 0.7366177439689636 0.9901185631752014 0.3529411852359772 0.34117648005485535 0.32156863808631897
0.029556650668382645 0.7181430459022522 0.9901185631752014 0.43921568989753723 0.4313725531101227 0.3843137323856354
0.007389162667095661 0.7148271203041077 0.2976284623146057 0.6274510025978088 0.658823549747467 0.6000000238418579
0.007635468151420355 0.8642033934593201 0.8154150247573853 0.5176470875740051 0.5098039507865906 0.45098039507865906
0.0071428571827709675 0.718774676322937 0.4525691568851471 0.6627451181411743 0.6745098233222961 0.6392157077789307
0.1903940886259079 0.7471972107887268 0.9924901127815247 0.9333333373069763 0.9490196108818054 0.9529411792755127
0.026108374819159508 0.8522027730941772 0.24703557789325714 0.10588235408067703 0.10980392247438431 0.11764705926179886
0.0071428571827709675 0.7323543429374695 0.5335968136787415 0.6509804129600525 0.6627451181411743 0.6196078658103943
0.007635468151420355 0.8484130501747131 0.7758893370628357 0.572549045085907 0.5803921818733215 0.5372549295425415
0.01527093630284071 0.8312016129493713 0.07035572826862335 0.42352941632270813 0.42352941632270813 0.3843137323856354
0.04630541801452637 0.8296226263046265 0.9893280863761902 0.33725491166114807 0.32549020648002625 0.29019609093666077
0.12807881832122803 0.8643612861633301 0.9893280863761902 0.38823530077934265 0.3921568691730499 0.3294117748737335
0.008128078654408455 0.7443549633026123 0.18418972194194794 0.6941176652908325 0.7098039388656616 0.6509804129600525
0.016009852290153503 0.7426180243492126 0.9893280863761902 0.34117648005485535 0.34117648005485535 0.3019607961177826
0.04039409011602402 0.7587241530418396 0.9897233247756958 0.3686274588108063 0.37254902720451355 0.30980393290519714
0.013793103396892548 0.8654665946960449 0.18853755295276642 0.3921568691730499 0.3843137323856354 0.32549020648002625
0.04630541801452637 0.8266224265098572 0.9893280863761902 0.3529411852359772 0.3529411852359772 0.3137255012989044
0.006896551698446274 0.794252336025238 0.9343873262405396 0.4431372582912445 0.43921568989753723 0.3686274588108063
0.00665024621412158 0.7467235326766968 0.7142292261123657 0.7058823704719543 0.7058823704719543 0.658823549747467
0.006896551698446274 0.7386704683303833 0.6138339638710022 0.6745098233222961 0.6705882549285889 0.6509804129600525
0.054926108568906784 0.8345175981521606 0.009486165829002857 0.37254902720451355 0.3843137323856354 0.3176470696926117
0.0071428571827709675 0.832306981086731 0.960869550704956 0.3921568691730499 0.3803921639919281 0.32156863808631897
0.008620689623057842 0.7783041000366211 0.2557312250137329 0.6941176652908325 0.7098039388656616 0.6509804129600525
0.11354679614305496 0.7696194648742676 0.008695651777088642 0.5607843399047852 0.5529412031173706 0.501960813999176
0.006896551698446274 0.7273014187812805 0.5691699385643005 0.6705882549285889 0.6784313917160034 0.6235294342041016
0.007635468151420355 0.7808305621147156 0.5549407005310059 0.6274510025978088 0.6313725709915161 0.6000000238418579
0.007635468151420355 0.8008842468261719 0.5743082761764526 0.6509804129600525 0.658823549747467 0.6078431606292725
0.17339901626110077 0.7435654401779175 0.007905138656497002 0.48627451062202454 0.4901960790157318 0.4274509847164154
0.008620689623057842 0.740249514579773 0.1411067247390747 0.6901960968971252 0.7058823704719543 0.6470588445663452
0.008620689623057842 0.7934628129005432 0.3632411062717438 0.6352941393852234 0.6509804129600525 0.5960784554481506
0.18571428954601288 0.7116690278053284 0.007905138656497002 0.5921568870544434 0.5803921818733215 0.5215686559677124
0.1305418759584427 0.83783358335495 0.010276679880917072 0.35686275362968445 0.3450980484485626 0.30980393290519714
0.20788177847862244 0.7119848132133484 0.007905138656497002 0.529411792755127 0.545098066329956 0.4470588266849518
0.007635468151420355 0.8046739101409912 0.6114624738693237 0.6666666865348816 0.6745098233222961 0.6313725709915161
0.12586206197738647 0.8116216659545898 0.9901185631752014 0.38823530077934265 0.3803921639919281 0.3333333432674408
0.008374384604394436 0.8531501889228821 0.5118576884269714 0.6509804129600525 0.6784313917160034 0.615686297416687
0.02857142873108387 0.8648349642753601 0.9893280863761902 0.30588236451148987 0.29411765933036804 0.25882354378700256
0.007635468151420355 0.8312016129493713 0.7636363506317139 0.6196078658103943 0.6274510025978088 0.572549045085907
0.13694581389427185 0.8263066411018372 0.9893280863761902 0.38823530077934265 0.3803921639919281 0.3333333432674408
0.008620689623057842 0.8365703225135803 0.4122529625892639 0.6980392336845398 0.7019608020782471 0.6705882549285889
0.04556650295853615 0.8354650139808655 0.009486165829002857 0.33725491166114807 0.32549020648002625 0.250980406999588
