0.942118227481842 0.04137059673666954 0.2667984068393707 0.5372549295425415 0.34117648005485535 0.13333334028720856
0.9482758641242981 0.11811147630214691 0.9869565367698669 0.32549020648002625 0.29411765933036804 0.24313725531101227
0.9088670015335083 0.041844308376312256 0.5553359389305115 0.658823549747467 0.48235294222831726 0.3294117748737335
0.8864532113075256 0.14527080953121185 0.9889327883720398 0.2862745225429535 0.26274511218070984 0.21568627655506134
0.9743842482566833 0.03789673000574112 0.7308300137519836 0.3607843220233917 0.24313725531101227 0.10980392247438431
0.9684728980064392 0.04168640449643135 0.20948617160320282 0.6039215922355652 0.4000000059604645 0.16470588743686676
0.9987684488296509 0.10547923296689987 0.8422924876213074 0.07450980693101883 0.0784313753247261 0.0941176488995552
0.9418719410896301 0.041212696582078934 0.4857707619667053 0.529411792755127 0.3921568691730499 0.23529411852359772
0.8729063868522644 0.04263382405042648 0.6146245002746582 0.686274528503418 0.5176470875740051 0.4431372582912445
0.9647783041000366 0.03963366523385048 0.7059288620948792 0.4156862795352936 0.2823529541492462 0.1764705926179886
0.898522138595581 0.022895941510796547 0.9873517751693726 0.24313725531101227 0.21568627655506134 0.15294118225574493
0.9679803252220154 0.039475761353969574 0.731225311756134 0.4431372582912445 0.33725491166114807 0.2235294133424759
0.8972906470298767 0.1466919332742691 0.0063241105526685715 0.48627451062202454 0.5333333611488342 0.45490196347236633
0.8731527328491211 0.04279172420501709 0.208695650100708 0.6627451181411743 0.4156862795352936 0.20392157137393951
0.9598522186279297 0.1490604728460312 0.005928853526711464 0.545098066329956 0.5529412031173706 0.46666666865348816
0.979556679725647 0.043265435844659805 0.9691699743270874 0.3843137323856354 0.34117648005485535 0.2549019753932953
0.9561576247215271 0.04105479270219803 0.36205533146858215 0.6274510025978088 0.42352941632270813 0.1882352977991104
0.9061576128005981 0.05858203023672104 0.0071146246045827866 0.529411792755127 0.5333333611488342 0.47843137383461
0.8800492882728577 0.04279172420501709 0.08142292499542236 0.572549045085907 0.37254902720451355 0.20392157137393951
0.8842364549636841 0.04263382405042648 0.3079051375389099 0.7058823704719543 0.46666666865348816 0.24313725531101227
0.9189655184745789 0.04168640449643135 0.47667983174324036 0.6000000238418579 0.4274509847164154 0.250980406999588
0.9761083722114563 0.03758092597126961 0.14664031565189362 0.49803921580314636 0.30980393290519714 0.11764705926179886
0.9820197224617004 0.15458709001541138 0.9154150485992432 0.47058823704719543 0.4431372582912445 0.37254902720451355
0.9448275566101074 0.13263855874538422 0.9869565367698669 0.3333333432674408 0.3019607961177826 0.250980406999588
0.898522138595581 0.041528500616550446 0.7055336236953735 0.5607843399047852 0.40784314274787903 0.29411765933036804
0.9096059203147888 0.041844308376312256 0.5011857748031616 0.6470588445663452 0.47058823704719543 0.30588236451148987
0.9780788421630859 0.08132006973028183 0.8505929112434387 0.08235294371843338 0.06666667014360428 0.054901961237192154
0.9645320177078247 0.007263540290296078 0.9743083119392395 0.08235294371843338 0.062745101749897 0.05098039284348488
0.9238916039466858 0.0603189654648304 0.0071146246045827866 0.5411764979362488 0.545098066329956 0.4901960790157318
0.9600985050201416 0.029685772955417633 0.9869565367698669 0.3019607961177826 0.27450981736183167 0.20392157137393951
0.8896551728248596 0.004894994664937258 0.9197628498077393 0.19607843458652496 0.14509804546833038 0.10980392247438431
0.9975369572639465 0.034580767154693604 0.4154150187969208 0.08627451211214066 0.0941176488995552 0.09019608050584793
0.9798029661178589 0.04910784959793091 0.9766798615455627 0.35686275362968445 0.32549020648002625 0.23529411852359772
0.9583743810653687 0.007737249135971069 0.8889328241348267 0.1882352977991104 0.13725490868091583 0.10588235408067703
0.9820197224617004 0.09979472309350967 0.9355731010437012 0.4313725531101227 0.4000000059604645 0.32549020648002625
0.9029556512832642 0.005052897613495588 0.9142292737960815 0.20000000298023224 0.15294118225574493 0.10588235408067703
0.951724112033844 0.12395389378070831 0.9865612387657166 0.32549020648002625 0.29411765933036804 0.24313725531101227
0.9243842363357544 0.015474498271942139 0.9869565367698669 0.11372549086809158 0.0941176488995552 0.07058823853731155
0.9950739145278931 0.08716247975826263 0.005533596966415644 0.20392157137393951 0.2549019753932953 0.2862745225429535
0.9694581031799316 0.15142902731895447 0.0063241105526685715 0.6000000238418579 0.6117647290229797 0.529411792755127
0.8967980146408081 0.15111321210861206 0.0063241105526685715 0.5372549295425415 0.5529412031173706 0.4470588266849518
0.9798029661178589 0.13421759009361267 0.9861660003662109 0.30980393290519714 0.2823529541492462 0.21176470816135406
0.9805418848991394 0.08668877184391022 0.8466402888298035 0.21176470816135406 0.19607843458652496 0.18431372940540314
0.8711822628974915 0.042949628084897995 0.28498023748397827 0.7137255072593689 0.48235294222831726 0.24705882370471954
0.9815270900726318 0.055897679179906845 0.8814229369163513 0.5137255191802979 0.47058823704719543 0.3921568691730499
0.9320197105407715 0.07437233626842499 0.0071146246045827866 0.45098039507865906 0.4588235318660736 0.40392157435417175
0.949999988079071 0.1525343507528305 0.0063241105526685715 0.48235294222831726 0.49803921580314636 0.40784314274787903
0.9394088387489319 0.04200221225619316 0.15533596277236938 0.5921568870544434 0.3843137323856354 0.18039216101169586
0.9756157398223877 0.04089688882231712 0.8509881496429443 0.05882352963089943 0.054901961237192154 0.0470588244497776
0.9830049276351929 0.03284383565187454 0.13399209082126617 0.19607843458652496 0.11372549086809158 0.0470588244497776
0.867241382598877 0.09916311502456665 0.006719367578625679 0.5254902243614197 0.5490196347236633 0.4470588266849518
0.9785714149475098 0.06695089489221573 0.8486166000366211 0.0784313753247261 0.062745101749897 0.05098039284348488
0.9381773471832275 0.04216011241078377 0.10276679694652557 0.5764706134796143 0.35686275362968445 0.1568627506494522
0.9477832317352295 0.07405652850866318 0.9869565367698669 0.3333333432674408 0.2980392277240753 0.23137255012989044
0.9073891639709473 0.005210800562053919 0.9063240885734558 0.20000000298023224 0.14901961386203766 0.11372549086809158
0.8637930750846863 0.042949628084897995 0.2442687749862671 0.6352941393852234 0.4000000059604645 0.19607843458652496
0.9879310131072998 0.03679141029715538 0.5268774628639221 0.06666667014360428 0.08235294371843338 0.0784313753247261
0.9162561297416687 0.04200221225619316 0.28774702548980713 0.6549019813537598 0.4156862795352936 0.20000000298023224
0.9581280946731567 0.03679141029715538 0.9869565367698669 0.32156863808631897 0.3019607961177826 0.22745098173618317
0.9546797871589661 0.04058108478784561 0.5438734889030457 0.5058823823928833 0.37254902720451355 0.18431372940540314
0.9805418848991394 0.13863886892795563 0.9861660003662109 0.32156863808631897 0.29411765933036804 0.2235294133424759
0.9763546586036682 0.03773882985115051 0.10276679694652557 0.545098066329956 0.3686274588108063 0.13725490868091583
0.9825122952461243 0.12742775678634644 0.9719367623329163 0.3607843220233917 0.3333333432674408 0.2705882489681244
0.9034482836723328 0.04168640449643135 0.6490118503570557 0.5843137502670288 0.46666666865348816 0.35686275362968445
0.882758617401123 0.005210800562053919 0.8905138373374939 0.23137255012989044 0.1764705926179886 0.125490203499794
0.9866995215415955 0.034580767154693604 0.06521739065647125 0.12156862765550613 0.125490203499794 0.10588235408067703
0.9376847147941589 0.024317068979144096 0.9873517751693726 0.24705882370471954 0.2235294133424759 0.16862745583057404
0.9660098552703857 0.10595294833183289 0.9861660003662109 0.2980392277240753 0.27843138575553894 0.20392157137393951
0.9862068891525269 0.03473867103457451 0.6830039620399475 0.5607843399047852 0.5137255191802979 0.4588235318660736
0.9472906589508057 0.04168640449643135 0.21225295960903168 0.6235294342041016 0.3843137323856354 0.1725490242242813
0.9862068891525269 0.1064266562461853 0.8415019512176514 0.07450980693101883 0.0784313753247261 0.08627451211214066
0.8753694295883179 0.060792673379182816 0.9889327883720398 0.32549020648002625 0.29411765933036804 0.24313725531101227
0.881280779838562 0.14479710161685944 0.9889327883720398 0.30980393290519714 0.27843138575553894 0.23529411852359772
0.9009852409362793 0.04231801629066467 0.23003952205181122 0.615686297416687 0.3803921639919281 0.16862745583057404
0.9593595862388611 0.03963366523385048 0.7466403245925903 0.35686275362968445 0.2549019753932953 0.14901961386203766
0.8999999761581421 0.06931943446397781 0.9885375499725342 0.25882354378700256 0.239215686917305 0.16470588743686676
0.9817733764648438 0.0975840836763382 0.9466403126716614 0.41960784792900085 0.38823530077934265 0.2980392277240753
0.9807881712913513 0.044370755553245544 0.9296442866325378 0.43921568989753723 0.4117647111415863 0.33725491166114807
0.9822660088539124 0.09868940711021423 0.9256917238235474 0.4588235318660736 0.4274509847164154 0.3450980484485626
0.8645319938659668 0.14874467253684998 0.006719367578625679 0.6274510025978088 0.6196078658103943 0.5686274766921997
0.9758620858192444 0.03994946926832199 0.009881422854959965 0.32549020648002625 0.21568627655506134 0.16862745583057404
0.9507389068603516 0.05621348321437836 0.9869565367698669 0.29411765933036804 0.2666666805744171 0.1921568661928177
0.9571428298950195 0.14779725670814514 0.005928853526711464 0.545098066329956 0.5568627715110779 0.48235294222831726
0.9076354503631592 0.04073898494243622 0.8015810251235962 0.3686274588108063 0.2549019753932953 0.13725490868091583
0.8645319938659668 0.0431075319647789 0.32529643177986145 0.6784313917160034 0.45490196347236633 0.239215686917305
0.8738916516304016 0.04279172420501709 0.4628458619117737 0.6745098233222961 0.46666666865348816 0.2705882489681244
0.9866995215415955 0.03537028282880783 0.6509881615638733 0.5411764979362488 0.5098039507865906 0.4588235318660736
0.9775862097740173 0.05147639289498329 0.006719367578625679 0.3803921639919281 0.3843137323856354 0.32156863808631897
0.9812808036804199 0.06852992624044418 0.844268798828125 0.08235294371843338 0.09019608050584793 0.0784313753247261
0.9142857193946838 0.04073898494243622 0.7727272510528564 0.4274509847164154 0.30588236451148987 0.1921568661928177
0.9546797871589661 0.0402652770280838 0.6039525866508484 0.5176470875740051 0.3803921639919281 0.23137255012989044
0.9275861978530884 0.026369808241724968 0.9873517751693726 0.250980406999588 0.22745098173618317 0.16470588743686676
0.8758620619773865 0.039475761353969574 0.9881423115730286 0.30588236451148987 0.27450981736183167 0.2235294133424759
0.934236466884613 0.13074372708797455 0.005928853526711464 0.5333333611488342 0.545098066329956 0.4627451002597809
0.9788177609443665 0.030001578852534294 0.9679841995239258 0.38823530077934265 0.35686275362968445 0.2666666805744171
0.9224137663841248 0.10484762489795685 0.9877470135688782 0.3333333432674408 0.29411765933036804 0.24705882370471954
0.979556679725647 0.038370441645383835 0.5664031505584717 0.20000000298023224 0.13333334028720856 0.054901961237192154
0.9679803252220154 0.11037422716617584 0.005533596966415644 0.4274509847164154 0.45490196347236633 0.3921568691730499
0.9812808036804199 0.10216327011585236 0.8573122620582581 0.0941176488995552 0.10588235408067703 0.1411764770746231
0.9987684488296509 0.03394915536046028 0.37707510590553284 0.1568627506494522 0.1411764770746231 0.12941177189350128
0.9147783517837524 0.10690036416053772 0.0071146246045827866 0.6509804129600525 0.6431372761726379 0.5843137502670288
0.9798029661178589 0.04421285167336464 0.9648221135139465 0.3921568691730499 0.3490196168422699 0.26274511218070984
0.9802955389022827 0.10295278578996658 0.9857707619667053 0.32549020648002625 0.29411765933036804 0.21960784494876862
0.889162540435791 0.08842570334672928 0.006719367578625679 0.49803921580314636 0.4901960790157318 0.4313725531101227
0.9068965315818787 0.04216011241078377 0.19169960916042328 0.6313725709915161 0.38823530077934265 0.1882352977991104
0.9123152494430542 0.049265749752521515 0.9881423115730286 0.33725491166114807 0.29411765933036804 0.21568627655506134
0.9815270900726318 0.07784619927406311 0.9849802255630493 0.3450980484485626 0.3019607961177826 0.21568627655506134
0.9802955389022827 0.02210642583668232 0.8865612745285034 0.4627451002597809 0.3450980484485626 0.21176470816135406
0.9807881712913513 0.03473867103457451 0.7660079002380371 0.18431372940540314 0.1725490242242813 0.13725490868091583
0.8746305704116821 0.00473709125071764 0.9241106510162354 0.1921568661928177 0.1411764770746231 0.10588235408067703
0.9758620858192444 0.07831991463899612 0.0063241105526685715 0.6274510025978088 0.6431372761726379 0.5843137502670288
0.8630542159080505 0.04279172420501709 0.626086950302124 0.615686297416687 0.47843137383461 0.3921568691730499
0.9692118167877197 0.039791569113731384 0.6162055134773254 0.3843137323856354 0.2823529541492462 0.1764705926179886
0.9551724195480347 0.04089688882231712 0.4624505937099457 0.5921568870544434 0.40784314274787903 0.22745098173618317
0.998275876045227 0.14716564118862152 0.8403161764144897 0.0941176488995552 0.10980392247438431 0.12156862765550613
0.9561576247215271 0.12805937230587006 0.9865612387657166 0.3176470696926117 0.2862745225429535 0.23529411852359772
0.993842363357544 0.09647876024246216 0.8418972492218018 0.07450980693101883 0.0784313753247261 0.08627451211214066
0.883004903793335 0.04216011241078377 0.6928853988647461 0.6235294342041016 0.5137255191802979 0.4274509847164154
0.9975369572639465 0.12774357199668884 0.8418972492218018 0.09019608050584793 0.0941176488995552 0.10980392247438431
0.8677340149879456 0.14542870223522186 0.006719367578625679 0.5607843399047852 0.5921568870544434 0.501960813999176
0.9184728860855103 0.04168640449643135 0.5316205620765686 0.5803921818733215 0.4274509847164154 0.27450981736183167
0.9566502571105957 0.04200221225619316 0.14822134375572205 0.5803921818733215 0.3803921639919281 0.16470588743686676
0.93916255235672 0.04089688882231712 0.9873517751693726 0.33725491166114807 0.30980393290519714 0.239215686917305
0.9044334888458252 0.04200221225619316 0.5071146488189697 0.6823529601097107 0.5098039507865906 0.3333333432674408
0.8689655065536499 0.03821253776550293 0.9881423115730286 0.34117648005485535 0.3137255012989044 0.24313725531101227
0.8822659850120544 0.04231801629066467 0.6403161883354187 0.6470588445663452 0.501960813999176 0.3960784375667572
0.9820197224617004 0.11621664464473724 0.9509881138801575 0.3960784375667572 0.37254902720451355 0.2862745225429535
0.928078830242157 0.033475447446107864 0.9877470135688782 0.250980406999588 0.24313725531101227 0.1921568661928177
0.9566502571105957 0.04200221225619316 0.14822134375572205 0.5803921818733215 0.3803921639919281 0.16470588743686676
0.8677340149879456 0.04910784959793091 0.9885375499725342 0.3019607961177826 0.27450981736183167 0.21176470816135406
0.865517258644104 0.11905889958143234 0.006719367578625679 0.5764706134796143 0.5607843399047852 0.5176470875740051
0.9894088506698608 0.035212378948926926 0.626086950302124 0.10980392247438431 0.10588235408067703 0.08627451211214066
0.9798029661178589 0.035528186708688736 0.9494071006774902 0.4000000059604645 0.37254902720451355 0.2980392277240753
0.9756157398223877 0.008368861861526966 0.9106719493865967 0.1725490242242813 0.1411764770746231 0.09019608050584793
0.8943349719047546 0.04168640449643135 0.6818181872367859 0.5333333611488342 0.43529412150382996 0.3137255012989044
0.9847290515899658 0.15727142989635468 0.006719367578625679 0.5058823823928833 0.49803921580314636 0.4000000059604645
0.9162561297416687 0.04168640449643135 0.5604743361473083 0.5882353186607361 0.4470588266849518 0.3137255012989044
0.9435960650444031 0.03994946926832199 0.7482213377952576 0.4901960790157318 0.3607843220233917 0.23137255012989044
0.9958128333091736 0.14874467253684998 0.005928853526711464 0.18431372940540314 0.21960784494876862 0.20000000298023224
0.9822660088539124 0.08084636181592941 0.9217391014099121 0.46666666865348816 0.4431372582912445 0.3490196168422699
0.8706896305084229 0.04358123987913132 0.011067193932831287 0.14509804546833038 0.10196078568696976 0.0313725508749485
0.9766010046005249 0.008684667758643627 0.8841897249221802 0.18431372940540314 0.14509804546833038 0.09803921729326248
0.9480295777320862 0.040107373148202896 0.6596838235855103 0.4431372582912445 0.32549020648002625 0.1921568661928177
0.9958128333091736 0.0860571637749672 0.8422924876213074 0.07058823853731155 0.0784313753247261 0.07450980693101883
0.9551724195480347 0.04105479270219803 0.39762845635414124 0.6509804129600525 0.45098039507865906 0.22745098173618317
0.9147783517837524 0.10090004652738571 0.9877470135688782 0.3294117748737335 0.3019607961177826 0.23137255012989044
0.9825122952461243 0.1410074234008789 0.947035551071167 0.40784314274787903 0.3803921639919281 0.30980393290519714
0.9751231670379639 0.03852834179997444 0.14940711855888367 0.5490196347236633 0.3450980484485626 0.14901961386203766
0.9815270900726318 0.12805937230587006 0.8806324005126953 0.529411792755127 0.4901960790157318 0.3921568691730499
0.9830049276351929 0.03789673000574112 0.5509881377220154 0.09019608050584793 0.08627451211214066 0.10588235408067703
0.9073891639709473 0.1550607979297638 0.9881423115730286 0.33725491166114807 0.30588236451148987 0.26274511218070984
0.9869458079338074 0.03631770238280296 0.4284585118293762 0.21568627655506134 0.1882352977991104 0.1568627506494522
0.8943349719047546 0.04231801629066467 0.3537549376487732 0.6901960968971252 0.46666666865348816 0.250980406999588
0.9275861978530884 0.006316122133284807 0.8814229369163513 0.16862745583057404 0.125490203499794 0.10196078568696976
0.9472906589508057 0.007263540290296078 0.8802371621131897 0.15294118225574493 0.125490203499794 0.08627451211214066
0.8805418610572815 0.10516343265771866 0.006719367578625679 0.4470588266849518 0.4627451002597809 0.40392157435417175
0.9192118048667908 0.041528500616550446 0.573913037776947 0.5568627715110779 0.41960784792900085 0.29411765933036804
0.9763546586036682 0.03900205343961716 0.5106719136238098 0.6392157077789307 0.43529412150382996 0.24705882370471954
0.8738916516304016 0.04263382405042648 0.6292490363121033 0.46666666865348816 0.3607843220233917 0.24705882370471954
0.9435960650444031 0.03994946926832199 0.7375494241714478 0.4627451002597809 0.34117648005485535 0.23137255012989044
0.8731527328491211 0.12505921721458435 0.9893280863761902 0.3137255012989044 0.29019609093666077 0.24313725531101227
0.9231526851654053 0.04073898494243622 0.6932806372642517 0.5803921818733215 0.4274509847164154 0.3137255012989044
0.9529556632041931 0.04073898494243622 0.5185770988464355 0.5921568870544434 0.4274509847164154 0.23137255012989044
0.9337438344955444 0.12726984918117523 0.9873517751693726 0.32549020648002625 0.2980392277240753 0.23529411852359772
0.9790640473365784 0.052108004689216614 0.006719367578625679 0.5372549295425415 0.5411764979362488 0.48627451062202454
0.9822660088539124 0.1236380860209465 0.8679841756820679 0.239215686917305 0.2235294133424759 0.18039216101169586
0.984236478805542 0.03331754356622696 0.18063241243362427 0.03921568766236305 0.062745101749897 0.10980392247438431
0.979556679725647 0.020843202248215675 0.9146245121955872 0.5058823823928833 0.3686274588108063 0.25882354378700256
0.8852216601371765 0.15758724510669708 0.0063241105526685715 0.5372549295425415 0.5490196347236633 0.4745098054409027
0.881280779838562 0.04279172420501709 0.27233201265335083 0.6352941393852234 0.41960784792900085 0.20000000298023224
0.9714285731315613 0.13658612966537476 0.9861660003662109 0.26274511218070984 0.23137255012989044 0.18039216101169586
0.8633005023002625 0.04247592017054558 0.7256916761398315 0.572549045085907 0.45490196347236633 0.4117647111415863
0.9773399233818054 0.13453339040279388 0.005138339940458536 0.5607843399047852 0.6000000238418579 0.4941176474094391
0.9660098552703857 0.04168640449643135 0.20513834059238434 0.7019608020782471 0.4431372582912445 0.20392157137393951
0.9214285612106323 0.0805305540561676 0.9877470135688782 0.2980392277240753 0.2705882489681244 0.20000000298023224
0.9807881712913513 0.06126638129353523 0.9770750999450684 0.35686275362968445 0.3137255012989044 0.23529411852359772
0.9108374118804932 0.04168640449643135 0.5976284742355347 0.6039215922355652 0.47058823704719543 0.3607843220233917
0.9236453175544739 0.04168640449643135 0.4213438630104065 0.6823529601097107 0.4588235318660736 0.250980406999588
0.9450739026069641 0.11637454479932785 0.005928853526711464 0.5411764979362488 0.572549045085907 0.5215686559677124
0.9990147948265076 0.03126480430364609 0.7577075362205505 0.05882352963089943 0.07450980693101883 0.08627451211214066
0.926600992679596 0.04058108478784561 0.7249011993408203 0.48627451062202454 0.3450980484485626 0.20392157137393951
0.9822660088539124 0.10168956220149994 0.9221343994140625 0.4627451002597809 0.4313725531101227 0.3490196168422699
0.9756157398223877 0.008210958912968636 0.9272727370262146 0.1411764770746231 0.10980392247438431 0.09803921729326248
0.9229063987731934 0.04216011241078377 0.12648221850395203 0.6000000238418579 0.3764705955982208 0.16078431904315948
0.926354706287384 0.041844308376312256 0.08735177665948868 0.5529412031173706 0.3450980484485626 0.14901961386203766
0.9007388949394226 0.04200221225619316 0.5857707262039185 0.545098066329956 0.4117647111415863 0.27450981736183167
0.8945812582969666 0.04231801629066467 0.46086955070495605 0.658823549747467 0.47058823704719543 0.29019609093666077
0.9918718934059143 0.11432180553674698 0.8415019512176514 0.08627451211214066 0.09019608050584793 0.10980392247438431
0.9879310131072998 0.04563397914171219 0.0063241105526685715 0.48235294222831726 0.48627451062202454 0.4627451002597809
0.9817733764648438 0.11921679973602295 0.8905138373374939 0.5137255191802979 0.47058823704719543 0.3843137323856354
0.9778324961662292 0.03773882985115051 0.4320158064365387 0.5176470875740051 0.364705890417099 0.20392157137393951
0.9704433679580688 0.040423180907964706 0.4545454680919647 0.572549045085907 0.3921568691730499 0.250980406999588
0.9256157875061035 0.041528500616550446 0.47549405694007874 0.6470588445663452 0.4431372582912445 0.2549019753932953
0.9258620738983154 0.04168640449643135 0.395652174949646 0.6784313917160034 0.43921568989753723 0.22745098173618317
0.9657635688781738 0.07137218117713928 0.006719367578625679 0.5058823823928833 0.5098039507865906 0.45490196347236633
0.998522162437439 0.03047528862953186 0.8252964615821838 0.062745101749897 0.05882352963089943 0.0784313753247261
0.9672414064407349 0.09253118932247162 0.9861660003662109 0.30588236451148987 0.27843138575553894 0.2078431397676468
0.9305418729782104 0.0402652770280838 0.7387351989746094 0.4431372582912445 0.32156863808631897 0.2078431397676468
0.9364532232284546 0.04137059673666954 0.4051383435726166 0.658823549747467 0.4745098054409027 0.2705882489681244
0.9192118048667908 0.10958471149206161 0.006719367578625679 0.572549045085907 0.5843137502670288 0.5176470875740051
0.9386699795722961 0.04168640449643135 0.22648221254348755 0.5490196347236633 0.37254902720451355 0.14901961386203766
0.9628078937530518 0.04137059673666954 0.2715415060520172 0.7098039388656616 0.43921568989753723 0.2235294133424759
0.8761083483695984 0.041844308376312256 0.8075098991394043 0.4274509847164154 0.3137255012989044 0.19607843458652496
0.9916256070137024 0.13437549769878387 0.8395256996154785 0.1568627506494522 0.1725490242242813 0.18431372940540314
0.9443349838256836 0.08526764810085297 0.006719367578625679 0.3960784375667572 0.40392157435417175 0.3490196168422699
0.9458128213882446 0.04089688882231712 0.08458498120307922 0.5843137502670288 0.3529411852359772 0.13333334028720856
0.8935960531234741 0.041212696582078934 0.8205533623695374 0.34117648005485535 0.239215686917305 0.14901961386203766
0.9704433679580688 0.021632717922329903 0.9865612387657166 0.25882354378700256 0.21960784494876862 0.18039216101169586
0.9820197224617004 0.0948997288942337 0.9747035503387451 0.364705890417099 0.3333333432674408 0.25882354378700256
0.9024630784988403 0.04231801629066467 0.13952569663524628 0.5921568870544434 0.35686275362968445 0.16078431904315948
0.9812808036804199 0.04721301048994064 0.8873517513275146 0.4901960790157318 0.4588235318660736 0.3843137323856354
0.9509851932525635 0.11811147630214691 0.005928853526711464 0.6431372761726379 0.6509804129600525 0.6000000238418579
0.8704433441162109 0.04216011241078377 0.7841897010803223 0.43921568989753723 0.32156863808631897 0.21176470816135406
0.9751231670379639 0.03884414955973625 0.10355731099843979 0.5137255191802979 0.3529411852359772 0.13333334028720856
0.9817733764648438 0.10468971729278564 0.9355731010437012 0.43529412150382996 0.40392157435417175 0.3294117748737335
0.9879310131072998 0.039475761353969574 0.8375493884086609 0.0470588244497776 0.04313725605607033 0.03529411926865578
0.9120689630508423 0.04073898494243622 0.036758892238140106 0.5215686559677124 0.32549020648002625 0.13333334028720856
0.9763546586036682 0.03789673000574112 0.625296413898468 0.529411792755127 0.33725491166114807 0.21176470816135406
0.9455664753913879 0.08779409527778625 0.9869565367698669 0.3294117748737335 0.3019607961177826 0.23137255012989044
0.9802955389022827 0.10295278578996658 0.9857707619667053 0.32549020648002625 0.29411765933036804 0.21960784494876862
0.9980295300483704 0.08826780319213867 0.8422924876213074 0.07058823853731155 0.0784313753247261 0.07450980693101883
0.9660098552703857 0.03963366523385048 0.6853755116462708 0.4431372582912445 0.30588236451148987 0.1568627506494522
0.9017241597175598 0.04089688882231712 0.8300395011901855 0.3019607961177826 0.21568627655506134 0.13333334028720856
0.9901477694511414 0.08005684614181519 0.8407114744186401 0.12156862765550613 0.125490203499794 0.13333334028720856
0.9123152494430542 0.04216011241078377 0.13320158421993256 0.5803921818733215 0.35686275362968445 0.14901961386203766
0.9110837578773499 0.12411179393529892 0.9877470135688782 0.34117648005485535 0.30588236451148987 0.24705882370471954
0.9177339673042297 0.04989736154675484 0.007509881630539894 0.49803921580314636 0.501960813999176 0.48235294222831726
0.9192118048667908 0.04105479270219803 0.655731201171875 0.5686274766921997 0.4313725531101227 0.30588236451148987
0.9618226885795593 0.04089688882231712 0.09169960767030716 0.5686274766921997 0.33725491166114807 0.11764705926179886
0.9704433679580688 0.021632717922329903 0.9865612387657166 0.25882354378700256 0.21960784494876862 0.18039216101169586
0.9362068772315979 0.07516185194253922 0.9873517751693726 0.30980393290519714 0.2823529541492462 0.21176470816135406
0.8800492882728577 0.02384336106479168 0.9873517751693726 0.25882354378700256 0.23529411852359772 0.1725490242242813
0.8995074033737183 0.04168640449643135 0.6695652008056641 0.5882353186607361 0.4627451002597809 0.37254902720451355
0.9689655303955078 0.04200221225619316 0.12845849990844727 0.6274510025978088 0.42352941632270813 0.22745098173618317
0.8768472671508789 0.04231801629066467 0.6960474252700806 0.6196078658103943 0.5254902243614197 0.4313725531101227
0.9241379499435425 0.040107373148202896 0.8150197863578796 0.34117648005485535 0.24705882370471954 0.14509804546833038
0.9825122952461243 0.14006000757217407 0.9494071006774902 0.40784314274787903 0.3803921639919281 0.30980393290519714
0.8822659850120544 0.04247592017054558 0.5205533504486084 0.5647059082984924 0.4000000059604645 0.250980406999588
0.934236466884613 0.06647717952728271 0.9873517751693726 0.32156863808631897 0.29411765933036804 0.2235294133424759
1.0 0.0301594827324152 0.8363636136054993 0.06666667014360428 0.062745101749897 0.0470588244497776
0.9815270900726318 0.057318806648254395 0.9169960618019104 0.47058823704719543 0.4274509847164154 0.34117648005485535
0.8802955746650696 0.04279172420501709 0.17509882152080536 0.5607843399047852 0.34117648005485535 0.14901961386203766
0.8650246262550354 0.07342492043972015 0.0071146246045827866 0.615686297416687 0.6274510025978088 0.5529412031173706
0.9830049276351929 0.09584715217351913 0.8885375261306763 0.5176470875740051 0.4901960790157318 0.4156862795352936
0.9588670134544373 0.039791569113731384 0.6766798496246338 0.4627451002597809 0.32156863808631897 0.18039216101169586
0.9229063987731934 0.1410074234008789 0.9877470135688782 0.27843138575553894 0.2549019753932953 0.1921568661928177
0.9389162659645081 0.13705985248088837 0.9873517751693726 0.33725491166114807 0.30588236451148987 0.2549019753932953
0.8847290873527527 0.14590241014957428 0.006719367578625679 0.529411792755127 0.49803921580314636 0.45490196347236633
0.928078830242157 0.05037107318639755 0.9877470135688782 0.3333333432674408 0.30588236451148987 0.23137255012989044
0.9081280827522278 0.05431864783167839 0.9885375499725342 0.3333333432674408 0.30588236451148987 0.23137255012989044
0.9802955389022827 0.11858519166707993 0.005138339940458536 0.5647059082984924 0.5647059082984924 0.5176470875740051
0.9802955389022827 0.02526448853313923 0.8873517513275146 0.45490196347236633 0.3176470696926117 0.2078431397676468
0.9278324842453003 0.11053213477134705 0.006719367578625679 0.5803921818733215 0.5843137502670288 0.529411792755127
0.8879310488700867 0.05195010080933571 0.9885375499725342 0.33725491166114807 0.30980393290519714 0.239215686917305
0.9568965435028076 0.1462182253599167 0.005928853526711464 0.5254902243614197 0.5372549295425415 0.4627451002597809
0.8834975361824036 0.006947733927518129 0.8786561489105225 0.250980406999588 0.19607843458652496 0.14509804546833038
0.9911330342292786 0.11305858194828033 0.005138339940458536 0.5490196347236633 0.6117647290229797 0.6117647290229797
0.9435960650444031 0.041844308376312256 0.17549407482147217 0.5921568870544434 0.3686274588108063 0.16078431904315948
0.9926108121871948 0.10405810922384262 0.005138339940458536 0.6823529601097107 0.7333333492279053 0.7686274647712708
0.8770936131477356 0.04263382405042648 0.5584980249404907 0.6352941393852234 0.46666666865348816 0.3333333432674408
0.979556679725647 0.017685141414403915 0.9106719493865967 0.5215686559677124 0.3686274588108063 0.24705882370471954
0.9416255950927734 0.041212696582078934 0.4063241183757782 0.6431372761726379 0.4431372582912445 0.25882354378700256
0.9825122952461243 0.08116216957569122 0.8936758637428284 0.501960813999176 0.4745098054409027 0.40392157435417175
0.9798029661178589 0.013105953112244606 0.8913043737411499 0.545098066329956 0.3921568691730499 0.27843138575553894
0.9527093768119812 0.029212063178420067 0.9869565367698669 0.3137255012989044 0.29411765933036804 0.21960784494876862
0.931280791759491 0.041212696582078934 0.015019763261079788 0.5490196347236633 0.3607843220233917 0.1725490242242813
0.9307881593704224 0.04073898494243622 0.6679841876029968 0.501960813999176 0.3607843220233917 0.22745098173618317
0.9128078818321228 0.1547449827194214 0.9881423115730286 0.3333333432674408 0.3019607961177826 0.25882354378700256
0.9120689630508423 0.11905889958143234 0.006719367578625679 0.5764706134796143 0.5803921818733215 0.5098039507865906
0.9748768210411072 0.058739934116601944 0.8533596992492676 0.0784313753247261 0.0784313753247261 0.08627451211214066
0.9987684488296509 0.0833728089928627 0.842687726020813 0.07058823853731155 0.0784313753247261 0.07450980693101883
0.9815270900726318 0.14227063953876495 0.8782608509063721 0.5254902243614197 0.49803921580314636 0.3960784375667572
0.9977832436561584 0.14748144149780273 0.8399209380149841 0.08627451211214066 0.10196078568696976 0.11372549086809158
0.9182265996932983 0.04168640449643135 0.4735177755355835 0.5921568870544434 0.41960784792900085 0.23529411852359772
0.866995096206665 0.005052897613495588 0.9505928754806519 0.16470588743686676 0.125490203499794 0.09019608050584793
0.8864532113075256 0.12726984918117523 0.9889327883720398 0.30980393290519714 0.2823529541492462 0.21960784494876862
0.9165024757385254 0.04231801629066467 0.11146245151758194 0.572549045085907 0.364705890417099 0.16862745583057404
0.8972906470298767 0.04105479270219803 0.8007904887199402 0.3764705955982208 0.25882354378700256 0.1568627506494522
0.9817733764648438 0.10942681133747101 0.9245059490203857 0.46666666865348816 0.42352941632270813 0.3450980484485626
0.9620689749717712 0.13042791187763214 0.005138339940458536 0.6000000238418579 0.6117647290229797 0.545098066329956
0.9135468006134033 0.006631928030401468 0.9628458619117737 0.16470588743686676 0.125490203499794 0.09019608050584793
0.8977832794189453 0.053844939917325974 0.007509881630539894 0.5215686559677124 0.4941176474094391 0.45490196347236633
0.8763546943664551 0.04263382405042648 0.4632411003112793 0.6823529601097107 0.47058823704719543 0.2862745225429535
0.9413793087005615 0.03994946926832199 0.06126482039690018 0.5568627715110779 0.3490196168422699 0.14509804546833038
0.9130541682243347 0.041844308376312256 0.4632411003112793 0.6901960968971252 0.43529412150382996 0.2705882489681244
0.943842351436615 0.05226590856909752 0.0071146246045827866 0.5215686559677124 0.5215686559677124 0.4745098054409027
0.9788177609443665 0.035528186708688736 0.12173912674188614 0.6431372761726379 0.40784314274787903 0.21176470816135406
0.9064039587974548 0.04216011241078377 0.24268774688243866 0.615686297416687 0.3803921639919281 0.16862745583057404
0.9243842363357544 0.019737880676984787 0.9869565367698669 0.24313725531101227 0.20392157137393951 0.1568627506494522
0.9231526851654053 0.006000315770506859 0.8849802613258362 0.20392157137393951 0.16470588743686676 0.125490203499794
0.8950738906860352 0.04547607898712158 0.007905138656497002 0.501960813999176 0.4901960790157318 0.3686274588108063
0.942364513874054 0.040107373148202896 0.7063241004943848 0.49803921580314636 0.35686275362968445 0.2235294133424759
0.9815270900726318 0.035528186708688736 0.3177865743637085 0.38823530077934265 0.22745098173618317 0.11764705926179886
0.9086207151412964 0.04216011241078377 0.2972331941127777 0.658823549747467 0.4588235318660736 0.21176470816135406
0.8645319938659668 0.05021316930651665 0.9885375499725342 0.30980393290519714 0.2823529541492462 0.21960784494876862
0.9694581031799316 0.15142902731895447 0.0063241105526685715 0.6000000238418579 0.6117647290229797 0.529411792755127
0.9034482836723328 0.041212696582078934 0.03122529573738575 0.5254902243614197 0.32549020648002625 0.1411764770746231
0.9652709364891052 0.04073898494243622 0.41857707500457764 0.5803921818733215 0.3843137323856354 0.18431372940540314
0.9766010046005249 0.008684667758643627 0.8841897249221802 0.18431372940540314 0.14509804546833038 0.09803921729326248
0.8768472671508789 0.04247592017054558 0.6335968375205994 0.6431372761726379 0.5215686559677124 0.4117647111415863
0.9864531755447388 0.03710721433162689 0.49169960618019104 0.07450980693101883 0.08235294371843338 0.0784313753247261
0.9822660088539124 0.07295120507478714 0.8984189629554749 0.49803921580314636 0.4745098054409027 0.38823530077934265
0.9832512140274048 0.0344228632748127 0.249802365899086 0.08627451211214066 0.0784313753247261 0.09019608050584793
0.9588670134544373 0.058739934116601944 0.0071146246045827866 0.4156862795352936 0.42352941632270813 0.3803921639919281
0.8689655065536499 0.1092689111828804 0.006719367578625679 0.5960784554481506 0.5843137502670288 0.5254902243614197
0.9756157398223877 0.07421442866325378 0.9857707619667053 0.3333333432674408 0.30980393290519714 0.2235294133424759
0.9945812821388245 0.14874467253684998 0.8387351632118225 0.13333334028720856 0.13333334028720856 0.13333334028720856
0.9246305227279663 0.04168640449643135 0.28814229369163513 0.6666666865348816 0.40392157435417175 0.1882352977991104
0.8852216601371765 0.04263382405042648 0.13320158421993256 0.6078431606292725 0.3764705955982208 0.21176470816135406
0.9300492405891418 0.041528500616550446 0.39249011874198914 0.686274528503418 0.4745098054409027 0.29019609093666077
0.8935960531234741 0.04216011241078377 0.613043487071991 0.6235294342041016 0.4901960790157318 0.3843137323856354
0.9807881712913513 0.034896574914455414 0.8920948505401611 0.45490196347236633 0.4117647111415863 0.3333333432674408
0.9012315273284912 0.14874467253684998 0.9885375499725342 0.3137255012989044 0.2823529541492462 0.239215686917305
0.9172413945198059 0.06663508713245392 0.0071146246045827866 0.5137255191802979 0.5215686559677124 0.47058823704719543
0.9709359407424927 0.041844308376312256 0.17312252521514893 0.5098039507865906 0.3294117748737335 0.20000000298023224
0.9199507236480713 0.04073898494243622 0.7379446625709534 0.501960813999176 0.37254902720451355 0.23529411852359772
0.9825122952461243 0.0862150639295578 0.9276679754257202 0.45490196347236633 0.42352941632270813 0.34117648005485535
0.9507389068603516 0.04105479270219803 0.3758893311023712 0.6549019813537598 0.4313725531101227 0.21568627655506134
0.8817734122276306 0.0978998914361 0.9889327883720398 0.32549020648002625 0.29019609093666077 0.23137255012989044
0.9426108598709106 0.04073898494243622 0.5679841637611389 0.4901960790157318 0.32549020648002625 0.16862745583057404
0.9512315392494202 0.041212696582078934 0.3019762933254242 0.6392157077789307 0.4274509847164154 0.1921568661928177
0.8916256427764893 0.04231801629066467 0.44071146845817566 0.6627451181411743 0.48235294222831726 0.27843138575553894
0.8620689511299133 0.04263382405042648 0.6865612864494324 0.6392157077789307 0.5686274766921997 0.5215686559677124
0.9591132998466492 0.04058108478784561 0.5102766752243042 0.501960813999176 0.3529411852359772 0.16078431904315948
0.9830049276351929 0.1468498408794403 0.9857707619667053 0.32549020648002625 0.29019609093666077 0.23137255012989044
0.9635468125343323 0.10832148790359497 0.005928853526711464 0.5058823823928833 0.501960813999176 0.48627451062202454
0.9093596339225769 0.04216011241078377 0.260474294424057 0.6392157077789307 0.40784314274787903 0.1882352977991104
0.8785714507102966 0.04247592017054558 0.6296442747116089 0.5960784554481506 0.4745098054409027 0.364705890417099
0.9130541682243347 0.041844308376312256 0.4632411003112793 0.6901960968971252 0.43529412150382996 0.2705882489681244
0.9822660088539124 0.11416390538215637 0.9616600871086121 0.3803921639919281 0.3529411852359772 0.2823529541492462
0.9623152613639832 0.14306016266345978 0.9865612387657166 0.29019609093666077 0.25882354378700256 0.2078431397676468
0.8746305704116821 0.033159639686346054 0.9877470135688782 0.27843138575553894 0.2549019753932953 0.1921568661928177
0.8682265877723694 0.04247592017054558 0.6920948624610901 0.5411764979362488 0.45490196347236633 0.40392157435417175
0.9633004665374756 0.04200221225619316 0.13992094993591309 0.5803921818733215 0.3843137323856354 0.15294118225574493
0.9825122952461243 0.09079425036907196 0.9359683990478516 0.43529412150382996 0.4117647111415863 0.32549020648002625
0.9440886974334717 0.041212696582078934 0.3237154185771942 0.6352941393852234 0.40392157435417175 0.13725490868091583
0.9182265996932983 0.04058108478784561 0.782608687877655 0.40392157435417175 0.26274511218070984 0.16078431904315948
0.873399019241333 0.04263382405042648 0.5403162240982056 0.6196078658103943 0.45490196347236633 0.30588236451148987
0.8770936131477356 0.0975840836763382 0.006719367578625679 0.5411764979362488 0.5254902243614197 0.4274509847164154
0.9495074152946472 0.09111005812883377 0.9865612387657166 0.32549020648002625 0.2980392277240753 0.22745098173618317
0.9812808036804199 0.046739302575588226 0.8826087117195129 0.48627451062202454 0.45490196347236633 0.3803921639919281
0.9362068772315979 0.02700142189860344 0.9873517751693726 0.2549019753932953 0.22745098173618317 0.16470588743686676
0.8837438225746155 0.14527080953121185 0.9889327883720398 0.32156863808631897 0.2980392277240753 0.250980406999588
0.9536945819854736 0.04168640449643135 0.20988142490386963 0.6274510025978088 0.3843137323856354 0.18431372940540314
0.9150246381759644 0.04216011241078377 0.12766797840595245 0.5921568870544434 0.364705890417099 0.16862745583057404
0.9024630784988403 0.04231801629066467 0.13399209082126617 0.5843137502670288 0.35686275362968445 0.16078431904315948
0.9157635569572449 0.041528500616550446 0.5980237126350403 0.6117647290229797 0.4313725531101227 0.3019607961177826
0.88768470287323 0.05431864783167839 0.007905138656497002 0.529411792755127 0.5058823823928833 0.45098039507865906
0.8679803013801575 0.04263382405042648 0.6363636255264282 0.6549019813537598 0.5176470875740051 0.40784314274787903
0.878078818321228 0.04263382405042648 0.47233203053474426 0.6823529601097107 0.46666666865348816 0.30588236451148987
0.9682266116142273 0.049265749752521515 0.9861660003662109 0.3019607961177826 0.2823529541492462 0.20392157137393951
0.993842363357544 0.155376598238945 0.8375493884086609 0.26274511218070984 0.25882354378700256 0.239215686917305
0.8857142925262451 0.04247592017054558 0.43478259444236755 0.6549019813537598 0.45490196347236633 0.27843138575553894
0.8684729337692261 0.042949628084897995 0.2920948565006256 0.6745098233222961 0.4431372582912445 0.2078431397676468
0.9990147948265076 0.10895310342311859 0.004743082914501429 0.7647058963775635 0.7803921699523926 0.6745098233222961
0.8862069249153137 0.04263382405042648 0.15256917476654053 0.5843137502670288 0.364705890417099 0.16470588743686676
0.9211822748184204 0.04452865943312645 0.9881423115730286 0.3450980484485626 0.3176470696926117 0.24313725531101227
0.8706896305084229 0.042949628084897995 0.28932806849479675 0.7215686440467834 0.48627451062202454 0.250980406999588
0.8852216601371765 0.041844308376312256 0.7264822125434875 0.5529412031173706 0.4313725531101227 0.3607843220233917
0.9366995096206665 0.05826622620224953 0.0071146246045827866 0.47843137383461 0.4901960790157318 0.45490196347236633
0.8982758522033691 0.0315806083381176 0.9877470135688782 0.25882354378700256 0.23137255012989044 0.16862745583057404
0.9825122952461243 0.13563871383666992 0.9509881138801575 0.40392157435417175 0.3686274588108063 0.3019607961177826
0.949999988079071 0.04168640449643135 0.20909090340137482 0.5333333611488342 0.3490196168422699 0.12941177189350128
0.9448275566101074 0.04216011241078377 0.11541502177715302 0.5960784554481506 0.3764705955982208 0.1764705926179886
0.9497537016868591 0.04105479270219803 0.4067193567752838 0.6784313917160034 0.49803921580314636 0.2666666805744171
0.9066502451896667 0.07721459120512009 0.006719367578625679 0.47058823704719543 0.47843137383461 0.42352941632270813
0.993596076965332 0.03568609058856964 0.5422924757003784 0.09803921729326248 0.08235294371843338 0.0784313753247261
0.9650246500968933 0.1290067881345749 0.9865612387657166 0.3137255012989044 0.2823529541492462 0.23137255012989044
0.8916256427764893 0.06631927937269211 0.0071146246045827866 0.6039215922355652 0.6274510025978088 0.5803921818733215
0.93916255235672 0.04089688882231712 0.5695652365684509 0.5215686559677124 0.3921568691730499 0.23137255012989044
0.9820197224617004 0.06821411848068237 0.9063240885734558 0.42352941632270813 0.3960784375667572 0.32156863808631897
0.8630542159080505 0.0431075319647789 0.4328063130378723 0.6235294342041016 0.4274509847164154 0.22745098173618317
0.9817733764648438 0.0975840836763382 0.9458497762680054 0.42352941632270813 0.3921568691730499 0.3019607961177826
0.9187192320823669 0.041844308376312256 0.4169960618019104 0.6196078658103943 0.43529412150382996 0.26274511218070984
0.8894088864326477 0.016264013946056366 0.9869565367698669 0.1921568661928177 0.16470588743686676 0.1411764770746231
0.9901477694511414 0.12490130960941315 0.004743082914501429 0.5215686559677124 0.5803921818733215 0.5921568870544434
0.9411330223083496 0.04216011241078377 0.10790514200925827 0.5764706134796143 0.3607843220233917 0.14901961386203766
0.8625615835189819 0.08668877184391022 0.9897233247756958 0.3137255012989044 0.2862745225429535 0.21568627655506134
0.942364513874054 0.15063950419425964 0.9873517751693726 0.3450980484485626 0.30588236451148987 0.2666666805744171
0.8667487502098083 0.042949628084897995 0.2347826063632965 0.615686297416687 0.3843137323856354 0.1568627506494522
0.9625615477561951 0.06947734206914902 0.9861660003662109 0.32549020648002625 0.29411765933036804 0.21960784494876862
0.9879310131072998 0.13911259174346924 0.005533596966415644 0.6117647290229797 0.6352941393852234 0.5803921818733215
0.9822660088539124 0.1007421463727951 0.9241106510162354 0.4588235318660736 0.4274509847164154 0.3450980484485626
0.9970443248748779 0.033475447446107864 0.6359683871269226 0.11372549086809158 0.11372549086809158 0.10588235408067703
0.9330049157142639 0.03994946926832199 0.8339921236038208 0.3294117748737335 0.23137255012989044 0.15294118225574493
0.8869457840919495 0.04247592017054558 0.5083004236221313 0.6745098233222961 0.4745098054409027 0.30588236451148987
0.9251231551170349 0.04168640449643135 0.260869562625885 0.6509804129600525 0.4117647111415863 0.20000000298023224
0.9325123429298401 0.041528500616550446 0.3758893311023712 0.6352941393852234 0.4588235318660736 0.20392157137393951
0.9665024876594543 0.040423180907964706 0.04268774762749672 0.572549045085907 0.4000000059604645 0.2078431397676468
0.9211822748184204 0.024474972859025 0.9873517751693726 0.250980406999588 0.2235294133424759 0.16078431904315948
0.9830049276351929 0.03426496312022209 0.23083004355430603 0.16078431904315948 0.10196078568696976 0.08235294371843338
0.8967980146408081 0.04531817510724068 0.007905138656497002 0.5215686559677124 0.5058823823928833 0.3921568691730499
0.9778324961662292 0.03631770238280296 0.14743083715438843 0.5882353186607361 0.3607843220233917 0.16470588743686676
0.9325123429298401 0.03994946926832199 0.8067193627357483 0.3921568691730499 0.27450981736183167 0.1725490242242813
0.8788177371025085 0.00473709125071764 0.9446640610694885 0.18039216101169586 0.1411764770746231 0.10196078568696976
0.8650246262550354 0.1380072683095932 0.9893280863761902 0.29019609093666077 0.26274511218070984 0.2235294133424759
0.9800492525100708 0.017685141414403915 0.8857707381248474 0.5372549295425415 0.3764705955982208 0.25882354378700256
0.9460591077804565 0.03963366523385048 0.030434781685471535 0.545098066329956 0.3607843220233917 0.1568627506494522
0.953201949596405 0.06379283219575882 0.0071146246045827866 0.6392157077789307 0.6470588445663452 0.6039215922355652
0.9012315273284912 0.04105479270219803 0.7648221254348755 0.47843137383461 0.3490196168422699 0.21176470816135406
0.9655172228813171 0.04137059673666954 0.10197628289461136 0.5803921818733215 0.37254902720451355 0.1764705926179886
0.8975369334220886 0.1234801858663559 0.9885375499725342 0.3137255012989044 0.2823529541492462 0.23137255012989044
0.9167487621307373 0.040423180907964706 0.8177865743637085 0.32549020648002625 0.22745098173618317 0.14901961386203766
0.9766010046005249 0.036949314177036285 0.2853755056858063 0.9647058844566345 0.6000000238418579 0.32549020648002625
0.8763546943664551 0.0402652770280838 0.9881423115730286 0.3294117748737335 0.3019607961177826 0.23137255012989044
0.8950738906860352 0.04105479270219803 0.8533596992492676 0.23529411852359772 0.18039216101169586 0.12941177189350128
0.866995096206665 0.04279172420501709 0.5090909004211426 0.6941176652908325 0.5098039507865906 0.3294117748737335
0.8879310488700867 0.12269067019224167 0.006719367578625679 0.5333333611488342 0.5372549295425415 0.46666666865348816
