0.9800492525100708 0.3592294454574585 0.041897233575582504 0.2549019753932953 0.21568627655506134 0.1764705926179886
0.9790640473365784 0.24080215394496918 0.04110671952366829 0.16078431904315948 0.14901961386203766 0.12941177189350128
0.9783251285552979 0.3505447506904602 0.7233201861381531 0.6039215922355652 0.6196078658103943 0.6313725709915161
0.9807881712913513 0.2529606819152832 0.10158102959394455 0.7019608020782471 0.7098039388656616 0.6274510025978088
0.9763546586036682 0.30617401003837585 0.4324110746383667 0.6901960968971252 0.7098039388656616 0.7333333492279053
0.9805418848991394 0.29196274280548096 0.08656126260757446 0.7254902124404907 0.7372549176216125 0.6627451181411743
0.9807881712913513 0.36901941895484924 0.2648221254348755 0.6980392336845398 0.7019608020782471 0.6470588445663452
0.9275861978530884 0.29954206943511963 0.0071146246045827866 0.47058823704719543 0.47843137383461 0.3921568691730499
0.9837438464164734 0.35465025901794434 0.9395256638526917 0.43529412150382996 0.40784314274787903 0.3450980484485626
0.9660098552703857 0.3101215958595276 0.9877470135688782 0.38823530077934265 0.37254902720451355 0.3294117748737335
0.9179803133010864 0.37738826870918274 0.9893280863761902 0.37254902720451355 0.364705890417099 0.3176470696926117
0.8899014592170715 0.24853940308094025 0.9905138611793518 0.3529411852359772 0.33725491166114807 0.29411765933036804
0.9130541682243347 0.36696669459342957 0.9897233247756958 0.37254902720451355 0.364705890417099 0.3176470696926117
0.9376847147941589 0.28912046551704407 0.0071146246045827866 0.45098039507865906 0.4431372582912445 0.3529411852359772
0.9830049276351929 0.33712300658226013 0.8592885136604309 0.5607843399047852 0.5372549295425415 0.45098039507865906
0.9692118167877197 0.39207327365875244 0.9877470135688782 0.3333333432674408 0.30980393290519714 0.26274511218070984
0.9773399233818054 0.27427759766578674 0.36600789427757263 0.7450980544090271 0.7647058963775635 0.7803921699523926
0.9770935773849487 0.32622769474983215 0.6367588639259338 0.6431372761726379 0.6666666865348816 0.6666666865348816
0.9770935773849487 0.2965419292449951 0.6351778507232666 0.6784313917160034 0.6941176652908325 0.7058823704719543
0.9763546586036682 0.3390178382396698 0.448221355676651 0.6705882549285889 0.6941176652908325 0.7411764860153198
0.949999988079071 0.3821253776550293 0.9885375499725342 0.34117648005485535 0.3137255012989044 0.27450981736183167
0.9763546586036682 0.29180482029914856 0.4592885375022888 0.7019608020782471 0.7254902124404907 0.7254902124404907
0.9238916039466858 0.38591504096984863 0.0071146246045827866 0.4941176474094391 0.48627451062202454 0.38823530077934265
0.9768472909927368 0.3619137704372406 0.6470355987548828 0.7882353067398071 0.8078431487083435 0.7921568751335144
0.9665024876594543 0.3743881285190582 0.9877470135688782 0.30980393290519714 0.29411765933036804 0.25882354378700256
0.9059113264083862 0.3192799687385559 0.9901185631752014 0.3764705955982208 0.3607843220233917 0.32549020648002625
0.9817733764648438 0.24806568026542664 0.2335968315601349 0.7254902124404907 0.7176470756530762 0.6705882549285889
0.9790640473365784 0.33459654450416565 0.7636363506317139 0.6078431606292725 0.6117647290229797 0.6196078658103943
0.9758620858192444 0.3770724833011627 0.4573122560977936 0.6509804129600525 0.6705882549285889 0.6823529601097107
0.9805418848991394 0.2796463072299957 0.09328063577413559 0.7215686440467834 0.729411780834198 0.6470588445663452
0.8677340149879456 0.32054319977760315 0.006719367578625679 0.48235294222831726 0.501960813999176 0.4156862795352936
0.9837438464164734 0.351176381111145 0.9786561131477356 0.3686274588108063 0.33725491166114807 0.2862745225429535
0.9216748476028442 0.3628612160682678 0.00830039568245411 0.5215686559677124 0.5176470875740051 0.43921568989753723
0.9766010046005249 0.36949312686920166 0.6418972611427307 0.6352941393852234 0.6509804129600525 0.6627451181411743
0.9492610692977905 0.30822673439979553 0.007905138656497002 0.4000000059604645 0.3921568691730499 0.34117648005485535
0.8849753737449646 0.23906521499156952 0.006719367578625679 0.529411792755127 0.5215686559677124 0.4313725531101227
0.9756157398223877 0.3562292754650116 0.4960474371910095 0.6509804129600525 0.6705882549285889 0.686274528503418
0.9775862097740173 0.2815411388874054 0.6407114863395691 0.6901960968971252 0.7058823704719543 0.7098039388656616
0.9758620858192444 0.3857571482658386 0.45533597469329834 0.6313725709915161 0.6627451181411743 0.6705882549285889
0.982758641242981 0.2693825960159302 0.9865612387657166 0.3450980484485626 0.3137255012989044 0.26274511218070984
0.9756157398223877 0.3900205194950104 0.5936759114265442 0.6235294342041016 0.658823549747467 0.6549019813537598
0.9825122952461243 0.2894362807273865 0.8727272748947144 0.545098066329956 0.5333333611488342 0.46666666865348816
0.9820197224617004 0.28596243262290955 0.8158102631568909 0.615686297416687 0.615686297416687 0.5686274766921997
0.9820197224617004 0.3364914059638977 0.11857707798480988 0.729411780834198 0.7215686440467834 0.6705882549285889
0.9837438464164734 0.3181746304035187 0.948616623878479 0.4431372582912445 0.4156862795352936 0.3529411852359772
0.9812808036804199 0.3225959241390228 0.09446640312671661 0.729411780834198 0.7333333492279053 0.6784313917160034
0.9802955389022827 0.2504342198371887 0.7723320126533508 0.615686297416687 0.6313725709915161 0.6431372761726379
0.9399014711380005 0.264961302280426 0.9889327883720398 0.364705890417099 0.35686275362968445 0.30980393290519714
0.9815270900726318 0.37801989912986755 0.1403162032365799 0.7333333492279053 0.7137255072593689 0.6352941393852234
0.951724112033844 0.28043580055236816 0.9885375499725342 0.3803921639919281 0.364705890417099 0.3176470696926117
0.9766010046005249 0.24853940308094025 0.47588932514190674 0.7215686440467834 0.7372549176216125 0.7490196228027344
0.979556679725647 0.3871782720088959 0.01304347813129425 0.3176470696926117 0.2862745225429535 0.21176470816135406
0.9583743810653687 0.24206537008285522 0.9881423115730286 0.3294117748737335 0.3137255012989044 0.2666666805744171
0.9206896424293518 0.264961302280426 0.006719367578625679 0.49803921580314636 0.4901960790157318 0.40784314274787903
0.9719212055206299 0.3075951337814331 0.32569169998168945 0.3686274588108063 0.364705890417099 0.29411765933036804
0.9834975600242615 0.31138479709625244 0.9446640610694885 0.4470588266849518 0.4274509847164154 0.3529411852359772
0.9770935773849487 0.2641718089580536 0.6308300495147705 0.7019608020782471 0.7058823704719543 0.7215686440467834
0.9793103337287903 0.34028106927871704 0.03320158272981644 0.24705882370471954 0.21176470816135406 0.18431372940540314
0.9766010046005249 0.34659719467163086 0.6320158243179321 0.6470588445663452 0.6627451181411743 0.6666666865348816
0.8955665230751038 0.38686245679855347 0.0071146246045827866 0.6039215922355652 0.6000000238418579 0.529411792755127
0.9815270900726318 0.2790146768093109 0.24308300018310547 0.6980392336845398 0.7019608020782471 0.6392157077789307
0.9825122952461243 0.27459341287612915 0.8691699504852295 0.5647059082984924 0.5372549295425415 0.4627451002597809
0.9302955865859985 0.29164692759513855 0.0071146246045827866 0.4431372582912445 0.45098039507865906 0.3686274588108063
0.982758641242981 0.2989104688167572 0.8932806253433228 0.5254902243614197 0.49803921580314636 0.4274509847164154
0.9832512140274048 0.3366492986679077 0.886956512928009 0.5215686559677124 0.49803921580314636 0.4117647111415863
0.9766010046005249 0.24253907799720764 0.4537549316883087 0.7254902124404907 0.7411764860153198 0.7450980544090271
0.8642857074737549 0.23985472321510315 0.006719367578625679 0.5568627715110779 0.5490196347236633 0.46666666865348816
0.979556679725647 0.3077530264854431 0.05256916955113411 0.7529411911964417 0.7647058963775635 0.6980392336845398
0.9753694534301758 0.39191535115242004 0.5027667880058289 0.6313725709915161 0.6666666865348816 0.6549019813537598
0.9697044491767883 0.36380863189697266 0.9877470135688782 0.29411765933036804 0.27843138575553894 0.23137255012989044
0.9753694534301758 0.2441181093454361 0.32608696818351746 0.4274509847164154 0.4313725531101227 0.4000000059604645
0.8817734122276306 0.31422707438468933 0.006719367578625679 0.4313725531101227 0.43529412150382996 0.364705890417099
0.9733990430831909 0.34312331676483154 0.3320158123970032 0.2862745225429535 0.29411765933036804 0.2823529541492462
0.9817733764648438 0.34959733486175537 0.15177865326404572 0.7176470756530762 0.7215686440467834 0.6509804129600525
0.9822660088539124 0.24853940308094025 0.14940711855888367 0.6941176652908325 0.6980392336845398 0.6274510025978088
0.9768472909927368 0.34059688448905945 0.6403161883354187 0.6392157077789307 0.6549019813537598 0.6901960968971252
0.8889162540435791 0.3942839205265045 0.006719367578625679 0.5647059082984924 0.572549045085907 0.48627451062202454
0.9783251285552979 0.36001893877983093 0.9873517751693726 0.32549020648002625 0.3137255012989044 0.2549019753932953
0.9758620858192444 0.28864675760269165 0.5166007876396179 0.7019608020782471 0.7176470756530762 0.7215686440467834
0.9817733764648438 0.3366492986679077 0.0940711498260498 0.729411780834198 0.7333333492279053 0.6784313917160034
0.9810344576835632 0.3240170478820801 0.08458498120307922 0.7254902124404907 0.7254902124404907 0.686274528503418
0.9751231670379639 0.3712300658226013 0.5498023629188538 0.6235294342041016 0.6392157077789307 0.6431372761726379
0.9206896424293518 0.3186483383178711 0.9893280863761902 0.3960784375667572 0.38823530077934265 0.34117648005485535
0.9822660088539124 0.24017053842544556 0.926086962223053 0.47843137383461 0.4588235318660736 0.37254902720451355
0.9768472909927368 0.3540186285972595 0.34703558683395386 0.7764706015586853 0.800000011920929 0.7921568751335144
0.9817733764648438 0.34864991903305054 0.09249012172222137 0.7333333492279053 0.7372549176216125 0.6666666865348816
0.9133005142211914 0.25138166546821594 0.006719367578625679 0.4274509847164154 0.4274509847164154 0.3333333432674408
0.9625615477561951 0.33191221952438354 0.008695651777088642 0.48235294222831726 0.4745098054409027 0.4274509847164154
0.9756157398223877 0.3019106388092041 0.5664031505584717 0.6980392336845398 0.7137255072593689 0.7176470756530762
0.9825122952461243 0.24774987995624542 0.8806324005126953 0.5490196347236633 0.5215686559677124 0.45098039507865906
0.9770935773849487 0.2385915070772171 0.591304361820221 0.7176470756530762 0.7333333492279053 0.7450980544090271
0.8679803013801575 0.3710721731185913 0.9905138611793518 0.3960784375667572 0.3843137323856354 0.364705890417099
0.8918719291687012 0.2521711587905884 0.006719367578625679 0.41960784792900085 0.40784314274787903 0.3333333432674408
0.9766010046005249 0.3387020230293274 0.4221343994140625 0.6784313917160034 0.6941176652908325 0.7372549176216125
0.9475369453430176 0.33428075909614563 0.008695651777088642 0.5960784554481506 0.6000000238418579 0.545098066329956
0.9758620858192444 0.2752250134944916 0.5458498001098633 0.7098039388656616 0.7254902124404907 0.7372549176216125
0.9802955389022827 0.2521711587905884 0.7731225490570068 0.6196078658103943 0.6352941393852234 0.6470588445663452
0.8862069249153137 0.28612032532691956 0.0063241105526685715 0.5647059082984924 0.5843137502670288 0.49803921580314636
0.9822660088539124 0.27175113558769226 0.8612648248672485 0.5607843399047852 0.5490196347236633 0.48235294222831726
0.9783251285552979 0.3562292754650116 0.7316205501556396 0.5921568870544434 0.615686297416687 0.615686297416687
0.9790640473365784 0.3186483383178711 0.03280632570385933 0.2235294133424759 0.20000000298023224 0.15294118225574493
0.9798029661178589 0.25469762086868286 0.06007905304431915 0.7254902124404907 0.7215686440467834 0.6117647290229797
0.982758641242981 0.29212063550949097 0.8798419237136841 0.5490196347236633 0.5215686559677124 0.4470588266849518
0.8916256427764893 0.27980419993400574 0.0063241105526685715 0.6078431606292725 0.6196078658103943 0.5058823823928833
0.920197069644928 0.34059688448905945 0.00830039568245411 0.4901960790157318 0.4941176474094391 0.43921568989753723
0.9435960650444031 0.2651192247867584 0.006719367578625679 0.45490196347236633 0.4470588266849518 0.3490196168422699
0.9709359407424927 0.3248065710067749 0.9877470135688782 0.35686275362968445 0.34117648005485535 0.2980392277240753
0.979556679725647 0.24253907799720764 0.7256916761398315 0.6509804129600525 0.6666666865348816 0.7019608020782471
0.9433497786521912 0.34643927216529846 0.008695651777088642 0.48235294222831726 0.4745098054409027 0.4156862795352936
0.8958128094673157 0.3126480281352997 0.9901185631752014 0.4156862795352936 0.4000000059604645 0.364705890417099
0.9716748595237732 0.2846992015838623 0.007509881630539894 0.3921568691730499 0.4000000059604645 0.35686275362968445
0.9748768210411072 0.2468024641275406 0.3276679813861847 0.45490196347236633 0.45098039507865906 0.43529412150382996
0.982758641242981 0.36633506417274475 0.8241106867790222 0.572549045085907 0.5686274766921997 0.48627451062202454
0.88768470287323 0.28533080220222473 0.0063241105526685715 0.6117647290229797 0.6313725709915161 0.545098066329956
0.9758620858192444 0.38070425391197205 0.4644268751144409 0.6431372761726379 0.6627451181411743 0.6745098233222961
0.9832512140274048 0.27190905809402466 0.9632411003112793 0.40784314274787903 0.3764705955982208 0.32549020648002625
0.9766010046005249 0.25975051522254944 0.5841897130012512 0.7098039388656616 0.7254902124404907 0.7372549176216125
0.9825122952461243 0.24380230903625488 0.9588932991027832 0.4117647111415863 0.3843137323856354 0.32156863808631897
0.9761083722114563 0.36001893877983093 0.5960474014282227 0.6352941393852234 0.6509804129600525 0.6627451181411743
0.9820197224617004 0.28643614053726196 0.1723320186138153 0.6980392336845398 0.7019608020782471 0.6313725709915161
0.9815270900726318 0.3623875081539154 0.1660079061985016 0.7098039388656616 0.7176470756530762 0.6313725709915161
0.9817733764648438 0.37217748165130615 0.1146245077252388 0.7215686440467834 0.7176470756530762 0.6470588445663452
0.9807881712913513 0.3765987753868103 0.23517785966396332 0.7176470756530762 0.7254902124404907 0.6705882549285889
0.9793103337287903 0.3559134602546692 0.7881422638893127 0.572549045085907 0.5882353186607361 0.5921568870544434
0.9817733764648438 0.264645516872406 0.22806324064731598 0.7058823704719543 0.7098039388656616 0.6549019813537598
0.9820197224617004 0.3426496088504791 0.10869564861059189 0.7254902124404907 0.729411780834198 0.6666666865348816
0.9812808036804199 0.3908100426197052 0.16047431528568268 0.7176470756530762 0.7137255072593689 0.6313725709915161
0.9743842482566833 0.2992262840270996 0.9877470135688782 0.32549020648002625 0.30980393290519714 0.2666666805744171
0.982758641242981 0.23890730738639832 0.9814229011535645 0.3529411852359772 0.32549020648002625 0.26274511218070984
0.9763546586036682 0.38923102617263794 0.34584981203079224 0.6784313917160034 0.7215686440467834 0.7058823704719543
0.9770935773849487 0.27490919828414917 0.625296413898468 0.6980392336845398 0.7137255072593689 0.7176470756530762
0.9588670134544373 0.26306647062301636 0.9881423115730286 0.3490196168422699 0.3333333432674408 0.2862745225429535
0.9810344576835632 0.32006949186325073 0.804347813129425 0.47843137383461 0.49803921580314636 0.4745098054409027
0.885960578918457 0.286594033241272 0.9905138611793518 0.3450980484485626 0.3450980484485626 0.2980392277240753
0.9837438464164734 0.34375494718551636 0.9209486246109009 0.47058823704719543 0.4431372582912445 0.37254902720451355
0.8899014592170715 0.33807042241096497 0.9905138611793518 0.3960784375667572 0.3960784375667572 0.364705890417099
0.9766010046005249 0.25390809774398804 0.5758893489837646 0.7254902124404907 0.729411780834198 0.7450980544090271
0.9738916158676147 0.2930680513381958 0.31422924995422363 0.529411792755127 0.5176470875740051 0.4588235318660736
0.9830049276351929 0.3699668347835541 0.843478262424469 0.5764706134796143 0.5568627715110779 0.47058823704719543
0.9790640473365784 0.3398073613643646 0.9873517751693726 0.2980392277240753 0.2666666805744171 0.21568627655506134
0.9081280827522278 0.26827728748321533 0.9897233247756958 0.3803921639919281 0.3686274588108063 0.30980393290519714
0.8977832794189453 0.2474340796470642 0.006719367578625679 0.545098066329956 0.5254902243614197 0.4470588266849518
0.9529556632041931 0.37501972913742065 0.9885375499725342 0.32156863808631897 0.30980393290519714 0.250980406999588
0.9820197224617004 0.28327807784080505 0.8154150247573853 0.615686297416687 0.615686297416687 0.5686274766921997
0.9798029661178589 0.3470709025859833 0.03913043439388275 0.24705882370471954 0.21176470816135406 0.18431372940540314
0.9630541801452637 0.2816990315914154 0.9881423115730286 0.37254902720451355 0.3490196168422699 0.3019607961177826
0.9458128213882446 0.26227694749832153 0.9885375499725342 0.4000000059604645 0.37254902720451355 0.3333333432674408
0.8825123310089111 0.3413863778114319 0.9905138611793518 0.41960784792900085 0.40392157435417175 0.3686274588108063
0.9024630784988403 0.3447023630142212 0.9901185631752014 0.364705890417099 0.3529411852359772 0.3176470696926117
0.9820197224617004 0.2580135762691498 0.1407114565372467 0.6901960968971252 0.6941176652908325 0.6235294342041016
0.9830049276351929 0.27980419993400574 0.9114624261856079 0.5098039507865906 0.48627451062202454 0.3843137323856354
0.9815270900726318 0.3735986053943634 0.13794466853141785 0.7254902124404907 0.7058823704719543 0.6313725709915161
0.9802955389022827 0.2848570942878723 0.8019762635231018 0.5686274766921997 0.5764706134796143 0.5647059082984924
0.9231526851654053 0.3251223862171173 0.007905138656497002 0.4745098054409027 0.47843137383461 0.40784314274787903
0.8862069249153137 0.32575398683547974 0.9905138611793518 0.4117647111415863 0.4000000059604645 0.364705890417099
0.9825122952461243 0.29685771465301514 0.8533596992492676 0.572549045085907 0.5529412031173706 0.47843137383461
0.9834975600242615 0.3221222162246704 0.9213438630104065 0.48627451062202454 0.4627451002597809 0.3764705955982208
0.8805418610572815 0.29148903489112854 0.0063241105526685715 0.43921568989753723 0.43921568989753723 0.3450980484485626
0.866995096206665 0.2608558237552643 0.006719367578625679 0.5058823823928833 0.5215686559677124 0.4156862795352936
0.9428571462631226 0.2869098484516144 0.9885375499725342 0.364705890417099 0.3490196168422699 0.3019607961177826
0.9677339792251587 0.327333003282547 0.9877470135688782 0.3490196168422699 0.3333333432674408 0.29019609093666077
0.9798029661178589 0.24222327768802643 0.06521739065647125 0.686274528503418 0.6823529601097107 0.6000000238418579
0.9756157398223877 0.30254223942756653 0.5201581120491028 0.6901960968971252 0.7137255072593689 0.7058823704719543
0.9800492525100708 0.2954365909099579 0.06916996091604233 0.7254902124404907 0.7372549176216125 0.6627451181411743
0.8869457840919495 0.2780672609806061 0.0063241105526685715 0.4745098054409027 0.48627451062202454 0.37254902720451355
0.9783251285552979 0.2638559937477112 0.01620553433895111 0.21960784494876862 0.1882352977991104 0.13725490868091583
0.9793103337287903 0.34928154945373535 0.7802371382713318 0.5764706134796143 0.5921568870544434 0.5960784554481506
0.9773399233818054 0.3554397523403168 0.6806324124336243 0.6196078658103943 0.6235294342041016 0.6313725709915161
0.9807881712913513 0.2989104688167572 0.9873517751693726 0.2823529541492462 0.2705882489681244 0.21176470816135406
0.9689655303955078 0.2665403485298157 0.9877470135688782 0.32156863808631897 0.30588236451148987 0.25882354378700256
0.9766010046005249 0.32638558745384216 0.4371541440486908 0.6705882549285889 0.7058823704719543 0.7333333492279053
0.9783251285552979 0.372967004776001 0.7474308013916016 0.5882353186607361 0.6039215922355652 0.6000000238418579
0.9790640473365784 0.3655455410480499 0.010276679880917072 0.4627451002597809 0.4313725531101227 0.3803921639919281
0.8992610573768616 0.23701247572898865 0.006719367578625679 0.3960784375667572 0.38823530077934265 0.2980392277240753
0.9226601123809814 0.3194378614425659 0.9893280863761902 0.3607843220233917 0.3529411852359772 0.30588236451148987
0.9561576247215271 0.327017217874527 0.008695651777088642 0.38823530077934265 0.3764705955982208 0.30980393290519714
0.9793103337287903 0.32101690769195557 0.7545454502105713 0.615686297416687 0.6274510025978088 0.6470588445663452
0.9751231670379639 0.37501972913742065 0.551383376121521 0.6274510025978088 0.6509804129600525 0.6509804129600525
0.9798029661178589 0.3612821698188782 0.030830038711428642 0.24313725531101227 0.2078431397676468 0.1725490242242813
0.9753694534301758 0.362229585647583 0.5177865624427795 0.6352941393852234 0.6666666865348816 0.6745098233222961
0.9061576128005981 0.3240170478820801 0.007509881630539894 0.5607843399047852 0.5568627715110779 0.47843137383461
0.9785714149475098 0.3559134602546692 0.7525691986083984 0.5960784554481506 0.6117647290229797 0.6078431606292725
0.9376847147941589 0.39270487427711487 0.9885375499725342 0.35686275362968445 0.34117648005485535 0.29411765933036804
0.9832512140274048 0.3650718331336975 0.8853754997253418 0.4901960790157318 0.48235294222831726 0.4000000059604645
0.9802955389022827 0.3477025032043457 0.05296442657709122 0.24313725531101227 0.20392157137393951 0.1568627506494522
0.9837438464164734 0.3101215958595276 0.9632411003112793 0.4117647111415863 0.3803921639919281 0.33725491166114807
0.9825122952461243 0.29685771465301514 0.8533596992492676 0.572549045085907 0.5529412031173706 0.47843137383461
0.9096059203147888 0.28312015533447266 0.0063241105526685715 0.5882353186607361 0.5960784554481506 0.5098039507865906
0.9817733764648438 0.27506712079048157 0.22134387493133545 0.7098039388656616 0.7019608020782471 0.6431372761726379
0.9751231670379639 0.36065056920051575 0.54347825050354 0.6470588445663452 0.6666666865348816 0.6901960968971252
0.9810344576835632 0.33175429701805115 0.08260869234800339 0.7372549176216125 0.7372549176216125 0.6901960968971252
0.9802955389022827 0.2815411388874054 0.7980237007141113 0.6000000238418579 0.615686297416687 0.6117647290229797
0.9761083722114563 0.2850149869918823 0.5830039381980896 0.7098039388656616 0.7254902124404907 0.7372549176216125
0.8625615835189819 0.2906995117664337 0.991304337978363 0.3294117748737335 0.32156863808631897 0.27450981736183167
0.9758620858192444 0.3158060908317566 0.5252964496612549 0.6823529601097107 0.6980392336845398 0.7019608020782471
0.9810344576835632 0.3829149007797241 0.20474308729171753 0.7098039388656616 0.7215686440467834 0.6470588445663452
0.9820197224617004 0.3390178382396698 0.14782609045505524 0.7137255072593689 0.7058823704719543 0.658823549747467
0.9810344576835632 0.2730143666267395 0.291304349899292 0.6000000238418579 0.5960784554481506 0.5176470875740051
0.982758641242981 0.37186166644096375 0.8343873620033264 0.5607843399047852 0.5607843399047852 0.46666666865348816
0.9820197224617004 0.24632875621318817 0.8312252759933472 0.5803921818733215 0.5843137502670288 0.5137255191802979
0.9812808036804199 0.26890888810157776 0.11185770481824875 0.7058823704719543 0.7137255072593689 0.6313725709915161
0.9837438464164734 0.2924364507198334 0.9754940867424011 0.3803921639919281 0.3490196168422699 0.2980392277240753
0.9763546586036682 0.3767566680908203 0.4059288501739502 0.6549019813537598 0.686274528503418 0.6980392336845398
0.9763546586036682 0.38923102617263794 0.4106719493865967 0.6549019813537598 0.686274528503418 0.6941176652908325
0.9837438464164734 0.36601927876472473 0.9806324243545532 0.35686275362968445 0.3333333432674408 0.2862745225429535
0.9768472909927368 0.264803409576416 0.6201580762863159 0.7019608020782471 0.7176470756530762 0.7137255072593689
0.9820197224617004 0.28817304968833923 0.8146244883537292 0.6117647290229797 0.6117647290229797 0.5647059082984924
0.9736453294754028 0.26275068521499634 0.33122530579566956 0.3803921639919281 0.38823530077934265 0.3764705955982208
0.9834975600242615 0.3799147307872772 0.9106719493865967 0.45098039507865906 0.43921568989753723 0.364705890417099
0.9790640473365784 0.31470078229904175 0.02648221328854561 0.23137255012989044 0.19607843458652496 0.16078431904315948
0.9172413945198059 0.35843992233276367 0.9893280863761902 0.3960784375667572 0.3803921639919281 0.33725491166114807
0.9798029661178589 0.2709616422653198 0.7620553374290466 0.6274510025978088 0.6431372761726379 0.6549019813537598
0.9770935773849487 0.2872256338596344 0.6213438510894775 0.7019608020782471 0.7098039388656616 0.7058823704719543
0.9793103337287903 0.2665403485298157 0.7252964377403259 0.6549019813537598 0.6705882549285889 0.6745098233222961
0.9763546586036682 0.3931785821914673 0.6395257115364075 0.6274510025978088 0.6431372761726379 0.6549019813537598
0.9268472790718079 0.3619137704372406 0.00830039568245411 0.529411792755127 0.5215686559677124 0.4627451002597809
0.9768472909927368 0.2851729094982147 0.34584981203079224 0.7098039388656616 0.7411764860153198 0.7490196228027344
0.9605911374092102 0.36080846190452576 0.9881423115730286 0.3333333432674408 0.3176470696926117 0.27450981736183167
0.9756157398223877 0.3535449206829071 0.5051383376121521 0.6509804129600525 0.6705882549285889 0.686274528503418
0.9216748476028442 0.3628612160682678 0.00830039568245411 0.5215686559677124 0.5176470875740051 0.43921568989753723
0.9007388949394226 0.35512396693229675 0.007905138656497002 0.4588235318660736 0.45490196347236633 0.3843137323856354
0.9820197224617004 0.31217432022094727 0.12806324660778046 0.7098039388656616 0.7137255072593689 0.6509804129600525
0.9731526970863342 0.2935417592525482 0.33083003759384155 0.3921568691730499 0.4000000059604645 0.3803921639919281
0.9753694534301758 0.3944418132305145 0.49169960618019104 0.6274510025978088 0.6627451181411743 0.6509804129600525
0.9820197224617004 0.32654350996017456 0.10830039530992508 0.7254902124404907 0.7176470756530762 0.6705882549285889
0.9761083722114563 0.2850149869918823 0.5822134613990784 0.7098039388656616 0.7254902124404907 0.7372549176216125
0.9753694534301758 0.3533870279788971 0.5407114624977112 0.6666666865348816 0.6705882549285889 0.686274528503418
0.9763546586036682 0.3554397523403168 0.43952569365501404 0.6627451181411743 0.6784313917160034 0.7215686440467834
0.9822660088539124 0.25690826773643494 0.16996046900749207 0.7019608020782471 0.7058823704719543 0.6352941393852234
0.9770935773849487 0.3707563579082489 0.3023715317249298 0.545098066329956 0.5372549295425415 0.4901960790157318
0.9800492525100708 0.25138166546821594 0.07035572826862335 0.7058823704719543 0.7137255072593689 0.6196078658103943
0.9763546586036682 0.3124901354312897 0.4320158064365387 0.6823529601097107 0.6980392336845398 0.7333333492279053
0.9766010046005249 0.36901941895484924 0.633992075920105 0.6352941393852234 0.658823549747467 0.658823549747467
0.9766010046005249 0.30270013213157654 0.6118577122688293 0.6823529601097107 0.7019608020782471 0.7137255072593689
0.9802955389022827 0.24869729578495026 0.07984189689159393 0.6980392336845398 0.7058823704719543 0.6117647290229797
0.9802955389022827 0.30585819482803345 0.9873517751693726 0.3019607961177826 0.27843138575553894 0.2235294133424759
0.9793103337287903 0.30633190274238586 0.7683794498443604 0.6117647290229797 0.6235294342041016 0.6431372761726379
0.9832512140274048 0.3819674849510193 0.8600790500640869 0.5137255191802979 0.5058823823928833 0.42352941632270813
0.9815270900726318 0.2872256338596344 0.22806324064731598 0.6901960968971252 0.7019608020782471 0.6274510025978088
0.9766010046005249 0.35417652130126953 0.4051383435726166 0.6745098233222961 0.6901960968971252 0.7254902124404907
0.8834975361824036 0.32591187953948975 0.9905138611793518 0.40784314274787903 0.3960784375667572 0.3607843220233917
0.9812808036804199 0.3650718331336975 0.07193675637245178 0.7333333492279053 0.729411780834198 0.6470588445663452
0.9768472909927368 0.25975051522254944 0.43517786264419556 0.7137255072593689 0.7372549176216125 0.7372549176216125
0.9763546586036682 0.2439602017402649 0.5241106748580933 0.7215686440467834 0.7372549176216125 0.7490196228027344
0.9822660088539124 0.3094899654388428 0.8284584879875183 0.615686297416687 0.6000000238418579 0.5529412031173706
0.9221674799919128 0.2523290812969208 0.006719367578625679 0.42352941632270813 0.43921568989753723 0.3333333432674408
0.9785714149475098 0.2990683615207672 0.025691699236631393 0.22745098173618317 0.1882352977991104 0.15294118225574493
0.9756157398223877 0.24506552517414093 0.3395256996154785 0.7411764860153198 0.7529411911964417 0.7803921699523926
0.9834975600242615 0.3799147307872772 0.9106719493865967 0.45098039507865906 0.43921568989753723 0.364705890417099
0.9807881712913513 0.36617717146873474 0.2873517870903015 0.6392157077789307 0.6392157077789307 0.545098066329956
0.9761083722114563 0.39286279678344727 0.6185770630836487 0.6352941393852234 0.6509804129600525 0.6470588445663452
0.9800492525100708 0.2409600466489792 0.7474308013916016 0.6352941393852234 0.6549019813537598 0.6666666865348816
0.9815270900726318 0.28833097219467163 0.22727273404598236 0.6941176652908325 0.6980392336845398 0.6274510025978088
0.9455664753913879 0.34043896198272705 0.008695651777088642 0.7019608020782471 0.7058823704719543 0.6431372761726379
0.9822660088539124 0.2439602017402649 0.8541501760482788 0.5803921818733215 0.5568627715110779 0.4941176474094391
0.9812808036804199 0.36080846190452576 0.19407114386558533 0.7137255072593689 0.7254902124404907 0.658823549747467
0.9812808036804199 0.3470709025859833 0.2403162121772766 0.6901960968971252 0.7019608020782471 0.6274510025978088
0.9753694534301758 0.3597031533718109 0.5612648129463196 0.6392157077789307 0.6509804129600525 0.6705882549285889
0.9817733764648438 0.2409600466489792 0.134782612323761 0.5176470875740051 0.5215686559677124 0.4901960790157318
0.9206896424293518 0.35717669129371643 0.9893280863761902 0.3921568691730499 0.3764705955982208 0.3333333432674408
0.9805418848991394 0.3881256878376007 0.28853756189346313 0.5960784554481506 0.6117647290229797 0.5137255191802979
0.868719220161438 0.2818569540977478 0.9909090995788574 0.3607843220233917 0.3490196168422699 0.3137255012989044
0.9793103337287903 0.27427759766578674 0.7351778745651245 0.6431372761726379 0.6549019813537598 0.6745098233222961
0.9805418848991394 0.2534343898296356 0.7841897010803223 0.6039215922355652 0.6196078658103943 0.6235294342041016
0.9615763425827026 0.2674877643585205 0.006719367578625679 0.529411792755127 0.5215686559677124 0.4627451002597809
0.8778325319290161 0.2840675711631775 0.0063241105526685715 0.6000000238418579 0.6078431606292725 0.5137255191802979
0.9758620858192444 0.3737565279006958 0.343082994222641 0.6470588445663452 0.686274528503418 0.6823529601097107
0.9258620738983154 0.3844939172267914 0.9889327883720398 0.364705890417099 0.364705890417099 0.3176470696926117
0.9763546586036682 0.2439602017402649 0.4889328181743622 0.7215686440467834 0.7372549176216125 0.7490196228027344
0.9763546586036682 0.2618032395839691 0.47747036814689636 0.7137255072593689 0.729411780834198 0.7411764860153198
0.979556679725647 0.292278528213501 0.7636363506317139 0.6196078658103943 0.6313725709915161 0.6509804129600525
0.9825122952461243 0.3139112591743469 0.8596838116645813 0.5607843399047852 0.5411764979362488 0.4627451002597809
0.9778324961662292 0.2791725993156433 0.6541501879692078 0.6823529601097107 0.6980392336845398 0.7098039388656616
0.982758641242981 0.36901941895484924 0.8399209380149841 0.572549045085907 0.5529412031173706 0.46666666865348816
0.9822660088539124 0.3044370710849762 0.8288537263870239 0.6039215922355652 0.5960784554481506 0.545098066329956
0.9460591077804565 0.38923102617263794 0.006719367578625679 0.5372549295425415 0.5254902243614197 0.45098039507865906
0.9504926204681396 0.28264644742012024 0.9885375499725342 0.3764705955982208 0.3607843220233917 0.3137255012989044
0.9805418848991394 0.25659245252609253 0.790513813495636 0.6000000238418579 0.6196078658103943 0.6313725709915161
0.982758641242981 0.2553292214870453 0.9110671877861023 0.5058823823928833 0.48235294222831726 0.3960784375667572
0.9812808036804199 0.30270013213157654 0.1039525717496872 0.7176470756530762 0.7372549176216125 0.6509804129600525
0.9815270900726318 0.35496604442596436 0.19486166536808014 0.7176470756530762 0.7215686440467834 0.658823549747467
0.9780788421630859 0.3195957541465759 0.695652186870575 0.6352941393852234 0.6431372761726379 0.6901960968971252
0.9834975600242615 0.3816516697406769 0.979051411151886 0.3529411852359772 0.3294117748737335 0.2666666805744171
0.9785714149475098 0.3822832703590393 0.7636363506317139 0.5607843399047852 0.5803921818733215 0.5568627715110779
0.9756157398223877 0.32654350996017456 0.531225323677063 0.6784313917160034 0.6980392336845398 0.7137255072593689
0.9817733764648438 0.37801989912986755 0.10316205769777298 0.7254902124404907 0.7137255072593689 0.6392157077789307
0.9073891639709473 0.25201326608657837 0.006719367578625679 0.6274510025978088 0.6039215922355652 0.5098039507865906
0.9157635569572449 0.2930680513381958 0.9897233247756958 0.3843137323856354 0.3764705955982208 0.3294117748737335
0.9790640473365784 0.2839096784591675 0.04229249060153961 0.1921568661928177 0.1764705926179886 0.1411764770746231
0.8967980146408081 0.2786988914012909 0.0063241105526685715 0.3960784375667572 0.3921568691730499 0.30980393290519714
0.9179803133010864 0.2561187446117401 0.9893280863761902 0.35686275362968445 0.3450980484485626 0.2862745225429535
0.9039409160614014 0.3475446105003357 0.007905138656497002 0.5333333611488342 0.5411764979362488 0.4588235318660736
0.9820197224617004 0.2910153269767761 0.8252964615821838 0.5960784554481506 0.5882353186607361 0.529411792755127
0.9763546586036682 0.35433444380760193 0.4379446506500244 0.6627451181411743 0.6784313917160034 0.7215686440467834
0.9618226885795593 0.264645516872406 0.006719367578625679 0.4431372582912445 0.43921568989753723 0.3686274588108063
0.9325123429298401 0.23953892290592194 0.0071146246045827866 0.46666666865348816 0.4627451002597809 0.3843137323856354
0.9820197224617004 0.2444339245557785 0.14466403424739838 0.6980392336845398 0.7019608020782471 0.6313725709915161
0.9805418848991394 0.28027790784835815 0.30474308133125305 0.5176470875740051 0.5058823823928833 0.4313725531101227
0.9802955389022827 0.24506552517414093 0.7675889134407043 0.615686297416687 0.6313725709915161 0.6431372761726379
0.8788177371025085 0.26559293270111084 0.9909090995788574 0.3529411852359772 0.33725491166114807 0.29411765933036804
0.9763546586036682 0.25453969836235046 0.47826087474823 0.7176470756530762 0.7333333492279053 0.7450980544090271
0.9775862097740173 0.26038211584091187 0.35098814964294434 0.772549033164978 0.7843137383460999 0.8039215803146362
0.8677340149879456 0.24348649382591248 0.006719367578625679 0.4745098054409027 0.4745098054409027 0.3803921639919281
0.9807881712913513 0.37549343705177307 0.052173912525177 0.7137255072593689 0.7058823704719543 0.6235294342041016
0.9815270900726318 0.31706932187080383 0.23517785966396332 0.6901960968971252 0.7019608020782471 0.6352941393852234
0.9817733764648438 0.3110690116882324 0.17984189093112946 0.7058823704719543 0.7098039388656616 0.6549019813537598
0.9768472909927368 0.3394915461540222 0.635573148727417 0.6392157077789307 0.6509804129600525 0.6784313917160034
0.9364532232284546 0.25438180565834045 0.006719367578625679 0.4117647111415863 0.4117647111415863 0.3176470696926117
0.9810344576835632 0.2902258038520813 0.27747035026550293 0.6784313917160034 0.6823529601097107 0.6274510025978088
0.9817733764648438 0.24806568026542664 0.2335968315601349 0.7254902124404907 0.7176470756530762 0.6705882549285889
0.9753694534301758 0.3650718331336975 0.5158102512359619 0.6313725709915161 0.6627451181411743 0.6705882549285889
0.9761083722114563 0.35465025901794434 0.45019763708114624 0.6627451181411743 0.6784313917160034 0.7137255072593689
0.9815270900726318 0.3538607358932495 0.8083003759384155 0.4745098054409027 0.47843137383461 0.4470588266849518
0.9635468125343323 0.3135954439640045 0.9881423115730286 0.364705890417099 0.3490196168422699 0.30588236451148987
0.9758620858192444 0.2932259738445282 0.49841898679733276 0.6980392336845398 0.7215686440467834 0.7215686440467834
0.9766010046005249 0.37738826870918274 0.396047443151474 0.6549019813537598 0.6941176652908325 0.6980392336845398
0.9768472909927368 0.3559134602546692 0.6569169759750366 0.8196078538894653 0.843137264251709 0.843137264251709
0.9780788421630859 0.321490615606308 0.6881422996520996 0.6352941393852234 0.6470588445663452 0.6745098233222961
0.9807881712913513 0.2957524061203003 0.2968379557132721 0.5490196347236633 0.5372549295425415 0.47058823704719543
0.9817733764648438 0.34880784153938293 0.14782609045505524 0.7215686440467834 0.7137255072593689 0.6627451181411743
0.9805418848991394 0.2764882445335388 0.7996047139167786 0.6000000238418579 0.615686297416687 0.6117647290229797
0.9822660088539124 0.2385915070772171 0.9343873262405396 0.4588235318660736 0.4313725531101227 0.3607843220233917
0.9773399233818054 0.2821727395057678 0.6332015991210938 0.6901960968971252 0.7058823704719543 0.7098039388656616
0.9544335007667542 0.3682298958301544 0.00830039568245411 0.48627451062202454 0.4901960790157318 0.41960784792900085
0.9790640473365784 0.24869729578495026 0.7039525508880615 0.6705882549285889 0.686274528503418 0.6823529601097107
0.9766010046005249 0.3734407126903534 0.6501976251602173 0.6274510025978088 0.6509804129600525 0.6509804129600525
0.9830049276351929 0.3903363347053528 0.8454545736312866 0.5372549295425415 0.529411792755127 0.43921568989753723
0.9785714149475098 0.26022422313690186 0.6873517632484436 0.6745098233222961 0.6901960968971252 0.6941176652908325
0.9832512140274048 0.3440707325935364 0.8841897249221802 0.529411792755127 0.5058823823928833 0.41960784792900085
0.9275861978530884 0.29180482029914856 0.9893280863761902 0.4117647111415863 0.3843137323856354 0.3450980484485626
0.9724137783050537 0.3819674849510193 0.3284584879875183 0.38823530077934265 0.3764705955982208 0.34117648005485535
0.9820197224617004 0.2644875943660736 0.19683794677257538 0.6980392336845398 0.7019608020782471 0.6392157077789307
0.9820197224617004 0.2442760169506073 0.1984189748764038 0.7098039388656616 0.7019608020782471 0.6431372761726379
0.9822660088539124 0.3042791783809662 0.842687726020813 0.5921568870544434 0.5803921818733215 0.5137255191802979
0.9600985050201416 0.2738038897514343 0.9881423115730286 0.2862745225429535 0.2705882489681244 0.22745098173618317
0.9812808036804199 0.2954365909099579 0.10988142341375351 0.7529411911964417 0.7333333492279053 0.658823549747467
0.9298029541969299 0.3104373812675476 0.9889327883720398 0.40392157435417175 0.3960784375667572 0.3450980484485626
0.9770935773849487 0.2932259738445282 0.6308300495147705 0.6784313917160034 0.7019608020782471 0.7019608020782471
0.9810344576835632 0.28375178575515747 0.27826085686683655 0.686274528503418 0.6901960968971252 0.6352941393852234
0.9832512140274048 0.27190905809402466 0.9632411003112793 0.40784314274787903 0.3764705955982208 0.32549020648002625
0.868719220161438 0.3222801089286804 0.9909090995788574 0.38823530077934265 0.38823530077934265 0.3490196168422699
0.9837438464164734 0.30317384004592896 0.9822134375572205 0.364705890417099 0.34117648005485535 0.29411765933036804
0.8628078699111938 0.2959102988243103 0.991304337978363 0.3921568691730499 0.3803921639919281 0.3450980484485626
0.9815270900726318 0.33775460720062256 0.20197628438472748 0.7215686440467834 0.7254902124404907 0.6549019813537598
0.9820197224617004 0.2981209456920624 0.15691699087619781 0.6941176652908325 0.7058823704719543 0.6392157077789307
0.9815270900726318 0.32085898518562317 0.2399209439754486 0.6941176652908325 0.6980392336845398 0.6431372761726379
0.8620689511299133 0.3047528862953186 0.991304337978363 0.3921568691730499 0.3803921639919281 0.3450980484485626
0.9773399233818054 0.33175429701805115 0.6616600751876831 0.686274528503418 0.6941176652908325 0.7450980544090271
0.9527093768119812 0.2471182644367218 0.9881423115730286 0.37254902720451355 0.35686275362968445 0.30980393290519714
0.982758641242981 0.35796621441841125 0.8462450504302979 0.5647059082984924 0.5411764979362488 0.48627451062202454
0.9822660088539124 0.3213326930999756 0.813834011554718 0.6078431606292725 0.6000000238418579 0.5490196347236633
0.9798029661178589 0.2738038897514343 0.7691699862480164 0.6235294342041016 0.6392157077789307 0.6509804129600525
0.9837438464164734 0.3617558777332306 0.95652174949646 0.4000000059604645 0.3764705955982208 0.3294117748737335
0.9662561416625977 0.24301278591156006 0.0071146246045827866 0.3450980484485626 0.3529411852359772 0.2705882489681244
0.9775862097740173 0.2638559937477112 0.6442687511444092 0.6980392336845398 0.7019608020782471 0.7176470756530762
0.9810344576835632 0.38307279348373413 0.05612648278474808 0.7019608020782471 0.7019608020782471 0.6078431606292725
0.9815270900726318 0.31722721457481384 0.1039525717496872 0.7215686440467834 0.7254902124404907 0.6705882549285889
0.9179803133010864 0.30064740777015686 0.9893280863761902 0.3803921639919281 0.37254902720451355 0.32549020648002625
0.8630542159080505 0.30917418003082275 0.991304337978363 0.3843137323856354 0.37254902720451355 0.33725491166114807
0.9822660088539124 0.2556450366973877 0.8466402888298035 0.5803921818733215 0.5764706134796143 0.49803921580314636
0.9832512140274048 0.38370439410209656 0.8727272748947144 0.5098039507865906 0.48235294222831726 0.4117647111415863
0.9825122952461243 0.2843833863735199 0.8711462616920471 0.5568627715110779 0.5372549295425415 0.4627451002597809
0.9756157398223877 0.3364914059638977 0.5652173757553101 0.6627451181411743 0.6823529601097107 0.7058823704719543
0.9812808036804199 0.2933838665485382 0.25138339400291443 0.686274528503418 0.6941176652908325 0.6431372761726379
0.9536945819854736 0.26290857791900635 0.9881423115730286 0.3490196168422699 0.3333333432674408 0.2862745225429535
0.9756157398223877 0.31991156935691833 0.5454545617103577 0.6941176652908325 0.6980392336845398 0.7176470756530762
0.8916256427764893 0.3941259980201721 0.006719367578625679 0.6549019813537598 0.6470588445663452 0.5568627715110779
0.9790640473365784 0.3532291054725647 0.7790513634681702 0.572549045085907 0.5882353186607361 0.5921568870544434
0.9770935773849487 0.35733458399772644 0.35612648725509644 0.7568627595901489 0.7803921699523926 0.772549033164978
0.873399019241333 0.38038843870162964 0.006719367578625679 0.5607843399047852 0.5411764979362488 0.46666666865348816
0.9763546586036682 0.3538607358932495 0.6150197386741638 0.6352941393852234 0.6509804129600525 0.6549019813537598
0.9778324961662292 0.3412284851074219 0.6992095112800598 0.6235294342041016 0.6352941393852234 0.6549019813537598
0.9758620858192444 0.32054319977760315 0.5640316009521484 0.6745098233222961 0.6941176652908325 0.7098039388656616
0.9766010046005249 0.3014369308948517 0.41976284980773926 0.6941176652908325 0.7137255072593689 0.729411780834198
0.9815270900726318 0.31706932187080383 0.23517785966396332 0.6901960968971252 0.7019608020782471 0.6352941393852234
0.9775862097740173 0.3878098726272583 0.7102766633033752 0.5843137502670288 0.6000000238418579 0.5960784554481506
0.9758620858192444 0.32054319977760315 0.3422924876213074 0.686274528503418 0.7137255072593689 0.7450980544090271
0.9766010046005249 0.3390178382396698 0.6181818246841431 0.6392157077789307 0.6509804129600525 0.6705882549285889
0.9613300561904907 0.3876519799232483 0.9881423115730286 0.3529411852359772 0.3294117748737335 0.27450981736183167
0.9788177609443665 0.24285489320755005 0.03122529573738575 0.1921568661928177 0.1568627506494522 0.12156862765550613
0.9802955389022827 0.2786988914012909 0.8011857867240906 0.572549045085907 0.6000000238418579 0.572549045085907
0.9812808036804199 0.3791252076625824 0.17984189093112946 0.7137255072593689 0.7254902124404907 0.6509804129600525
0.9812808036804199 0.3735986053943634 0.0679841861128807 0.6784313917160034 0.6823529601097107 0.6196078658103943
0.9788177609443665 0.2679614722728729 0.6996047496795654 0.6666666865348816 0.6823529601097107 0.6784313917160034
0.8822659850120544 0.372967004776001 0.0071146246045827866 0.4745098054409027 0.46666666865348816 0.40784314274787903
0.9778324961662292 0.2382756918668747 0.6640316247940063 0.6901960968971252 0.7058823704719543 0.7019608020782471
0.9783251285552979 0.259276807308197 0.014229249209165573 0.2235294133424759 0.18431372940540314 0.14509804546833038
0.9822660088539124 0.28627821803092957 0.13675889372825623 0.7098039388656616 0.7176470756530762 0.6666666865348816
0.9810344576835632 0.2589609920978546 0.10671936720609665 0.7058823704719543 0.7137255072593689 0.6313725709915161
0.9830049276351929 0.3139112591743469 0.8901185989379883 0.529411792755127 0.5058823823928833 0.4117647111415863
0.9802955389022827 0.31785884499549866 0.7984189987182617 0.5843137502670288 0.6078431606292725 0.6078431606292725
0.9822660088539124 0.2505921423435211 0.18972331285476685 0.6980392336845398 0.7019608020782471 0.6392157077789307
0.9788177609443665 0.33475446701049805 0.30000001192092896 0.529411792755127 0.5254902243614197 0.4470588266849518
0.9770935773849487 0.25075003504753113 0.4059288501739502 0.7215686440467834 0.7411764860153198 0.7529411911964417
0.9790640473365784 0.3022264242172241 0.035177864134311676 0.21176470816135406 0.18431372940540314 0.15294118225574493
0.9758620858192444 0.3101215958595276 0.4952569305896759 0.686274528503418 0.7098039388656616 0.7098039388656616
0.9812808036804199 0.39286279678344727 0.14466403424739838 0.7098039388656616 0.7058823704719543 0.6235294342041016
0.9770935773849487 0.29496288299560547 0.3640316128730774 0.7254902124404907 0.7411764860153198 0.7764706015586853
0.9768472909927368 0.34391283988952637 0.3889327943325043 0.686274528503418 0.6980392336845398 0.7254902124404907
0.9805418848991394 0.37549343705177307 0.2750988006591797 0.6901960968971252 0.7019608020782471 0.6352941393852234
0.9802955389022827 0.2818569540977478 0.08221343904733658 0.7137255072593689 0.7254902124404907 0.6509804129600525
0.9812808036804199 0.2966998219490051 0.25770750641822815 0.686274528503418 0.6941176652908325 0.6431372761726379
0.9086207151412964 0.3740723133087158 0.007509881630539894 0.6470588445663452 0.6509804129600525 0.5803921818733215
0.9780788421630859 0.2763303220272064 0.6632410883903503 0.6784313917160034 0.6980392336845398 0.7098039388656616
0.9766010046005249 0.2673298716545105 0.4379446506500244 0.7137255072593689 0.7333333492279053 0.7490196228027344
0.9822660088539124 0.29148903489112854 0.8505929112434387 0.5686274766921997 0.5568627715110779 0.48235294222831726
0.9817733764648438 0.26369810104370117 0.21660079061985016 0.6980392336845398 0.7019608020782471 0.6392157077789307
0.9837438464164734 0.34928154945373535 0.9241106510162354 0.4627451002597809 0.43529412150382996 0.364705890417099
0.9763546586036682 0.3765987753868103 0.6272727251052856 0.6431372761726379 0.6666666865348816 0.6666666865348816
0.9761083722114563 0.3017527163028717 0.48616600036621094 0.6941176652908325 0.7176470756530762 0.7176470756530762
0.874876856803894 0.3017527163028717 0.9909090995788574 0.4117647111415863 0.4000000059604645 0.364705890417099
0.982758641242981 0.25738197565078735 0.895652174949646 0.5372549295425415 0.501960813999176 0.43529412150382996
0.9820197224617004 0.2842254936695099 0.8308300375938416 0.5921568870544434 0.5882353186607361 0.5176470875740051
