0.6950739026069641 0.45570820569992065 0.006719367578625679 0.5843137502670288 0.5882353186607361 0.5333333611488342
0.6724137663841248 0.5008684396743774 0.005928853526711464 0.501960813999176 0.5058823823928833 0.48627451062202454
0.6817734241485596 0.44118112325668335 0.005928853526711464 0.5529412031173706 0.5490196347236633 0.47058823704719543
0.6211822628974915 0.5310279726982117 0.0063241105526685715 0.21568627655506134 0.23137255012989044 0.22745098173618317
0.7307881712913513 0.5136586427688599 0.16521738469600677 0.501960813999176 0.501960813999176 0.45490196347236633
0.7556650042533875 0.43786513805389404 0.28853756189346313 0.14901961386203766 0.14901961386203766 0.1411764770746231
0.7344827651977539 0.44670772552490234 0.15019762516021729 0.09019608050584793 0.09803921729326248 0.0941176488995552
0.7433497309684753 0.47197219729423523 0.15375493466854095 0.12941177189350128 0.14901961386203766 0.13333334028720856
0.75935959815979 0.46723511815071106 0.30434781312942505 0.3529411852359772 0.3607843220233917 0.35686275362968445
0.6657635569572449 0.518553614616394 0.9901185631752014 0.3843137323856354 0.37254902720451355 0.3450980484485626
0.7450739145278931 0.489025741815567 0.15256917476654053 0.32549020648002625 0.30588236451148987 0.29411765933036804
0.7054187059402466 0.44607609510421753 0.006719367578625679 0.5254902243614197 0.529411792755127 0.46666666865348816
0.6477832794189453 0.45033949613571167 0.013833992183208466 0.10196078568696976 0.10588235408067703 0.11372549086809158
0.7051724195480347 0.4708668887615204 0.9897233247756958 0.37254902720451355 0.35686275362968445 0.3529411852359772
0.6433497667312622 0.5321332812309265 0.9901185631752014 0.37254902720451355 0.37254902720451355 0.34117648005485535
0.6689655184745789 0.5379756689071655 0.9901185631752014 0.3764705955982208 0.37254902720451355 0.3529411852359772
0.8339901566505432 0.5367124676704407 0.006719367578625679 0.6313725709915161 0.6274510025978088 0.545098066329956
0.7197044491767883 0.41828516125679016 0.17391304671764374 0.09803921729326248 0.10196078568696976 0.10980392247438431
0.7142857313156128 0.4048634171485901 0.9909090995788574 0.42352941632270813 0.40784314274787903 0.40392157435417175
0.751724123954773 0.529922604560852 0.0071146246045827866 0.30980393290519714 0.2980392277240753 0.23137255012989044
0.8421182036399841 0.43281224370002747 0.005928853526711464 0.5882353186607361 0.5764706134796143 0.501960813999176
0.681280791759491 0.4433917701244354 0.9901185631752014 0.3960784375667572 0.3803921639919281 0.3686274588108063
0.7369458079338074 0.39538922905921936 0.0063241105526685715 0.20000000298023224 0.1882352977991104 0.16078431904315948
0.7241379022598267 0.4885520339012146 0.9897233247756958 0.33725491166114807 0.32156863808631897 0.30980393290519714
0.75935959815979 0.48381492495536804 0.9897233247756958 0.3176470696926117 0.30588236451148987 0.2862745225429535
0.6258620619773865 0.4823938012123108 0.007905138656497002 0.2666666805744171 0.2705882489681244 0.250980406999588
0.7660098671913147 0.4045476019382477 0.0063241105526685715 0.42352941632270813 0.4156862795352936 0.364705890417099
0.7906404137611389 0.4536554515361786 0.0071146246045827866 0.545098066329956 0.529411792755127 0.42352941632270813
0.8337438702583313 0.535291314125061 0.9897233247756958 0.3333333432674408 0.32156863808631897 0.29411765933036804
0.8549261093139648 0.40360018610954285 0.005928853526711464 0.6470588445663452 0.6549019813537598 0.5686274766921997
0.7413793206214905 0.4743407666683197 0.22055335342884064 0.1764705926179886 0.18431372940540314 0.1725490242242813
0.7172414064407349 0.4279172718524933 0.006719367578625679 0.25882354378700256 0.24705882370471954 0.22745098173618317
0.8556650280952454 0.4110216200351715 0.005533596966415644 0.4901960790157318 0.5254902243614197 0.41960784792900085
0.7103448510169983 0.45839256048202515 0.16956521570682526 0.08235294371843338 0.08235294371843338 0.08235294371843338
0.8620689511299133 0.41560080647468567 0.005533596966415644 0.5529412031173706 0.5333333611488342 0.4588235318660736
0.676354706287384 0.4140217900276184 0.007905138656497002 0.062745101749897 0.03529411926865578 0.062745101749897
0.634482741355896 0.419232577085495 0.9897233247756958 0.32549020648002625 0.30980393290519714 0.30588236451148987
0.7965517044067383 0.41481131315231323 0.0063241105526685715 0.47058823704719543 0.4470588266849518 0.3137255012989044
0.8549261093139648 0.4793936610221863 0.9897233247756958 0.2235294133424759 0.19607843458652496 0.16470588743686676
0.746798038482666 0.46170851588249207 0.007509881630539894 0.23137255012989044 0.21960784494876862 0.16078431904315948
0.7068965435028076 0.5327649116516113 0.0071146246045827866 0.19607843458652496 0.20392157137393951 0.18431372940540314
0.7041872143745422 0.4767093062400818 0.2972331941127777 0.6784313917160034 0.6823529601097107 0.6627451181411743
0.7140393853187561 0.4225485622882843 0.18023715913295746 0.08627451211214066 0.08627451211214066 0.08627451211214066
0.6408867239952087 0.5190272927284241 0.2964426875114441 0.6431372761726379 0.6509804129600525 0.6470588445663452
0.7280788421630859 0.413390189409256 0.29920947551727295 0.6196078658103943 0.6313725709915161 0.6509804129600525
0.7401477694511414 0.4542870819568634 0.21106719970703125 0.1411764770746231 0.1411764770746231 0.13333334028720856
0.7463054060935974 0.41828516125679016 0.9905138611793518 0.3921568691730499 0.38823530077934265 0.3803921639919281
0.7041872143745422 0.4767093062400818 0.2972331941127777 0.6784313917160034 0.6823529601097107 0.6627451181411743
0.6620689630508423 0.4400757849216461 0.29841896891593933 0.42352941632270813 0.4274509847164154 0.3960784375667572
0.7475369572639465 0.4568135142326355 0.15415020287036896 0.10980392247438431 0.12941177189350128 0.11372549086809158
0.6889162659645081 0.39538922905921936 0.005533596966415644 0.364705890417099 0.37254902720451355 0.3607843220233917
0.8379310369491577 0.4744986593723297 0.9897233247756958 0.239215686917305 0.239215686917305 0.1921568661928177
0.7411330342292786 0.45239222049713135 0.14347825944423676 0.0941176488995552 0.0941176488995552 0.0941176488995552
0.757881760597229 0.408021479845047 0.9909090995788574 0.40392157435417175 0.3803921639919281 0.3803921639919281
0.8162561655044556 0.551713228225708 0.0071146246045827866 0.5568627715110779 0.5490196347236633 0.45098039507865906
0.7635468244552612 0.470551073551178 0.9897233247756958 0.25882354378700256 0.24705882370471954 0.22745098173618317
0.7238916158676147 0.41481131315231323 0.9905138611793518 0.34117648005485535 0.33725491166114807 0.3176470696926117
0.6886699795722961 0.44086530804634094 0.005928853526711464 0.4627451002597809 0.46666666865348816 0.3960784375667572
0.6564039587974548 0.44639191031455994 0.29841896891593933 0.43921568989753723 0.4588235318660736 0.4313725531101227
0.8083744049072266 0.54050213098526 0.9897233247756958 0.32549020648002625 0.30980393290519714 0.2980392277240753
0.6822659969329834 0.49597346782684326 0.006719367578625679 0.18039216101169586 0.20392157137393951 0.20392157137393951
0.807881772518158 0.5332385897636414 0.9897233247756958 0.3333333432674408 0.32156863808631897 0.3019607961177826
0.7344827651977539 0.402494877576828 0.0063241105526685715 0.08235294371843338 0.06666667014360428 0.054901961237192154
0.7396551966667175 0.48728880286216736 0.29486167430877686 0.18039216101169586 0.18039216101169586 0.18039216101169586
0.7140393853187561 0.41481131315231323 0.9905138611793518 0.40784314274787903 0.3960784375667572 0.3764705955982208
0.6551724076271057 0.5063951015472412 0.9901185631752014 0.37254902720451355 0.35686275362968445 0.32156863808631897
0.7103448510169983 0.5046581625938416 0.2968379557132721 0.6509804129600525 0.6549019813537598 0.6745098233222961
0.74064040184021 0.4332859516143799 0.9901185631752014 0.364705890417099 0.3490196168422699 0.3450980484485626
0.8115763664245605 0.48965734243392944 0.9897233247756958 0.19607843458652496 0.19607843458652496 0.16470588743686676
0.695320188999176 0.430127888917923 0.008695651777088642 0.5921568870544434 0.5882353186607361 0.5176470875740051
0.6793103218078613 0.5204484462738037 0.2968379557132721 0.6313725709915161 0.6313725709915161 0.6313725709915161
0.682758629322052 0.5060792565345764 0.2964426875114441 0.658823549747467 0.658823549747467 0.658823549747467
0.7455664873123169 0.48965734243392944 0.007905138656497002 0.10588235408067703 0.0941176488995552 0.06666667014360428
0.6857143044471741 0.397126168012619 0.9905138611793518 0.40392157435417175 0.3960784375667572 0.4000000059604645
0.8275862336158752 0.41228485107421875 0.9901185631752014 0.35686275362968445 0.3450980484485626 0.32549020648002625
0.8337438702583313 0.5444496870040894 0.9897233247756958 0.3333333432674408 0.32156863808631897 0.29411765933036804
0.821921169757843 0.4056529402732849 0.9901185631752014 0.3843137323856354 0.3803921639919281 0.3607843220233917
0.7605911493301392 0.5387651920318604 0.9897233247756958 0.33725491166114807 0.32156863808631897 0.30980393290519714
0.6561576128005981 0.4964471757411957 0.2968379557132721 0.6627451181411743 0.6705882549285889 0.6509804129600525
0.7460591197013855 0.4628138244152069 0.3023715317249298 0.054901961237192154 0.054901961237192154 0.054901961237192154
0.6729063987731934 0.4501815736293793 0.29841896891593933 0.48235294222831726 0.4941176474094391 0.4588235318660736
0.6534482836723328 0.54034423828125 0.9901185631752014 0.3764705955982208 0.37254902720451355 0.3529411852359772
0.7054187059402466 0.5217116475105286 0.2968379557132721 0.6117647290229797 0.6078431606292725 0.6313725709915161
0.806157648563385 0.4680246412754059 0.9897233247756958 0.19607843458652496 0.18431372940540314 0.16470588743686676
0.7307881712913513 0.43502289056777954 0.29841896891593933 0.5137255191802979 0.5176470875740051 0.49803921580314636
0.7105911374092102 0.534817636013031 0.18300394713878632 0.07058823853731155 0.07450980693101883 0.08235294371843338
0.6322659850120544 0.40975841879844666 0.29960474371910095 0.4941176474094391 0.5098039507865906 0.5215686559677124
0.6568965315818787 0.402810662984848 0.006719367578625679 0.48235294222831726 0.4901960790157318 0.572549045085907
0.7844827771186829 0.3998105227947235 0.0063241105526685715 0.48235294222831726 0.4627451002597809 0.38823530077934265
0.8374384045600891 0.4707089960575104 0.9897233247756958 0.19607843458652496 0.19607843458652496 0.16470588743686676
0.6990147829055786 0.4144954979419708 0.29920947551727295 0.5137255191802979 0.5333333611488342 0.545098066329956
0.8167487978935242 0.4939207434654236 0.9897233247756958 0.21960784494876862 0.2078431397676468 0.18039216101169586
0.8334975242614746 0.5392389297485352 0.9897233247756958 0.3294117748737335 0.3176470696926117 0.29019609093666077
0.7096059322357178 0.4624980390071869 0.17509882152080536 0.07058823853731155 0.07450980693101883 0.08235294371843338
0.8054187297821045 0.4336017668247223 0.006719367578625679 0.501960813999176 0.4901960790157318 0.4156862795352936
0.6798029541969299 0.47781461477279663 0.2972331941127777 0.658823549747467 0.6627451181411743 0.6705882549285889
0.6339901685714722 0.4018632471561432 0.007509881630539894 0.03921568766236305 0.04313725605607033 0.0117647061124444
0.8598521947860718 0.48381492495536804 0.9897233247756958 0.2078431397676468 0.19607843458652496 0.16862745583057404
0.7536945939064026 0.45965576171875 0.2770751118659973 0.16862745583057404 0.16470588743686676 0.14901961386203766
0.6509852409362793 0.42728564143180847 0.29881423711776733 0.40784314274787903 0.4156862795352936 0.3960784375667572
0.7423645257949829 0.42602241039276123 0.1826086938381195 0.08627451211214066 0.09019608050584793 0.09803921729326248
0.632758617401123 0.5452392101287842 0.005928853526711464 0.21568627655506134 0.2235294133424759 0.21176470816135406
0.6502463221549988 0.4394441843032837 0.9901185631752014 0.40392157435417175 0.38823530077934265 0.3843137323856354
0.8615763783454895 0.5119217038154602 0.9897233247756958 0.23529411852359772 0.239215686917305 0.2078431397676468
0.7418718934059143 0.546344518661499 0.21106719970703125 0.20000000298023224 0.20000000298023224 0.1921568661928177
0.7477832436561584 0.41291648149490356 0.9905138611793518 0.41960784792900085 0.4156862795352936 0.40784314274787903
0.7384236454963684 0.5248697400093079 0.19130434095859528 0.07058823853731155 0.07058823853731155 0.07058823853731155
0.7859606146812439 0.5049739480018616 0.9897233247756958 0.16470588743686676 0.16470588743686676 0.13333334028720856
0.8472906351089478 0.5338702201843262 0.9897233247756958 0.32549020648002625 0.3137255012989044 0.2862745225429535
0.6261083483695984 0.49344703555107117 0.0063241105526685715 0.2549019753932953 0.26274511218070984 0.250980406999588
0.6894088387489319 0.4361282289028168 0.005928853526711464 0.5686274766921997 0.5607843399047852 0.5098039507865906
0.8216748833656311 0.4373914301395416 0.9901185631752014 0.239215686917305 0.22745098173618317 0.1921568661928177
0.7995073795318604 0.5243960022926331 0.006719367578625679 0.5529412031173706 0.5333333611488342 0.4588235318660736
0.7556650042533875 0.46739301085472107 0.2747035622596741 0.1725490242242813 0.16862745583057404 0.16078431904315948
0.737438440322876 0.4574451148509979 0.9901185631752014 0.37254902720451355 0.35686275362968445 0.3450980484485626
0.8073891401290894 0.45791885256767273 0.9897233247756958 0.20000000298023224 0.20000000298023224 0.1921568661928177
0.7233990430831909 0.4767093062400818 0.9897233247756958 0.35686275362968445 0.3529411852359772 0.33725491166114807
0.6837438344955444 0.41275855898857117 0.29920947551727295 0.4745098054409027 0.5058823823928833 0.5137255191802979
0.7002463340759277 0.54081791639328 0.17351779341697693 0.062745101749897 0.06666667014360428 0.08235294371843338
0.6788177490234375 0.5313437581062317 0.2968379557132721 0.6000000238418579 0.5960784554481506 0.6274510025978088
0.634482741355896 0.4051792323589325 0.007905138656497002 0.054901961237192154 0.05882352963089943 0.06666667014360428
0.7174876928329468 0.46423494815826416 0.2976284623146057 0.5960784554481506 0.6196078658103943 0.6196078658103943
0.7839901447296143 0.489183634519577 0.007509881630539894 0.5372549295425415 0.5333333611488342 0.45490196347236633
0.7394088506698608 0.4337596595287323 0.145454540848732 0.09019608050584793 0.09019608050584793 0.09019608050584793
0.7046797871589661 0.4193904995918274 0.29920947551727295 0.501960813999176 0.5254902243614197 0.5176470875740051
0.6613300442695618 0.5275540947914124 0.2968379557132721 0.6313725709915161 0.6313725709915161 0.6392157077789307
0.6349753737449646 0.40328437089920044 0.007905138656497002 0.09803921729326248 0.10196078568696976 0.07058823853731155
0.6931034326553345 0.45223432779312134 0.9901185631752014 0.3764705955982208 0.3607843220233917 0.35686275362968445
0.6990147829055786 0.3987051844596863 0.1660079061985016 0.0470588244497776 0.05098039284348488 0.05882352963089943
0.7411330342292786 0.4623401165008545 0.2079051434993744 0.1725490242242813 0.1725490242242813 0.16470588743686676
0.8302955627441406 0.5356071591377258 0.006719367578625679 0.6666666865348816 0.6627451181411743 0.5803921818733215
0.8357142806053162 0.42649611830711365 0.005928853526711464 0.6117647290229797 0.6117647290229797 0.5176470875740051
0.6630541682243347 0.5281856656074524 0.005138339940458536 0.0470588244497776 0.05098039284348488 0.0313725508749485
0.7137930989265442 0.48081478476524353 0.007509881630539894 0.4117647111415863 0.4117647111415863 0.37254902720451355
0.743596076965332 0.546028733253479 0.2454545497894287 0.1411764770746231 0.13725490868091583 0.12156862765550613
0.6524630784988403 0.5160271525382996 0.2964426875114441 0.6549019813537598 0.6549019813537598 0.6549019813537598
0.6805418729782104 0.5030791163444519 0.9901185631752014 0.3176470696926117 0.3137255012989044 0.29411765933036804
0.6371921300888062 0.5040265321731567 0.007905138656497002 0.364705890417099 0.3686274588108063 0.3450980484485626
0.770443320274353 0.4162324368953705 0.0063241105526685715 0.4313725531101227 0.40392157435417175 0.3294117748737335
0.6440886855125427 0.4711827039718628 0.011462450958788395 0.10196078568696976 0.10588235408067703 0.11372549086809158
0.7192118167877197 0.4459182024002075 0.0071146246045827866 0.07058823853731155 0.0784313753247261 0.03529411926865578
0.8391625881195068 0.513027012348175 0.9897233247756958 0.20000000298023224 0.20000000298023224 0.16862745583057404
0.8162561655044556 0.5360808372497559 0.0063241105526685715 0.658823549747467 0.6549019813537598 0.545098066329956
0.687438428401947 0.42112743854522705 0.005928853526711464 0.027450980618596077 0.05098039284348488 0.03529411926865578
0.685960590839386 0.45002368092536926 0.29841896891593933 0.4941176474094391 0.5176470875740051 0.47058823704719543
0.7369458079338074 0.419232577085495 0.261264830827713 0.10588235408067703 0.10196078568696976 0.08627451211214066
0.7450739145278931 0.5493447184562683 0.26798418164253235 0.13333334028720856 0.12941177189350128 0.12156862765550613
0.7339901328086853 0.5052897334098816 0.2968379557132721 0.615686297416687 0.6196078658103943 0.6392157077789307
0.7497537136077881 0.45618191361427307 0.30474308133125305 0.05882352963089943 0.062745101749897 0.0784313753247261
0.7766009569168091 0.5166587829589844 0.9897233247756958 0.23137255012989044 0.21960784494876862 0.1921568661928177
0.8051724433898926 0.4917100965976715 0.9897233247756958 0.1764705926179886 0.16470588743686676 0.13725490868091583
0.6162561774253845 0.4078635573387146 0.29960474371910095 0.4901960790157318 0.49803921580314636 0.4941176474094391
0.7470443248748779 0.46170851588249207 0.9901185631752014 0.3607843220233917 0.3450980484485626 0.34117648005485535
0.7605911493301392 0.4336017668247223 0.006719367578625679 0.34117648005485535 0.3333333432674408 0.250980406999588
0.8544334769248962 0.5387651920318604 0.9897233247756958 0.3333333432674408 0.32156863808631897 0.29411765933036804
0.7908867001533508 0.46123480796813965 0.9897233247756958 0.21176470816135406 0.20000000298023224 0.1725490242242813
0.706403911113739 0.45933997631073 0.29802370071411133 0.5686274766921997 0.5843137502670288 0.5803921818733215
0.6657635569572449 0.5273962020874023 0.9901185631752014 0.37254902720451355 0.35686275362968445 0.32156863808631897
0.6623152494430542 0.546344518661499 0.2968379557132721 0.5764706134796143 0.5921568870544434 0.5882353186607361
0.6721674799919128 0.5409758687019348 0.9901185631752014 0.364705890417099 0.3607843220233917 0.34117648005485535
0.7440886497497559 0.524080216884613 0.2968379557132721 0.3333333432674408 0.3490196168422699 0.3529411852359772
0.7086206674575806 0.4053371250629425 0.29960474371910095 0.6039215922355652 0.6235294342041016 0.6470588445663452
0.7169950604438782 0.4877625107765198 0.007905138656497002 0.2862745225429535 0.2862745225429535 0.239215686917305
0.6751231551170349 0.4029685854911804 0.29960474371910095 0.5568627715110779 0.5686274766921997 0.6039215922355652
0.8480295538902283 0.5319753885269165 0.9897233247756958 0.32549020648002625 0.3137255012989044 0.2862745225429535
0.7522167563438416 0.5469761490821838 0.28814229369163513 0.13333334028720856 0.13333334028720856 0.10196078568696976
0.7849753499031067 0.49786829948425293 0.007509881630539894 0.4901960790157318 0.49803921580314636 0.40392157435417175
0.8435960412025452 0.397126168012619 0.005928853526711464 0.6470588445663452 0.6235294342041016 0.5607843399047852
0.7827585935592651 0.5090793967247009 0.007509881630539894 0.4313725531101227 0.38823530077934265 0.3176470696926117
0.751477837562561 0.4165482521057129 0.9905138611793518 0.3764705955982208 0.3607843220233917 0.35686275362968445
0.8497536778450012 0.454129159450531 0.005928853526711464 0.48235294222831726 0.48235294222831726 0.3803921639919281
0.7465517520904541 0.5161850452423096 0.16798418760299683 0.0941176488995552 0.05098039284348488 0.06666667014360428
0.6465517282485962 0.40928471088409424 0.29960474371910095 0.49803921580314636 0.5215686559677124 0.5215686559677124
0.7551724314689636 0.5275540947914124 0.0071146246045827866 0.33725491166114807 0.3137255012989044 0.250980406999588
0.6541872024536133 0.5109742879867554 0.2964426875114441 0.6509804129600525 0.6509804129600525 0.6509804129600525
0.8366994857788086 0.4830254316329956 0.9897233247756958 0.1882352977991104 0.1764705926179886 0.14901961386203766
0.7386699318885803 0.5089215040206909 0.007905138656497002 0.22745098173618317 0.20392157137393951 0.1568627506494522
0.8150246143341064 0.4547607898712158 0.9897233247756958 0.1725490242242813 0.16862745583057404 0.14901961386203766
0.7174876928329468 0.47228801250457764 0.9897233247756958 0.3803921639919281 0.364705890417099 0.3529411852359772
0.7349753975868225 0.5447655320167542 0.2968379557132721 0.41960784792900085 0.4470588266849518 0.47058823704719543
0.7571428418159485 0.46376124024391174 0.2865612506866455 0.18039216101169586 0.1764705926179886 0.16078431904315948
0.7490147948265076 0.4741828441619873 0.26798418164253235 0.15294118225574493 0.1568627506494522 0.13725490868091583
0.818965494632721 0.5359229445457458 0.0063241105526685715 0.4745098054409027 0.47058823704719543 0.3607843220233917
0.729556679725647 0.4056529402732849 0.9909090995788574 0.37254902720451355 0.3764705955982208 0.35686275362968445
0.6793103218078613 0.4193904995918274 0.29920947551727295 0.4470588266849518 0.48235294222831726 0.47058823704719543
0.7490147948265076 0.545555055141449 0.3031620681285858 0.35686275362968445 0.364705890417099 0.3529411852359772
0.7519704699516296 0.46123480796813965 0.2719367444515228 0.16470588743686676 0.16470588743686676 0.1568627506494522
0.6662561297416687 0.5005526542663574 0.9901185631752014 0.38823530077934265 0.3764705955982208 0.3490196168422699
0.7394088506698608 0.443233847618103 0.9901185631752014 0.37254902720451355 0.35686275362968445 0.3529411852359772
0.7315270900726318 0.4451286792755127 0.007509881630539894 0.3450980484485626 0.3294117748737335 0.29411765933036804
0.8268473148345947 0.4160745441913605 0.9901185631752014 0.4000000059604645 0.38823530077934265 0.3686274588108063
0.8216748833656311 0.551081657409668 0.9897233247756958 0.3137255012989044 0.30980393290519714 0.29019609093666077
0.6443349719047546 0.5161850452423096 0.9901185631752014 0.40784314274787903 0.3960784375667572 0.3607843220233917
0.6834975481033325 0.5188694000244141 0.0063241105526685715 0.30588236451148987 0.29411765933036804 0.23529411852359772
0.8054187297821045 0.4336017668247223 0.006719367578625679 0.501960813999176 0.4901960790157318 0.4156862795352936
0.6660098433494568 0.44670772552490234 0.011857707053422928 0.4901960790157318 0.4901960790157318 0.4588235318660736
0.692364513874054 0.5079740881919861 0.2964426875114441 0.658823549747467 0.6509804129600525 0.6549019813537598
0.7349753975868225 0.42649611830711365 0.20434781908988953 0.26274511218070984 0.2549019753932953 0.25882354378700256
0.7152709364891052 0.4659718871116638 0.9897233247756958 0.3960784375667572 0.3921568691730499 0.3764705955982208
0.7460591197013855 0.43881258368492126 0.2644268870353699 0.14901961386203766 0.14901961386203766 0.1411764770746231
0.7416256070137024 0.47544607520103455 0.2545454502105713 0.22745098173618317 0.23137255012989044 0.2078431397676468
0.7522167563438416 0.48160430788993835 0.9897233247756958 0.3294117748737335 0.3137255012989044 0.30980393290519714
0.7362068891525269 0.5122374892234802 0.26166006922721863 0.03921568766236305 0.03921568766236305 0.03921568766236305
0.7529556751251221 0.5357650518417358 0.28379446268081665 0.12156862765550613 0.11764705926179886 0.10196078568696976
0.7965517044067383 0.4448128938674927 0.006719367578625679 0.529411792755127 0.5137255191802979 0.4156862795352936
0.7349753975868225 0.42396968603134155 0.20711462199687958 0.21176470816135406 0.21568627655506134 0.2235294133424759
0.6490147709846497 0.5093952417373657 0.005928853526711464 0.3490196168422699 0.33725491166114807 0.3176470696926117
0.7044335007667542 0.49549975991249084 0.007509881630539894 0.1568627506494522 0.1568627506494522 0.14901961386203766
0.8100985288619995 0.5201326608657837 0.006719367578625679 0.4470588266849518 0.43921568989753723 0.34117648005485535
0.7830049395561218 0.45302385091781616 0.0071146246045827866 0.42352941632270813 0.40392157435417175 0.32549020648002625
0.6253694295883179 0.5371861457824707 0.2964426875114441 0.6509804129600525 0.6549019813537598 0.6705882549285889
0.624876856803894 0.41496920585632324 0.9897233247756958 0.3921568691730499 0.3764705955982208 0.364705890417099
0.7339901328086853 0.5150797367095947 0.9897233247756958 0.3686274588108063 0.3529411852359772 0.34117648005485535
0.8541871905326843 0.47307753562927246 0.9897233247756958 0.23529411852359772 0.21960784494876862 0.1725490242242813
0.8554187417030334 0.42144322395324707 0.9901185631752014 0.38823530077934265 0.3764705955982208 0.3490196168422699
0.6633005142211914 0.44718143343925476 0.29841896891593933 0.4274509847164154 0.4470588266849518 0.41960784792900085
0.7241379022598267 0.4421285390853882 0.0071146246045827866 0.08235294371843338 0.07058823853731155 0.05098039284348488
0.7115763425827026 0.5397126078605652 0.9897233247756958 0.3490196168422699 0.3333333432674408 0.32156863808631897
0.6482758522033691 0.4912363886833191 0.9901185631752014 0.3686274588108063 0.3490196168422699 0.33725491166114807
0.7162561416625977 0.43218064308166504 0.29881423711776733 0.5098039507865906 0.5215686559677124 0.4941176474094391
0.7384236454963684 0.3991788923740387 0.17509882152080536 0.10588235408067703 0.10980392247438431 0.11764705926179886
0.6640394330024719 0.4632875323295593 0.29802370071411133 0.5098039507865906 0.5254902243614197 0.5215686559677124
0.7165024876594543 0.5335543751716614 0.18853755295276642 0.0941176488995552 0.0784313753247261 0.08235294371843338
0.742118239402771 0.47007736563682556 0.16324110329151154 0.14509804546833038 0.14509804546833038 0.14509804546833038
0.6389162540435791 0.5285015106201172 0.2964426875114441 0.6392157077789307 0.6431372761726379 0.658823549747467
0.8206896781921387 0.5482394099235535 0.9897233247756958 0.3529411852359772 0.34117648005485535 0.32156863808631897
0.6578817963600159 0.4798673689365387 0.2976284623146057 0.5960784554481506 0.6039215922355652 0.6000000238418579
0.6197044253349304 0.5106584429740906 0.005928853526711464 0.23529411852359772 0.24313725531101227 0.23137255012989044
0.6408867239952087 0.5316595435142517 0.2964426875114441 0.6392157077789307 0.6431372761726379 0.6627451181411743
0.8145320415496826 0.4277593493461609 0.0063241105526685715 0.5647059082984924 0.545098066329956 0.4588235318660736
0.6455665230751038 0.42996999621391296 0.9897233247756958 0.3490196168422699 0.3490196168422699 0.30980393290519714
0.6660098433494568 0.5052897334098816 0.005928853526711464 0.529411792755127 0.5098039507865906 0.48627451062202454
0.6504926085472107 0.45255014300346375 0.014229249209165573 0.12156862765550613 0.12941177189350128 0.125490203499794
0.6162561774253845 0.5487130880355835 0.2964426875114441 0.6392157077789307 0.6509804129600525 0.6705882549285889
0.6290640234947205 0.5078161954879761 0.2968379557132721 0.6392157077789307 0.6509804129600525 0.6235294342041016
0.8039408922195435 0.40138953924179077 0.9905138611793518 0.4000000059604645 0.3843137323856354 0.37254902720451355
0.6692118048667908 0.5327649116516113 0.2968379557132721 0.615686297416687 0.6117647290229797 0.6313725709915161
0.8541871905326843 0.535133421421051 0.0063241105526685715 0.6980392336845398 0.6941176652908325 0.6117647290229797
0.635960578918457 0.49297332763671875 0.007905138656497002 0.3294117748737335 0.3333333432674408 0.3137255012989044
0.676354706287384 0.4227064549922943 0.9901185631752014 0.35686275362968445 0.34117648005485535 0.3294117748737335
0.8246305584907532 0.49028897285461426 0.9897233247756958 0.1764705926179886 0.16470588743686676 0.13725490868091583
0.7443349957466125 0.465024471282959 0.24229249358177185 0.16470588743686676 0.16862745583057404 0.14901961386203766
0.7950738668441772 0.5157113671302795 0.0071146246045827866 0.5686274766921997 0.5529412031173706 0.43921568989753723
0.632758617401123 0.5452392101287842 0.005928853526711464 0.21568627655506134 0.2235294133424759 0.21176470816135406
0.6566502451896667 0.4108637273311615 0.009486165829002857 0.04313725605607033 0.04313725605607033 0.03529411926865578
0.742118239402771 0.4591820538043976 0.21976284682750702 0.14901961386203766 0.14901961386203766 0.1411764770746231
0.6975369453430176 0.4792357385158539 0.0071146246045827866 0.5333333611488342 0.5176470875740051 0.48235294222831726
0.673399031162262 0.48081478476524353 0.9901185631752014 0.3450980484485626 0.3450980484485626 0.3137255012989044
0.745320200920105 0.5228170156478882 0.29328063130378723 0.12156862765550613 0.12156862765550613 0.11372549086809158
0.8174876570701599 0.5315016508102417 0.9897233247756958 0.32549020648002625 0.3137255012989044 0.29411765933036804
0.8022167682647705 0.42633822560310364 0.0063241105526685715 0.47058823704719543 0.4588235318660736 0.3843137323856354
0.8169950842857361 0.5422390699386597 0.006719367578625679 0.45490196347236633 0.45490196347236633 0.3607843220233917
0.7733989953994751 0.5360808372497559 0.9897233247756958 0.3294117748737335 0.3137255012989044 0.3019607961177826
0.7743842601776123 0.42902258038520813 0.9901185631752014 0.32156863808631897 0.30588236451148987 0.3019607961177826
0.820443332195282 0.39823147654533386 0.005928853526711464 0.5686274766921997 0.5568627715110779 0.4901960790157318
0.7576354742050171 0.443233847618103 0.28260868787765503 0.15294118225574493 0.15294118225574493 0.14509804546833038
0.6605911254882812 0.42365387082099915 0.29920947551727295 0.43529412150382996 0.45490196347236633 0.4313725531101227
0.7379310131072998 0.4279172718524933 0.24387352168560028 0.14901961386203766 0.14901961386203766 0.1411764770746231
0.820443332195282 0.42444339394569397 0.0063241105526685715 0.529411792755127 0.5254902243614197 0.4470588266849518
0.826600968837738 0.4288646876811981 0.0063241105526685715 0.5921568870544434 0.572549045085907 0.48627451062202454
0.6960591077804565 0.46076110005378723 0.006719367578625679 0.5490196347236633 0.5607843399047852 0.48627451062202454
0.7214285731315613 0.4193904995918274 0.9905138611793518 0.3960784375667572 0.3921568691730499 0.37254902720451355
0.7184728980064392 0.41796937584877014 0.29920947551727295 0.5568627715110779 0.5607843399047852 0.5686274766921997
0.6807881593704224 0.4767093062400818 0.9901185631752014 0.3607843220233917 0.35686275362968445 0.33725491166114807
0.756157636642456 0.5468182563781738 0.9897233247756958 0.3176470696926117 0.30588236451148987 0.2862745225429535
0.7620689868927002 0.4113374352455139 0.9905138611793518 0.40392157435417175 0.38823530077934265 0.3843137323856354
0.7679802775382996 0.4563398063182831 0.9901185631752014 0.22745098173618317 0.2235294133424759 0.20392157137393951
0.6167487502098083 0.4433917701244354 0.29841896891593933 0.40784314274787903 0.4313725531101227 0.3921568691730499
0.6369457840919495 0.5243960022926331 0.007905138656497002 0.21568627655506134 0.2235294133424759 0.21960784494876862
0.74064040184021 0.5360808372497559 0.2347826063632965 0.12941177189350128 0.12941177189350128 0.12156862765550613
0.8243842124938965 0.5495026111602783 0.9897233247756958 0.32156863808631897 0.30980393290519714 0.29019609093666077
0.7357142567634583 0.4195483922958374 0.23557312786579132 0.125490203499794 0.125490203499794 0.125490203499794
0.8088669776916504 0.5002368688583374 0.0071146246045827866 0.5333333611488342 0.5137255191802979 0.38823530077934265
0.8083744049072266 0.4306015968322754 0.0063241105526685715 0.5490196347236633 0.545098066329956 0.43529412150382996
0.7179803252220154 0.5245538949966431 0.2968379557132721 0.572549045085907 0.5686274766921997 0.5882353186607361
0.7913793325424194 0.5221853852272034 0.0071146246045827866 0.5490196347236633 0.5333333611488342 0.43529412150382996
0.7812808156013489 0.4883941113948822 0.007509881630539894 0.38823530077934265 0.3843137323856354 0.3019607961177826
0.6211822628974915 0.54050213098526 0.9901185631752014 0.3921568691730499 0.3803921639919281 0.3450980484485626
0.8591132760047913 0.40438970923423767 0.9901185631752014 0.38823530077934265 0.38823530077934265 0.35686275362968445
0.7275862097740173 0.4509710967540741 0.29802370071411133 0.5333333611488342 0.5568627715110779 0.5411764979362488
0.8352216482162476 0.5112900733947754 0.006719367578625679 0.5803921818733215 0.5803921818733215 0.47058823704719543
0.7359606027603149 0.4479709565639496 0.14861659705638885 0.09019608050584793 0.09803921729326248 0.0941176488995552
0.8596059083938599 0.48113059997558594 0.9897233247756958 0.21960784494876862 0.20392157137393951 0.16078431904315948
0.7519704699516296 0.4658139944076538 0.2644268870353699 0.1764705926179886 0.1725490242242813 0.1568627506494522
0.620197057723999 0.4399178922176361 0.9897233247756958 0.4000000059604645 0.3960784375667572 0.3764705955982208
0.6499999761581421 0.5003947615623474 0.2968379557132721 0.6509804129600525 0.658823549747467 0.6392157077789307
0.7157635688781738 0.43028581142425537 0.29881423711776733 0.5215686559677124 0.5333333611488342 0.5058823823928833
0.7901477813720703 0.5488709807395935 0.0063241105526685715 0.4745098054409027 0.47058823704719543 0.4000000059604645
0.7263546586036682 0.5283436179161072 0.9897233247756958 0.33725491166114807 0.32156863808631897 0.30980393290519714
0.8206896781921387 0.48697298765182495 0.006719367578625679 0.5803921818733215 0.5882353186607361 0.501960813999176
0.6315270662307739 0.5428707003593445 0.2964426875114441 0.6274510025978088 0.6392157077789307 0.6666666865348816
0.6879310607910156 0.551239550113678 0.2968379557132721 0.5333333611488342 0.5372549295425415 0.5568627715110779
0.80147784948349 0.5262908339500427 0.9897233247756958 0.2862745225429535 0.27450981736183167 0.2549019753932953
0.7248768210411072 0.524080216884613 0.1924901157617569 0.37254902720451355 0.3450980484485626 0.32156863808631897
0.7054187059402466 0.43202275037765503 0.17984189093112946 0.09019608050584793 0.09019608050584793 0.09019608050584793
0.7157635688781738 0.535449206829071 0.1881422996520996 0.08627451211214066 0.08235294371843338 0.10196078568696976
0.7226601243019104 0.41844308376312256 0.29920947551727295 0.5647059082984924 0.5686274766921997 0.5764706134796143
0.621921181678772 0.43281224370002747 0.29881423711776733 0.40784314274787903 0.4274509847164154 0.4000000059604645
0.6270936131477356 0.43186482787132263 0.9897233247756958 0.37254902720451355 0.3607843220233917 0.34117648005485535
0.6635468006134033 0.5223432779312134 0.9901185631752014 0.37254902720451355 0.3607843220233917 0.3333333432674408
0.6564039587974548 0.5303963422775269 0.2964426875114441 0.6352941393852234 0.6313725709915161 0.6509804129600525
0.8492611050605774 0.5027633309364319 0.0063241105526685715 0.6431372761726379 0.658823549747467 0.5686274766921997
0.8475369215011597 0.4053371250629425 0.005928853526711464 0.5529412031173706 0.529411792755127 0.46666666865348816
0.6285714507102966 0.5337123274803162 0.2964426875114441 0.6352941393852234 0.6470588445663452 0.6666666865348816
0.734236478805542 0.45965576171875 0.15296442806720734 0.09019608050584793 0.09019608050584793 0.09019608050584793
0.7445812821388245 0.5212379693984985 0.2905138432979584 0.10588235408067703 0.10588235408067703 0.09803921729326248
0.7113300561904907 0.3966524600982666 0.17984189093112946 0.03921568766236305 0.054901961237192154 0.05882352963089943
0.7219212055206299 0.46944576501846313 0.2976284623146057 0.6352941393852234 0.6431372761726379 0.6392157077789307
0.6657635569572449 0.42144322395324707 0.004743082914501429 0.10196078568696976 0.0784313753247261 0.0784313753247261
0.6566502451896667 0.42618033289909363 0.29881423711776733 0.43529412150382996 0.43921568989753723 0.4156862795352936
0.706403911113739 0.45965576171875 0.0071146246045827866 0.10588235408067703 0.0941176488995552 0.07450980693101883
0.7886699438095093 0.5163429379463196 0.9897233247756958 0.2549019753932953 0.24313725531101227 0.21568627655506134
0.6189655065536499 0.4718143045902252 0.9901185631752014 0.3960784375667572 0.3843137323856354 0.3490196168422699
0.7364531755447388 0.4282330572605133 0.9901185631752014 0.3960784375667572 0.3921568691730499 0.3843137323856354
0.7118226885795593 0.44165483117103577 0.9901185631752014 0.3960784375667572 0.3803921639919281 0.3764705955982208
0.7504926323890686 0.4045476019382477 0.0063241105526685715 0.19607843458652496 0.19607843458652496 0.1568627506494522
0.7197044491767883 0.3988631069660187 0.29960474371910095 0.6470588445663452 0.658823549747467 0.6784313917160034
0.648522138595581 0.48697298765182495 0.009881422854959965 0.4274509847164154 0.4156862795352936 0.3803921639919281
0.8273398876190186 0.4506553113460541 0.9897233247756958 0.22745098173618317 0.21568627655506134 0.18039216101169586
0.6332512497901917 0.5139744281768799 0.2964426875114441 0.6352941393852234 0.6431372761726379 0.6313725709915161
0.6288177371025085 0.45586609840393066 0.011857707053422928 0.06666667014360428 0.062745101749897 0.054901961237192154
0.7283251285552979 0.4574451148509979 0.007509881630539894 0.26274511218070984 0.26274511218070984 0.23137255012989044
0.8418719172477722 0.5275540947914124 0.0063241105526685715 0.6313725709915161 0.6392157077789307 0.545098066329956
0.7911329865455627 0.4193904995918274 0.0063241105526685715 0.501960813999176 0.47058823704719543 0.3803921639919281
0.7529556751251221 0.5043423175811768 0.9897233247756958 0.3176470696926117 0.30588236451148987 0.2862745225429535
0.7413793206214905 0.45870834589004517 0.9901185631752014 0.3843137323856354 0.3686274588108063 0.364705890417099
0.7458128333091736 0.5482394099235535 0.17944663763046265 0.15294118225574493 0.15294118225574493 0.14509804546833038
0.823399007320404 0.3990209996700287 0.005928853526711464 0.5490196347236633 0.5372549295425415 0.47058823704719543
0.8310344815254211 0.4906047582626343 0.0063241105526685715 0.7176470756530762 0.729411780834198 0.6235294342041016
0.8211822509765625 0.47323542833328247 0.9897233247756958 0.20392157137393951 0.1921568661928177 0.16470588743686676
0.7266010046005249 0.43265435099601746 0.1616600751876831 0.09019608050584793 0.09019608050584793 0.09019608050584793
0.732758641242981 0.39523133635520935 0.18300394713878632 0.054901961237192154 0.054901961237192154 0.054901961237192154
0.7376847267150879 0.5255013704299927 0.007509881630539894 0.21176470816135406 0.20392157137393951 0.14509804546833038
0.616995096206665 0.4367598295211792 0.29881423711776733 0.4156862795352936 0.4274509847164154 0.4000000059604645
0.7034482955932617 0.5472919344902039 0.0071146246045827866 0.3450980484485626 0.34117648005485535 0.2705882489681244
0.706403911113739 0.4255487024784088 0.1920948624610901 0.07058823853731155 0.07450980693101883 0.08235294371843338
0.740394115447998 0.42349597811698914 0.16758893430233002 0.08235294371843338 0.08627451211214066 0.0941176488995552
0.8458127975463867 0.4546028673648834 0.9897233247756958 0.239215686917305 0.21960784494876862 0.19607843458652496
0.7733989953994751 0.4737091362476349 0.007509881630539894 0.3843137323856354 0.364705890417099 0.29019609093666077
0.8477832674980164 0.4973945915699005 0.9897233247756958 0.23529411852359772 0.23529411852359772 0.19607843458652496
0.7285714149475098 0.39554712176322937 0.991304337978363 0.4000000059604645 0.3960784375667572 0.3803921639919281
0.6743842363357544 0.48065686225891113 0.9901185631752014 0.34117648005485535 0.34117648005485535 0.30980393290519714
0.738916277885437 0.4632875323295593 0.2972331941127777 0.054901961237192154 0.054901961237192154 0.054901961237192154
0.7105911374092102 0.42349597811698914 0.1826086938381195 0.08627451211214066 0.08627451211214066 0.08627451211214066
0.684236466884613 0.4219169318675995 0.29920947551727295 0.43529412150382996 0.45490196347236633 0.43921568989753723
0.701724112033844 0.5207642316818237 0.2968379557132721 0.6117647290229797 0.6078431606292725 0.6392157077789307
0.6672413945198059 0.437549352645874 0.29881423711776733 0.41960784792900085 0.45098039507865906 0.40784314274787903
0.798275887966156 0.5280277729034424 0.006719367578625679 0.545098066329956 0.5372549295425415 0.4470588266849518
0.7384236454963684 0.5367124676704407 0.0071146246045827866 0.3176470696926117 0.30588236451148987 0.239215686917305
0.7384236454963684 0.4418127238750458 0.1972332000732422 0.0470588244497776 0.054901961237192154 0.05098039284348488
0.6642857193946838 0.4937628209590912 0.2968379557132721 0.6784313917160034 0.686274528503418 0.6666666865348816
0.6179803013801575 0.48476237058639526 0.9901185631752014 0.3960784375667572 0.3960784375667572 0.35686275362968445
0.7423645257949829 0.4370756447315216 0.1407114565372467 0.0941176488995552 0.0941176488995552 0.0941176488995552
0.8320196866989136 0.4111795425415039 0.9901185631752014 0.3607843220233917 0.3490196168422699 0.3294117748737335
0.6871921420097351 0.5196589231491089 0.9901185631752014 0.3764705955982208 0.364705890417099 0.3450980484485626
0.6706896424293518 0.5483973026275635 0.9901185631752014 0.364705890417099 0.3607843220233917 0.34117648005485535
0.7137930989265442 0.44070741534233093 0.16798418760299683 0.09019608050584793 0.09019608050584793 0.09019608050584793
0.6263546943664551 0.5453971028327942 0.2964426875114441 0.6274510025978088 0.6470588445663452 0.658823549747467
0.7985221743583679 0.5123953819274902 0.0071146246045827866 0.545098066329956 0.5254902243614197 0.3764705955982208
0.6362069249153137 0.5002368688583374 0.9901185631752014 0.4156862795352936 0.4000000059604645 0.3529411852359772
0.729556679725647 0.45318174362182617 0.29802370071411133 0.5411764979362488 0.5647059082984924 0.5647059082984924
0.8024630546569824 0.5266066789627075 0.9897233247756958 0.29411765933036804 0.2823529541492462 0.26274511218070984
0.8059113025665283 0.45033949613571167 0.9901185631752014 0.24313725531101227 0.24313725531101227 0.21176470816135406
0.8086206912994385 0.4056529402732849 0.005928853526711464 0.5058823823928833 0.4941176474094391 0.4274509847164154
0.7034482955932617 0.5420811772346497 0.1770751029253006 0.08235294371843338 0.07450980693101883 0.0784313753247261
0.7475369572639465 0.45302385091781616 0.14980237185955048 0.18431372940540314 0.20392157137393951 0.1882352977991104
0.6706896424293518 0.397126168012619 0.9901185631752014 0.3843137323856354 0.3843137323856354 0.3843137323856354
0.6189655065536499 0.5356071591377258 0.2964426875114441 0.6392157077789307 0.6549019813537598 0.6666666865348816
0.6847290396690369 0.4340754747390747 0.011857707053422928 0.48627451062202454 0.47843137383461 0.4313725531101227
0.7871921062469482 0.5234485864639282 0.0071146246045827866 0.47058823704719543 0.4470588266849518 0.3450980484485626
0.6583743691444397 0.4678667187690735 0.007509881630539894 0.24705882370471954 0.2549019753932953 0.23529411852359772
0.8472906351089478 0.5518711805343628 0.9897233247756958 0.29411765933036804 0.2823529541492462 0.26274511218070984
0.7475369572639465 0.5278698801994324 0.30000001192092896 0.21568627655506134 0.21960784494876862 0.22745098173618317
0.6453201770782471 0.5247118473052979 0.2964426875114441 0.6392157077789307 0.6431372761726379 0.6509804129600525
0.7825123071670532 0.5371861457824707 0.9897233247756958 0.27450981736183167 0.26274511218070984 0.24313725531101227
0.7701970338821411 0.4170219600200653 0.0063241105526685715 0.42352941632270813 0.3960784375667572 0.32549020648002625
0.695320188999176 0.5119217038154602 0.006719367578625679 0.42352941632270813 0.42352941632270813 0.4156862795352936
0.6184729337692261 0.4362861216068268 0.29881423711776733 0.4000000059604645 0.41960784792900085 0.3921568691730499
0.6445812582969666 0.5436601638793945 0.2968379557132721 0.6235294342041016 0.6352941393852234 0.6705882549285889
0.8243842124938965 0.5002368688583374 0.9897233247756958 0.1568627506494522 0.14509804546833038 0.11764705926179886
0.6773399114608765 0.5270803570747375 0.9901185631752014 0.37254902720451355 0.3607843220233917 0.3333333432674408
0.8458127975463867 0.44954997301101685 0.005928853526711464 0.5529412031173706 0.5568627715110779 0.43529412150382996
0.679556667804718 0.47497236728668213 0.0063241105526685715 0.5372549295425415 0.5372549295425415 0.49803921580314636
0.6399014592170715 0.46439287066459656 0.012648221105337143 0.09019608050584793 0.09019608050584793 0.09019608050584793
0.6305418610572815 0.43297016620635986 0.0035573123022913933 0.3176470696926117 0.27843138575553894 0.27450981736183167
0.632758617401123 0.5397126078605652 0.9905138611793518 0.3960784375667572 0.3843137323856354 0.3490196168422699
0.7177339792251587 0.47560396790504456 0.17509882152080536 0.07058823853731155 0.07058823853731155 0.0784313753247261
0.6790640354156494 0.5097110271453857 0.0063241105526685715 0.3960784375667572 0.4000000059604645 0.4156862795352936
0.7197044491767883 0.43881258368492126 0.0071146246045827866 0.3686274588108063 0.34117648005485535 0.3019607961177826
0.6403940916061401 0.45586609840393066 0.9901185631752014 0.3960784375667572 0.3921568691730499 0.3764705955982208
0.8477832674980164 0.4170219600200653 0.9901185631752014 0.4000000059604645 0.38823530077934265 0.3686274588108063
0.6529556512832642 0.5285015106201172 0.2964426875114441 0.6313725709915161 0.6470588445663452 0.658823549747467
0.8142856955528259 0.5523448586463928 0.9897233247756958 0.3529411852359772 0.3490196168422699 0.3294117748737335
0.7192118167877197 0.46407705545425415 0.16561265289783478 0.08235294371843338 0.09019608050584793 0.08627451211214066
0.6790640354156494 0.5127111673355103 0.0063241105526685715 0.4000000059604645 0.42352941632270813 0.42352941632270813
0.7371920943260193 0.40960049629211426 0.006719367578625679 0.1882352977991104 0.18431372940540314 0.16470588743686676
0.754679799079895 0.5423969626426697 0.28418973088264465 0.1411764770746231 0.13725490868091583 0.11764705926179886
0.6871921420097351 0.4174956679344177 0.29920947551727295 0.46666666865348816 0.48235294222831726 0.47843137383461
0.8445813059806824 0.3999684154987335 0.005928853526711464 0.5568627715110779 0.545098066329956 0.48627451062202454
0.7689655423164368 0.40360018610954285 0.0063241105526685715 0.41960784792900085 0.3921568691730499 0.3607843220233917
0.7431034445762634 0.5479235649108887 0.2292490154504776 0.1411764770746231 0.14509804546833038 0.11372549086809158
0.814039409160614 0.4598136842250824 0.9897233247756958 0.2078431397676468 0.20392157137393951 0.18431372940540314
0.7322660088539124 0.5264487862586975 0.19446639716625214 0.7411764860153198 0.7372549176216125 0.7215686440467834
0.7416256070137024 0.4713405966758728 0.007905138656497002 0.23529411852359772 0.21960784494876862 0.1725490242242813
0.7394088506698608 0.44923415780067444 0.21106719970703125 0.1411764770746231 0.1411764770746231 0.13333334028720856
0.7416256070137024 0.4850781559944153 0.2905138432979584 0.3921568691730499 0.4117647111415863 0.43529412150382996
0.8408867120742798 0.42902258038520813 0.005928853526711464 0.5921568870544434 0.5921568870544434 0.4901960790157318
0.8517241477966309 0.5092373490333557 0.0063241105526685715 0.5921568870544434 0.6039215922355652 0.49803921580314636
0.742118239402771 0.4879204034805298 0.9897233247756958 0.34117648005485535 0.33725491166114807 0.3294117748737335
