0.6527093648910522 0.18443076312541962 0.005928853526711464 0.6470588445663452 0.658823549747467 0.615686297416687
0.6145319938659668 0.09521553665399551 0.9897233247756958 0.3529411852359772 0.33725491166114807 0.29411765933036804
0.5465517044067383 0.20858992636203766 0.9893280863761902 0.3686274588108063 0.364705890417099 0.3450980484485626
0.7098522186279297 0.16706141829490662 0.005928853526711464 0.6196078658103943 0.6274510025978088 0.5843137502670288
0.7187191843986511 0.12869098782539368 0.005533596966415644 0.5921568870544434 0.5921568870544434 0.545098066329956
0.7221674919128418 0.22785410284996033 0.006719367578625679 0.3529411852359772 0.32549020648002625 0.2549019753932953
0.6443349719047546 0.13058581948280334 0.005533596966415644 0.6117647290229797 0.6196078658103943 0.5764706134796143
0.6945812702178955 0.14858676493167877 0.005533596966415644 0.7372549176216125 0.7372549176216125 0.6980392336845398
0.624876856803894 0.2041686475276947 0.9909090995788574 0.9450980424880981 0.9607843160629272 0.9647058844566345
0.6899014711380005 0.19658929109573364 0.9897233247756958 0.9921568632125854 0.9960784316062927 1.0
0.6039409041404724 0.15932416915893555 0.005928853526711464 0.5921568870544434 0.6078431606292725 0.5490196347236633
0.5256157517433167 0.21206378936767578 0.005928853526711464 0.4117647111415863 0.4117647111415863 0.364705890417099
0.734236478805542 0.1894836574792862 0.0063241105526685715 0.5960784554481506 0.6000000238418579 0.529411792755127
0.6088669896125793 0.2125374972820282 0.9916995763778687 0.9960784316062927 1.0 1.0
0.4963054060935974 0.1261645406484604 0.9897233247756958 0.3764705955982208 0.3607843220233917 0.3137255012989044
0.56083744764328 0.22532765567302704 0.2181818187236786 0.11764705926179886 0.11372549086809158 0.09803921729326248
0.6396551728248596 0.08668877184391022 0.9897233247756958 0.3764705955982208 0.364705890417099 0.3294117748737335
0.6243842244148254 0.0890573188662529 0.005533596966415644 0.6117647290229797 0.6000000238418579 0.5803921818733215
0.5761083960533142 0.22359071671962738 0.1984189748764038 0.0784313753247261 0.0784313753247261 0.07058823853731155
0.6142857074737549 0.2210642695426941 0.0063241105526685715 0.33725491166114807 0.32549020648002625 0.25882354378700256
0.5184729099273682 0.12284857034683228 0.005928853526711464 0.6392157077789307 0.6470588445663452 0.5607843399047852
0.6019704341888428 0.10184746235609055 0.005928853526711464 0.5254902243614197 0.529411792755127 0.4588235318660736
0.5721675157546997 0.2182220071554184 0.2770751118659973 0.0941176488995552 0.09019608050584793 0.08235294371843338
0.5972906351089478 0.22201168537139893 0.0063241105526685715 0.3764705955982208 0.3529411852359772 0.29019609093666077
0.6935960650444031 0.14227063953876495 0.9916995763778687 0.27843138575553894 0.27450981736183167 0.2980392277240753
0.5763546824455261 0.2239065170288086 0.005928853526711464 0.2549019753932953 0.24313725531101227 0.1764705926179886
0.5758620500564575 0.1408495157957077 0.9905138611793518 0.3490196168422699 0.3294117748737335 0.30588236451148987
0.6761083602905273 0.20906363427639008 0.9889327883720398 0.95686274766922 0.9686274528503418 0.9882352948188782
0.6699507236480713 0.10216327011585236 0.9901185631752014 0.3529411852359772 0.33725491166114807 0.3019607961177826
0.6083743572235107 0.09521553665399551 0.005928853526711464 0.5921568870544434 0.5960784554481506 0.5411764979362488
0.5731527209281921 0.21111637353897095 0.0063241105526685715 0.3686274588108063 0.3607843220233917 0.3137255012989044
0.6229063868522644 0.21759040653705597 0.14861659705638885 0.2666666805744171 0.250980406999588 0.2078431397676468
0.6349753737449646 0.21380072832107544 0.9905138611793518 1.0 1.0 1.0
0.6352216601371765 0.09268908947706223 0.005533596966415644 0.572549045085907 0.5764706134796143 0.5058823823928833
0.6369457840919495 0.09174167364835739 0.005533596966415644 0.6000000238418579 0.5960784554481506 0.5254902243614197
0.5637931227684021 0.23511764407157898 0.9885375499725342 0.2862745225429535 0.2862745225429535 0.27843138575553894
0.554679811000824 0.16469287872314453 0.0063241105526685715 0.686274528503418 0.6980392336845398 0.615686297416687
0.6285714507102966 0.15095531940460205 0.005533596966415644 0.5372549295425415 0.5529412031173706 0.4941176474094391
0.5692118406295776 0.19643139839172363 0.005928853526711464 0.40392157435417175 0.40784314274787903 0.3450980484485626
0.6288177371025085 0.23432812094688416 0.1928853690624237 0.5058823823928833 0.43921568989753723 0.3764705955982208
0.6830049157142639 0.23180167376995087 0.006719367578625679 0.3960784375667572 0.4000000059604645 0.3294117748737335
0.6995074152946472 0.11937470734119415 0.005533596966415644 0.2078431397676468 0.21176470816135406 0.1882352977991104
0.7261083722114563 0.1236380860209465 0.9916995763778687 0.2549019753932953 0.23529411852359772 0.21960784494876862
0.6554186940193176 0.17353545129299164 0.9905138611793518 0.9215686321258545 0.9411764740943909 0.9647058844566345
0.6386699676513672 0.10121585428714752 0.005533596966415644 0.5215686559677124 0.529411792755127 0.48627451062202454
0.5958127975463867 0.10200536996126175 0.9897233247756958 0.3529411852359772 0.33725491166114807 0.29411765933036804
0.5980295538902283 0.08132006973028183 0.005533596966415644 0.6039215922355652 0.6078431606292725 0.545098066329956
0.6559113264083862 0.2014842927455902 0.0063241105526685715 0.6470588445663452 0.658823549747467 0.5843137502670288
0.5778325200080872 0.2215379774570465 0.9889327883720398 0.4000000059604645 0.3843137323856354 0.37254902720451355
0.6056650280952454 0.23148587346076965 0.29525691270828247 0.48235294222831726 0.48627451062202454 0.46666666865348816
0.49334976077079773 0.12174324691295624 0.9897233247756958 0.3803921639919281 0.364705890417099 0.3176470696926117
0.6633005142211914 0.12774357199668884 0.005138339940458536 0.7137255072593689 0.7137255072593689 0.6666666865348816
0.7261083722114563 0.15127111971378326 0.9924901127815247 1.0 1.0 1.0
0.6263546943664551 0.21948523819446564 0.25810277462005615 0.10196078568696976 0.09803921729326248 0.09019608050584793
0.6302955746650696 0.2010105848312378 0.9905138611793518 0.9607843160629272 0.9803921580314636 0.9647058844566345
0.5386699438095093 0.16327175498008728 0.9897233247756958 0.3764705955982208 0.364705890417099 0.3294117748737335
0.7177339792251587 0.09837359935045242 0.9905138611793518 0.30980393290519714 0.29019609093666077 0.27450981736183167
0.7379310131072998 0.19043107330799103 0.9924901127815247 0.9921568632125854 1.0 0.9960784316062927
0.7100985050201416 0.15727142989635468 0.992094874382019 1.0 1.0 1.0
0.6263546943664551 0.2014842927455902 0.9905138611793518 0.9411764740943909 0.95686274766922 0.9529411792755127
0.6081280708312988 0.1755881905555725 0.005533596966415644 0.5490196347236633 0.5529412031173706 0.4901960790157318
0.548275887966156 0.10311069339513779 0.9897233247756958 0.3764705955982208 0.3607843220233917 0.3176470696926117
0.5598522424697876 0.22832781076431274 0.9885375499725342 0.3490196168422699 0.3450980484485626 0.33725491166114807
0.5913792848587036 0.2126954048871994 0.0063241105526685715 0.43529412150382996 0.41960784792900085 0.3764705955982208
0.6399014592170715 0.22359071671962738 0.2023715376853943 0.05098039284348488 0.05098039284348488 0.04313725605607033
0.6273398995399475 0.08116216957569122 0.9897233247756958 0.37254902720451355 0.35686275362968445 0.3137255012989044
0.5118226408958435 0.1667456179857254 0.0063241105526685715 0.5607843399047852 0.5764706134796143 0.5098039507865906
0.5448275804519653 0.20022106170654297 0.0063241105526685715 0.545098066329956 0.5490196347236633 0.4941176474094391
0.5135468244552612 0.15711353719234467 0.0063241105526685715 0.4901960790157318 0.5058823823928833 0.43921568989753723
0.5926108360290527 0.09711037576198578 0.005928853526711464 0.5607843399047852 0.5686274766921997 0.5137255191802979
0.6751231551170349 0.18600979447364807 0.9901185631752014 0.95686274766922 0.9686274528503418 0.9960784316062927
0.6480295658111572 0.22043265402317047 0.15928854048252106 0.09803921729326248 0.10588235408067703 0.0941176488995552
0.7224137783050537 0.1523764431476593 0.005533596966415644 0.7215686440467834 0.7333333492279053 0.7058823704719543
0.5921182036399841 0.1288488805294037 0.9905138611793518 0.3529411852359772 0.3333333432674408 0.30980393290519714
0.5091133117675781 0.10958471149206161 0.005533596966415644 0.6509804129600525 0.6784313917160034 0.615686297416687
0.6029556393623352 0.2240644246339798 0.19525691866874695 0.0941176488995552 0.08235294371843338 0.062745101749897
0.6568965315818787 0.1724301278591156 0.005533596966415644 0.5882353186607361 0.5882353186607361 0.5490196347236633
0.6199507117271423 0.15411336719989777 0.005533596966415644 0.6313725709915161 0.6470588445663452 0.5921568870544434
0.6564039587974548 0.11321648210287094 0.005138339940458536 0.6000000238418579 0.6078431606292725 0.5568627715110779
0.5795566439628601 0.1436917781829834 0.0063241105526685715 0.7411764860153198 0.7490196228027344 0.6941176652908325
0.5724138021469116 0.17700931429862976 0.9901185631752014 0.3921568691730499 0.38823530077934265 0.37254902720451355
0.5041871666908264 0.09000473469495773 0.9897233247756958 0.3960784375667572 0.37254902720451355 0.32549020648002625
0.6756157875061035 0.1612190157175064 0.005533596966415644 0.6274510025978088 0.6274510025978088 0.5960784554481506
0.6660098433494568 0.206852987408638 0.9889327883720398 0.9411764740943909 0.9607843160629272 0.9843137264251709
0.625123143196106 0.22185377776622772 0.21660079061985016 0.0941176488995552 0.09019608050584793 0.07450980693101883
0.5083743929862976 0.1435338705778122 0.9897233247756958 0.3450980484485626 0.3294117748737335 0.2862745225429535
0.567241370677948 0.1552186906337738 0.0063241105526685715 0.529411792755127 0.5843137502670288 0.4941176474094391
0.5901477932929993 0.20827412605285645 0.9893280863761902 0.4274509847164154 0.42352941632270813 0.4156862795352936
0.6206896305084229 0.13563871383666992 0.9905138611793518 0.3333333432674408 0.3176470696926117 0.30588236451148987
0.5169950723648071 0.09695246815681458 0.9893280863761902 0.3921568691730499 0.3686274588108063 0.3137255012989044
0.734236478805542 0.1894836574792862 0.0063241105526685715 0.5960784554481506 0.6000000238418579 0.529411792755127
0.7177339792251587 0.2213800698518753 0.9909090995788574 0.9843137264251709 0.9882352948188782 0.9960784316062927
0.7231526970863342 0.14890258014202118 0.005533596966415644 0.6352941393852234 0.6274510025978088 0.5686274766921997
0.7270935773849487 0.19122059643268585 0.0063241105526685715 0.6117647290229797 0.6196078658103943 0.5333333611488342
0.7024630308151245 0.20164218544960022 0.0063241105526685715 0.6235294342041016 0.6352941393852234 0.5686274766921997
0.5266009569168091 0.15395547449588776 0.0063241105526685715 0.6235294342041016 0.6352941393852234 0.5529412031173706
0.618719220161438 0.11100584268569946 0.9901185631752014 0.3490196168422699 0.3294117748737335 0.30588236451148987
0.7214285731315613 0.08463603258132935 0.0063241105526685715 0.572549045085907 0.529411792755127 0.40392157435417175
0.6472906470298767 0.18632559478282928 0.005928853526711464 0.5607843399047852 0.572549045085907 0.5372549295425415
0.5118226408958435 0.12174324691295624 0.9897233247756958 0.38823530077934265 0.3607843220233917 0.32156863808631897
0.6862068772315979 0.10737407207489014 0.16837944090366364 0.1764705926179886 0.1764705926179886 0.14509804546833038
0.7120689749717712 0.18632559478282928 0.9905138611793518 1.0 1.0 1.0
0.5352216958999634 0.20732669532299042 0.9893280863761902 0.3529411852359772 0.3529411852359772 0.32156863808631897
0.496798038482666 0.17116689682006836 0.9893280863761902 0.3686274588108063 0.3607843220233917 0.3137255012989044
0.7270935773849487 0.23401232063770294 0.9916995763778687 0.9607843160629272 0.9803921580314636 1.0
0.7009851932525635 0.10026843845844269 0.18102766573429108 0.32156863808631897 0.35686275362968445 0.3450980484485626
0.6889162659645081 0.10516343265771866 0.9905138611793518 0.3529411852359772 0.3333333432674408 0.3176470696926117
0.5440886616706848 0.17069318890571594 0.9897233247756958 0.3764705955982208 0.364705890417099 0.3294117748737335
0.7285714149475098 0.18758882582187653 0.9916995763778687 1.0 1.0 1.0
0.5073891878128052 0.20906363427639008 0.005928853526711464 0.0784313753247261 0.08627451211214066 0.07450980693101883
0.7224137783050537 0.22280119359493256 0.006719367578625679 0.3843137323856354 0.3960784375667572 0.3294117748737335
0.6677339673042297 0.15695562958717346 0.991304337978363 0.9921568632125854 0.9921568632125854 0.9921568632125854
0.6578817963600159 0.22264330089092255 0.2956521809101105 0.0941176488995552 0.11372549086809158 0.09803921729326248
0.639162540435791 0.22469604015350342 0.18972331285476685 0.05098039284348488 0.05098039284348488 0.04313725605607033
0.5152709484100342 0.09868940711021423 0.005533596966415644 0.7333333492279053 0.7372549176216125 0.6666666865348816
0.49433496594429016 0.21032686531543732 0.0063241105526685715 0.3333333432674408 0.3333333432674408 0.29411765933036804
0.5527093410491943 0.1836412400007248 0.9897233247756958 0.3764705955982208 0.364705890417099 0.3450980484485626
0.7179803252220154 0.12458550184965134 0.9916995763778687 0.24313725531101227 0.21960784494876862 0.21960784494876862
0.6283251047134399 0.22264330089092255 0.18063241243362427 0.062745101749897 0.062745101749897 0.054901961237192154
0.6945812702178955 0.08132006973028183 0.005928853526711464 0.40392157435417175 0.3960784375667572 0.30588236451148987
0.5416256189346313 0.12474340945482254 0.9901185631752014 0.3764705955982208 0.3607843220233917 0.3176470696926117
0.5399014949798584 0.23669667541980743 0.005928853526711464 0.22745098173618317 0.2078431397676468 0.18431372940540314
0.5825123190879822 0.16848255693912506 0.005928853526711464 0.5372549295425415 0.5529412031173706 0.4941176474094391
0.6453201770782471 0.12474340945482254 0.9905138611793518 0.35686275362968445 0.34117648005485535 0.30588236451148987
0.684482753276825 0.22185377776622772 0.2960474193096161 0.10588235408067703 0.10588235408067703 0.09803921729326248
0.639162540435791 0.21695879101753235 0.0063241105526685715 0.45098039507865906 0.4431372582912445 0.3960784375667572
0.5908867120742798 0.189325749874115 0.005928853526711464 0.5568627715110779 0.5647059082984924 0.48235294222831726
0.5320196747779846 0.22059056162834167 0.29486167430877686 0.11372549086809158 0.10588235408067703 0.10980392247438431
0.6071428656578064 0.21174798905849457 0.0063241105526685715 0.3921568691730499 0.3960784375667572 0.34117648005485535
0.5822660326957703 0.09853149950504303 0.9897233247756958 0.3607843220233917 0.3450980484485626 0.2980392277240753
0.6051723957061768 0.16500867903232574 0.9909090995788574 0.32549020648002625 0.32549020648002625 0.3333333432674408
0.6490147709846497 0.12000631541013718 0.9905138611793518 0.33725491166114807 0.32549020648002625 0.2980392277240753
0.6958128213882446 0.1871151179075241 0.9905138611793518 1.0 1.0 1.0
0.7174876928329468 0.16516658663749695 0.9916995763778687 0.9960784316062927 1.0 1.0
0.6490147709846497 0.09553134441375732 0.005533596966415644 0.5921568870544434 0.5960784554481506 0.5254902243614197
0.6246305704116821 0.22911731898784637 0.29525691270828247 0.45490196347236633 0.4627451002597809 0.4431372582912445
0.5140393972396851 0.1950102597475052 0.9893280863761902 0.3686274588108063 0.35686275362968445 0.32156863808631897
0.6416256427764893 0.17116689682006836 0.005533596966415644 0.6470588445663452 0.658823549747467 0.6313725709915161
0.5426108241081238 0.1814306080341339 0.9897233247756958 0.3529411852359772 0.3450980484485626 0.2980392277240753
0.6581280827522278 0.22895942628383636 0.0063241105526685715 0.3333333432674408 0.33725491166114807 0.27450981736183167
0.6189655065536499 0.22801199555397034 0.0063241105526685715 0.26274511218070984 0.24705882370471954 0.21176470816135406
0.6076354384422302 0.160903200507164 0.9909090995788574 0.48235294222831726 0.5254902243614197 0.5098039507865906
0.5118226408958435 0.09332069754600525 0.005138339940458536 0.5647059082984924 0.5490196347236633 0.501960813999176
0.6916255950927734 0.22659087181091309 0.9889327883720398 0.95686274766922 0.9686274528503418 0.9882352948188782
0.543596088886261 0.2216958850622177 0.2960474193096161 0.3686274588108063 0.3921568691730499 0.3921568691730499
0.5896551609039307 0.1841149479150772 0.005928853526711464 0.5215686559677124 0.5254902243614197 0.45490196347236633
0.6559113264083862 0.2212221622467041 0.15928854048252106 0.11372549086809158 0.11372549086809158 0.11372549086809158
0.7105911374092102 0.11369019746780396 0.005928853526711464 0.5215686559677124 0.529411792755127 0.48627451062202454
0.6204433441162109 0.11242696642875671 0.9901185631752014 0.3529411852359772 0.3333333432674408 0.30980393290519714
0.6332512497901917 0.22201168537139893 0.1723320186138153 0.10196078568696976 0.10196078568696976 0.0941176488995552
0.5933497548103333 0.23148587346076965 0.21264822781085968 0.03921568766236305 0.05098039284348488 0.0784313753247261
0.564039409160614 0.22548554837703705 0.2972331941127777 0.7176470756530762 0.7215686440467834 0.7372549176216125
0.7012315392494202 0.1841149479150772 0.9905138611793518 1.0 1.0 1.0
0.5827586054801941 0.23211747407913208 0.2960474193096161 0.6313725709915161 0.6470588445663452 0.658823549747467
0.6221674680709839 0.21759040653705597 0.14861659705638885 0.3176470696926117 0.3019607961177826 0.25882354378700256
0.550000011920929 0.1981683224439621 0.9893280863761902 0.3803921639919281 0.3764705955982208 0.35686275362968445
0.7056650519371033 0.15995578467845917 0.005533596966415644 0.6784313917160034 0.686274528503418 0.6352941393852234
0.7014778256416321 0.16627191007137299 0.991304337978363 1.0 1.0 1.0
0.6421182155609131 0.12805937230587006 0.9905138611793518 0.34117648005485535 0.3294117748737335 0.3019607961177826
0.7325122952461243 0.20906363427639008 0.006719367578625679 0.501960813999176 0.5137255191802979 0.40784314274787903
0.5509852170944214 0.18458865582942963 0.9897233247756958 0.3921568691730499 0.3803921639919281 0.3607843220233917
0.5209359526634216 0.14037580788135529 0.0063241105526685715 0.5568627715110779 0.5764706134796143 0.4901960790157318
0.5445812940597534 0.224380224943161 0.005928853526711464 0.23137255012989044 0.239215686917305 0.21960784494876862
0.5972906351089478 0.21885362267494202 0.2648221254348755 0.09803921729326248 0.0941176488995552 0.08627451211214066
0.682758629322052 0.23038055002689362 0.006719367578625679 0.35686275362968445 0.3686274588108063 0.3019607961177826
0.4931034445762634 0.22264330089092255 0.2335968315601349 0.12156862765550613 0.11764705926179886 0.10196078568696976
0.6261083483695984 0.1926417201757431 0.005928853526711464 0.5686274766921997 0.5764706134796143 0.5215686559677124
0.7298029661178589 0.18048317730426788 0.992094874382019 1.0 1.0 1.0
0.5665024518966675 0.21774829924106598 0.29328063130378723 0.0784313753247261 0.07450980693101883 0.06666667014360428
0.6950739026069641 0.11811147630214691 0.9909090995788574 0.3607843220233917 0.3490196168422699 0.3294117748737335
0.6354680061340332 0.22185377776622772 0.0063241105526685715 0.42352941632270813 0.4000000059604645 0.3529411852359772
0.5958127975463867 0.17764092981815338 0.9901185631752014 0.41960784792900085 0.41960784792900085 0.4274509847164154
0.6086207032203674 0.12758566439151764 0.005928853526711464 0.6901960968971252 0.7019608020782471 0.6352941393852234
0.5874384045600891 0.12711195647716522 0.0063241105526685715 0.6078431606292725 0.6196078658103943 0.545098066329956
0.5982758402824402 0.17006158828735352 0.005533596966415644 0.6000000238418579 0.6039215922355652 0.5490196347236633
0.6192117929458618 0.07926733046770096 0.005533596966415644 0.6000000238418579 0.6039215922355652 0.5333333611488342
0.5354679822921753 0.13705985248088837 0.9901185631752014 0.38823530077934265 0.37254902720451355 0.3294117748737335
0.6354680061340332 0.16800884902477264 0.9905138611793518 0.9254902005195618 0.9450980424880981 0.9607843160629272
0.6541872024536133 0.11005842685699463 0.005138339940458536 0.5529412031173706 0.5568627715110779 0.5254902243614197
0.6352216601371765 0.1923259049654007 0.9901185631752014 0.9647058844566345 0.9803921580314636 0.9764705896377563
0.6642857193946838 0.22248539328575134 0.14782609045505524 0.05098039284348488 0.07450980693101883 0.06666667014360428
0.5980295538902283 0.22327491641044617 0.20158103108406067 0.14901961386203766 0.13333334028720856 0.12156862765550613
0.6332512497901917 0.22753828763961792 0.0063241105526685715 0.29019609093666077 0.2823529541492462 0.2235294133424759
0.5970443487167358 0.23622295260429382 0.005928853526711464 0.21176470816135406 0.19607843458652496 0.16078431904315948
0.7056650519371033 0.10579504072666168 0.18023715913295746 0.3294117748737335 0.3764705955982208 0.3764705955982208
0.6492610573768616 0.09821569919586182 0.9901185631752014 0.3490196168422699 0.3333333432674408 0.2980392277240753
0.6933497786521912 0.19201010465621948 0.9901185631752014 1.0 1.0 1.0
0.55147784948349 0.1523764431476593 0.006719367578625679 0.615686297416687 0.6313725709915161 0.5647059082984924
0.5603448152542114 0.10090004652738571 0.005533596966415644 0.6000000238418579 0.6078431606292725 0.5568627715110779
0.5386699438095093 0.2299068421125412 0.9885375499725342 0.3294117748737335 0.3333333432674408 0.3137255012989044
0.6214285492897034 0.19058898091316223 0.005928853526711464 0.5843137502670288 0.5882353186607361 0.5254902243614197
0.738916277885437 0.16327175498008728 0.9928853511810303 1.0 1.0 1.0
0.7179803252220154 0.1435338705778122 0.992094874382019 0.24705882370471954 0.27843138575553894 0.29019609093666077
0.6091132760047913 0.1665877103805542 0.9909090995788574 0.6509804129600525 0.6901960968971252 0.686274528503418
0.5002462863922119 0.14448128640651703 0.9893280863761902 0.3490196168422699 0.3333333432674408 0.29019609093666077
0.5761083960533142 0.22359071671962738 0.1984189748764038 0.0784313753247261 0.0784313753247261 0.07058823853731155
0.6426108479499817 0.19185219705104828 0.005928853526711464 0.6313725709915161 0.6470588445663452 0.5921568870544434
0.5778325200080872 0.10279488563537598 0.9897233247756958 0.37254902720451355 0.3490196168422699 0.3019607961177826
0.5758620500564575 0.224222332239151 0.005928853526711464 0.23137255012989044 0.21960784494876862 0.15294118225574493
0.7187191843986511 0.11669035255908966 0.991304337978363 0.34117648005485535 0.32156863808631897 0.30588236451148987
0.737438440322876 0.0977419838309288 0.0063241105526685715 0.4470588266849518 0.41960784792900085 0.3450980484485626
0.5216748714447021 0.14511290192604065 0.0063241105526685715 0.6705882549285889 0.6745098233222961 0.6117647290229797
0.6502463221549988 0.22864361107349396 0.2956521809101105 0.4431372582912445 0.45490196347236633 0.4274509847164154
0.5238916277885437 0.11384809762239456 0.9897233247756958 0.3803921639919281 0.364705890417099 0.3176470696926117
0.6059113144874573 0.11732196062803268 0.9901185631752014 0.3529411852359772 0.33725491166114807 0.29411765933036804
0.6231527328491211 0.21474814414978027 0.30000001192092896 0.26274511218070984 0.2823529541492462 0.2980392277240753
0.687438428401947 0.19311542809009552 0.0063241105526685715 0.572549045085907 0.5764706134796143 0.5137255191802979
0.5339901447296143 0.13911259174346924 0.0063241105526685715 0.545098066329956 0.5607843399047852 0.4627451002597809
0.5423645377159119 0.1664298176765442 0.0063241105526685715 0.6196078658103943 0.6274510025978088 0.5411764979362488
0.5620689392089844 0.14163903892040253 0.006719367578625679 0.5176470875740051 0.5333333611488342 0.4745098054409027
0.5310344696044922 0.13295435905456543 0.0063241105526685715 0.6078431606292725 0.6117647290229797 0.5411764979362488
0.5342364311218262 0.09332069754600525 0.005533596966415644 0.6274510025978088 0.615686297416687 0.5490196347236633
0.7108374238014221 0.23448602855205536 0.0071146246045827866 0.30588236451148987 0.2980392277240753 0.21568627655506134
0.6374384164810181 0.14700773358345032 0.005533596966415644 0.6627451181411743 0.686274528503418 0.6470588445663452
0.6258620619773865 0.21695879101753235 0.2707509994506836 0.12941177189350128 0.125490203499794 0.11764705926179886
0.5549260973930359 0.11274277418851852 0.005928853526711464 0.5568627715110779 0.5921568870544434 0.5098039507865906
0.5815271139144897 0.13737565279006958 0.9905138611793518 0.33725491166114807 0.33725491166114807 0.2980392277240753
0.6384236216545105 0.20511606335639954 0.9901185631752014 1.0 1.0 1.0
0.5613300204277039 0.15727142989635468 0.0063241105526685715 0.6352941393852234 0.6509804129600525 0.5921568870544434
0.49359604716300964 0.22059056162834167 0.2541502118110657 0.12941177189350128 0.125490203499794 0.10980392247438431
0.5660098791122437 0.22469604015350342 0.23517785966396332 0.125490203499794 0.12156862765550613 0.10588235408067703
0.5352216958999634 0.1261645406484604 0.0063241105526685715 0.6784313917160034 0.686274528503418 0.6313725709915161
0.7258620858192444 0.09332069754600525 0.17391304671764374 0.30588236451148987 0.34117648005485535 0.3294117748737335
0.5992611050605774 0.2210642695426941 0.2964426875114441 0.21568627655506134 0.23529411852359772 0.250980406999588
0.6034482717514038 0.13090161979198456 0.9905138611793518 0.3490196168422699 0.33725491166114807 0.3176470696926117
0.6283251047134399 0.18585188686847687 0.005928853526711464 0.5960784554481506 0.6235294342041016 0.5607843399047852
0.701724112033844 0.10737407207489014 0.005928853526711464 0.6196078658103943 0.6117647290229797 0.5607843399047852
0.49334976077079773 0.22595925629138947 0.22727273404598236 0.14509804546833038 0.1411764770746231 0.125490203499794
0.546798050403595 0.13153323531150818 0.9901185631752014 0.37254902720451355 0.35686275362968445 0.3137255012989044
0.5054187178611755 0.20748460292816162 0.0063241105526685715 0.16078431904315948 0.16078431904315948 0.16078431904315948
0.5849753618240356 0.21095846593379974 0.9893280863761902 0.42352941632270813 0.42352941632270813 0.4156862795352936
0.5088669657707214 0.08132006973028183 0.9897233247756958 0.4000000059604645 0.3607843220233917 0.3137255012989044
0.5886699557304382 0.143375962972641 0.0063241105526685715 0.5686274766921997 0.5529412031173706 0.5058823823928833
0.5832512378692627 0.18332543969154358 0.9897233247756958 0.3921568691730499 0.38823530077934265 0.3803921639919281
0.7266010046005249 0.11700616031885147 0.991304337978363 0.2666666805744171 0.24705882370471954 0.23137255012989044
0.6963053941726685 0.1691141575574875 0.991304337978363 1.0 1.0 1.0
0.5995073914527893 0.1814306080341339 0.005928853526711464 0.49803921580314636 0.49803921580314636 0.45098039507865906
0.5130541920661926 0.17685140669345856 0.0063241105526685715 0.5098039507865906 0.5215686559677124 0.43921568989753723
0.610837459564209 0.20858992636203766 0.30355730652809143 0.07058823853731155 0.0784313753247261 0.07450980693101883
0.5379310250282288 0.160903200507164 0.9897233247756958 0.37254902720451355 0.3607843220233917 0.32549020648002625
0.556157648563385 0.21790620684623718 0.28932806849479675 0.10196078568696976 0.09019608050584793 0.07058823853731155
0.6320196986198425 0.08084636181592941 0.9897233247756958 0.37254902720451355 0.35686275362968445 0.30980393290519714
0.5918719172477722 0.1410074234008789 0.9905138611793518 0.33725491166114807 0.32549020648002625 0.30588236451148987
0.6958128213882446 0.22911731898784637 0.0071146246045827866 0.09019608050584793 0.08627451211214066 0.06666667014360428
0.5817734003067017 0.21648508310317993 0.15454545617103577 0.14509804546833038 0.1411764770746231 0.125490203499794
0.7209359407424927 0.2357492446899414 0.006719367578625679 0.4470588266849518 0.45490196347236633 0.37254902720451355
0.570443332195282 0.21932733058929443 0.27391305565834045 0.09803921729326248 0.0941176488995552 0.08627451211214066
0.6273398995399475 0.08116216957569122 0.9897233247756958 0.37254902720451355 0.35686275362968445 0.3137255012989044
0.6539409160614014 0.14321807026863098 0.005138339940458536 0.5647059082984924 0.5647059082984924 0.5176470875740051
0.7359606027603149 0.16706141829490662 0.005928853526711464 0.686274528503418 0.6980392336845398 0.6627451181411743
0.7263546586036682 0.11116374284029007 0.005928853526711464 0.4588235318660736 0.4588235318660736 0.4274509847164154
0.6783251166343689 0.2267487794160843 0.2960474193096161 0.5137255191802979 0.5215686559677124 0.501960813999176
0.6352216601371765 0.21601137518882751 0.9905138611793518 1.0 1.0 0.9921568632125854
0.5359606146812439 0.1520606279373169 0.9901185631752014 0.3764705955982208 0.3607843220233917 0.32549020648002625
0.4926108419895172 0.22248539328575134 0.23043477535247803 0.11764705926179886 0.11372549086809158 0.09803921729326248
0.7362068891525269 0.12695404887199402 0.17549407482147217 0.40784314274787903 0.45098039507865906 0.4588235318660736
0.5408867001533508 0.15016579627990723 0.006719367578625679 0.6039215922355652 0.6117647290229797 0.5607843399047852
0.5701970458030701 0.13974419236183167 0.006719367578625679 0.5882353186607361 0.5960784554481506 0.545098066329956
0.5475369691848755 0.10216327011585236 0.005533596966415644 0.5607843399047852 0.5764706134796143 0.5176470875740051
0.6261083483695984 0.23038055002689362 0.0063241105526685715 0.3137255012989044 0.30588236451148987 0.24705882370471954
0.5472906231880188 0.12016421556472778 0.9901185631752014 0.3764705955982208 0.3607843220233917 0.3176470696926117
0.7253694534301758 0.22974893450737 0.006719367578625679 0.32549020648002625 0.3294117748737335 0.25882354378700256
0.6652709245681763 0.08874151110649109 0.9901185631752014 0.3764705955982208 0.3607843220233917 0.32549020648002625
0.6495074033737183 0.1842728555202484 0.005928853526711464 0.5843137502670288 0.6000000238418579 0.545098066329956
0.6800492405891418 0.09647876024246216 0.9901185631752014 0.35686275362968445 0.33725491166114807 0.3137255012989044
0.5916256308555603 0.22248539328575134 0.20909090340137482 0.10588235408067703 0.10196078568696976 0.08627451211214066
0.5401477813720703 0.19169430434703827 0.0063241105526685715 0.5137255191802979 0.5215686559677124 0.46666666865348816
0.6987684965133667 0.11037422716617584 0.1822134405374527 0.3490196168422699 0.3960784375667572 0.38823530077934265
0.5243842601776123 0.19027316570281982 0.9893280863761902 0.3529411852359772 0.3529411852359772 0.32156863808631897
0.5568965673446655 0.21680088341236115 0.17865613102912903 0.1882352977991104 0.19607843458652496 0.1921568661928177
0.5591133236885071 0.21743249893188477 0.28418973088264465 0.09803921729326248 0.0941176488995552 0.08627451211214066
0.5475369691848755 0.2299068421125412 0.2972331941127777 0.7058823704719543 0.7215686440467834 0.7254902124404907
0.5123152732849121 0.14163903892040253 0.0063241105526685715 0.6117647290229797 0.615686297416687 0.545098066329956
0.6729063987731934 0.14527080953121185 0.005138339940458536 0.6000000238418579 0.6000000238418579 0.5686274766921997
0.5029556751251221 0.22311700880527496 0.29328063130378723 0.4941176474094391 0.529411792755127 0.5176470875740051
0.6243842244148254 0.09616295248270035 0.9901185631752014 0.3686274588108063 0.3529411852359772 0.3176470696926117
0.5852216482162476 0.08384651690721512 0.9893280863761902 0.3960784375667572 0.364705890417099 0.3137255012989044
0.5039408802986145 0.12442760169506073 0.9897233247756958 0.3803921639919281 0.364705890417099 0.3176470696926117
0.5615763664245605 0.18158850073814392 0.005928853526711464 0.4745098054409027 0.48627451062202454 0.4117647111415863
0.7014778256416321 0.1522185355424881 0.005533596966415644 0.7137255072593689 0.7215686440467834 0.6705882549285889
0.5226600766181946 0.10942681133747101 0.9897233247756958 0.3803921639919281 0.35686275362968445 0.30980393290519714
0.6869457960128784 0.22185377776622772 0.006719367578625679 0.5058823823928833 0.5215686559677124 0.4156862795352936
0.5261083841323853 0.16785094141960144 0.9897233247756958 0.3764705955982208 0.3490196168422699 0.30980393290519714
0.7322660088539124 0.08210958540439606 0.1715414971113205 0.27450981736183167 0.30980393290519714 0.30588236451148987
0.7293103337287903 0.2065371870994568 0.992094874382019 1.0 1.0 1.0
0.4928571283817291 0.20606347918510437 0.9889327883720398 0.3450980484485626 0.3333333432674408 0.2980392277240753
0.5834975242614746 0.21443234384059906 0.28379446268081665 0.08627451211214066 0.08235294371843338 0.07450980693101883
0.6593596339225769 0.18253591656684875 0.9901185631752014 0.95686274766922 0.9882352948188782 0.9960784316062927
0.6470443606376648 0.1640612632036209 0.005533596966415644 0.6235294342041016 0.6392157077789307 0.5803921818733215
0.6258620619773865 0.10184746235609055 0.9901185631752014 0.3529411852359772 0.33725491166114807 0.3019607961177826
0.6527093648910522 0.22327491641044617 0.0063241105526685715 0.5372549295425415 0.5254902243614197 0.4588235318660736
0.5009852051734924 0.16516658663749695 0.0063241105526685715 0.6196078658103943 0.6274510025978088 0.5764706134796143
0.7302955389022827 0.12032212316989899 0.9916995763778687 0.24705882370471954 0.22745098173618317 0.21176470816135406
0.5339901447296143 0.20511606335639954 0.9893280863761902 0.3529411852359772 0.3490196168422699 0.3294117748737335
0.5349753499031067 0.18000946938991547 0.9897233247756958 0.364705890417099 0.3529411852359772 0.32549020648002625
0.5384236574172974 0.12490130960941315 0.0063241105526685715 0.5137255191802979 0.529411792755127 0.4745098054409027
0.6785714030265808 0.20274750888347626 0.0063241105526685715 0.6470588445663452 0.6549019813537598 0.6000000238418579
0.6044334769248962 0.2325911819934845 0.29525691270828247 0.4941176474094391 0.4901960790157318 0.47058823704719543
0.503201961517334 0.09016264230012894 0.005138339940458536 0.6078431606292725 0.6196078658103943 0.545098066329956
0.5391625761985779 0.15995578467845917 0.0063241105526685715 0.572549045085907 0.5882353186607361 0.529411792755127
0.6997537016868591 0.10153166204690933 0.005928853526711464 0.5215686559677124 0.501960813999176 0.47843137383461
0.5977832674980164 0.21632717549800873 0.29960474371910095 0.2549019753932953 0.27450981736183167 0.2862745225429535
0.7197044491767883 0.09947892278432846 0.005928853526711464 0.47843137383461 0.4745098054409027 0.3921568691730499
0.7169950604438782 0.17937786877155304 0.0063241105526685715 0.7176470756530762 0.7254902124404907 0.6823529601097107
0.6177340149879456 0.21695879101753235 0.2972331941127777 0.26274511218070984 0.27843138575553894 0.29019609093666077
0.6192117929458618 0.0978998914361 0.9901185631752014 0.3607843220233917 0.3450980484485626 0.3019607961177826
0.643842339515686 0.2180641144514084 0.0063241105526685715 0.4274509847164154 0.41960784792900085 0.37254902720451355
0.5339901447296143 0.10611084848642349 0.005533596966415644 0.6196078658103943 0.6274510025978088 0.5843137502670288
0.7169950604438782 0.20353703200817108 0.006719367578625679 0.4627451002597809 0.47843137383461 0.37254902720451355
0.620197057723999 0.2125374972820282 0.28774702548980713 0.13725490868091583 0.1411764770746231 0.12156862765550613
0.6775861978530884 0.20511606335639954 0.9893280863761902 0.9647058844566345 0.9764705896377563 0.9960784316062927
0.6807881593704224 0.0978998914361 0.005533596966415644 0.1411764770746231 0.14901961386203766 0.09803921729326248
0.5768473148345947 0.17416706681251526 0.9901185631752014 0.41960784792900085 0.4156862795352936 0.3960784375667572
0.5628078579902649 0.22595925629138947 0.9885375499725342 0.3607843220233917 0.35686275362968445 0.33725491166114807
0.6315270662307739 0.1691141575574875 0.9905138611793518 0.9411764740943909 0.95686274766922 0.9686274528503418
0.6253694295883179 0.21980103850364685 0.2956521809101105 0.24313725531101227 0.27450981736183167 0.2862745225429535
0.5423645377159119 0.1321648508310318 0.0063241105526685715 0.6117647290229797 0.6039215922355652 0.545098066329956
0.738916277885437 0.23622295260429382 0.006719367578625679 0.5137255191802979 0.5215686559677124 0.43921568989753723
0.5108374357223511 0.21301120519638062 0.9889327883720398 0.35686275362968445 0.3450980484485626 0.3176470696926117
0.5566502213478088 0.2152218520641327 0.9889327883720398 0.3607843220233917 0.3607843220233917 0.3294117748737335
0.7115763425827026 0.1692720651626587 0.991304337978363 0.9960784316062927 1.0 1.0
0.5440886616706848 0.2186957150697708 0.290909081697464 0.09019608050584793 0.09019608050584793 0.05882352963089943
0.5470443367958069 0.18743091821670532 0.005928853526711464 0.49803921580314636 0.5098039507865906 0.4431372582912445
0.6650246381759644 0.080372653901577 0.005138339940458536 0.5843137502670288 0.5843137502670288 0.5529412031173706
0.6443349719047546 0.2186957150697708 0.0063241105526685715 0.47058823704719543 0.46666666865348816 0.3960784375667572
0.738916277885437 0.09853149950504303 0.0063241105526685715 0.6235294342041016 0.5960784554481506 0.48627451062202454
0.5465517044067383 0.14574451744556427 0.006719367578625679 0.6196078658103943 0.6313725709915161 0.5647059082984924
0.5211822390556335 0.19469445943832397 0.9893280863761902 0.35686275362968445 0.35686275362968445 0.32549020648002625
0.6775861978530884 0.15111321210861206 0.9916995763778687 1.0 1.0 1.0
0.6349753737449646 0.14448128640651703 0.9909090995788574 0.2823529541492462 0.3137255012989044 0.32549020648002625
0.49384236335754395 0.1754302829504013 0.005928853526711464 0.5372549295425415 0.5490196347236633 0.46666666865348816
0.6987684965133667 0.09411021322011948 0.18142291903495789 0.32549020648002625 0.3607843220233917 0.3490196168422699
0.5628078579902649 0.21048475801944733 0.9893280863761902 0.40392157435417175 0.40784314274787903 0.38823530077934265
0.6475369334220886 0.2209063619375229 0.261264830827713 0.09803921729326248 0.10196078568696976 0.08235294371843338
0.6568965315818787 0.23669667541980743 0.9897233247756958 0.9098039269447327 0.9372549057006836 0.9686274528503418
0.7150246500968933 0.08479394018650055 0.0063241105526685715 0.43529412150382996 0.4274509847164154 0.3450980484485626
0.6564039587974548 0.08084636181592941 0.005138339940458536 0.6627451181411743 0.6666666865348816 0.6352941393852234
0.6349753737449646 0.22059056162834167 0.0063241105526685715 0.40784314274787903 0.4000000059604645 0.3490196168422699
0.6901477575302124 0.11684825271368027 0.18142291903495789 0.38823530077934265 0.4470588266849518 0.4588235318660736
0.6273398995399475 0.16453497111797333 0.9905138611793518 0.9215686321258545 0.9372549057006836 0.9490196108818054
0.6889162659645081 0.11621664464473724 0.17786560952663422 0.3529411852359772 0.3803921639919281 0.4117647111415863
0.5251231789588928 0.15711353719234467 0.0063241105526685715 0.6274510025978088 0.658823549747467 0.5764706134796143
0.5007389187812805 0.1634296476840973 0.9893280863761902 0.3607843220233917 0.3450980484485626 0.30980393290519714
0.5913792848587036 0.16706141829490662 0.9905138611793518 0.40784314274787903 0.3921568691730499 0.3803921639919281
0.6054187417030334 0.14148113131523132 0.005928853526711464 0.6745098233222961 0.6823529601097107 0.6313725709915161
0.6411330103874207 0.09332069754600525 0.005533596966415644 0.545098066329956 0.5529412031173706 0.49803921580314636
0.5901477932929993 0.20874783396720886 0.29328063130378723 0.08627451211214066 0.08627451211214066 0.0784313753247261
0.5455664992332458 0.08258329331874847 0.9893280863761902 0.3686274588108063 0.33725491166114807 0.2862745225429535
0.6839901208877563 0.1149534210562706 0.9905138611793518 0.3529411852359772 0.3333333432674408 0.3176470696926117
0.5935960412025452 0.1582188606262207 0.005928853526711464 0.6000000238418579 0.6078431606292725 0.5529412031173706
0.681280791759491 0.18237802386283875 0.9905138611793518 0.9843137264251709 0.9882352948188782 0.9960784316062927
0.5706896781921387 0.12537501752376556 0.0063241105526685715 0.6196078658103943 0.6352941393852234 0.5686274766921997
0.6258620619773865 0.19422075152397156 0.0063241105526685715 0.5411764979362488 0.5529412031173706 0.48627451062202454
0.5970443487167358 0.13832306861877441 0.9905138611793518 0.34117648005485535 0.33725491166114807 0.3176470696926117
0.6357142925262451 0.23480182886123657 0.9909090995788574 0.9882352948188782 0.9921568632125854 1.0
0.7108374238014221 0.21916942298412323 0.9905138611793518 1.0 1.0 1.0
0.5807881951332092 0.21695879101753235 0.17470355331897736 0.1411764770746231 0.13725490868091583 0.12941177189350128
0.5534482598304749 0.19422075152397156 0.9897233247756958 0.3764705955982208 0.37254902720451355 0.3529411852359772
0.6881773471832275 0.11890099197626114 0.005533596966415644 0.5843137502670288 0.5960784554481506 0.5686274766921997
0.5699507594108582 0.22059056162834167 0.2972331941127777 0.3803921639919281 0.3960784375667572 0.4000000059604645
0.6901477575302124 0.0833728089928627 0.9901185631752014 0.35686275362968445 0.3450980484485626 0.30980393290519714
0.49359604716300964 0.1294804960489273 0.9893280863761902 0.3686274588108063 0.35686275362968445 0.2980392277240753
0.6756157875061035 0.1612190157175064 0.005533596966415644 0.6274510025978088 0.6274510025978088 0.5960784554481506
0.6960591077804565 0.10895310342311859 0.005928853526711464 0.5843137502670288 0.572549045085907 0.545098066329956
0.5746305584907532 0.21774829924106598 0.29841896891593933 0.6000000238418579 0.6313725709915161 0.6392157077789307
0.5881773233413696 0.16500867903232574 0.9905138611793518 0.38823530077934265 0.3843137323856354 0.3764705955982208
0.5588669776916504 0.19327333569526672 0.9897233247756958 0.37254902720451355 0.3686274588108063 0.3529411852359772
0.5391625761985779 0.15900836884975433 0.9901185631752014 0.3607843220233917 0.3490196168422699 0.3137255012989044
0.7386699318885803 0.1757460981607437 0.0063241105526685715 0.6549019813537598 0.6666666865348816 0.5921568870544434
0.640640377998352 0.224222332239151 0.18300394713878632 0.07450980693101883 0.08235294371843338 0.0784313753247261
0.692118227481842 0.13658612966537476 0.005138339940458536 0.6313725709915161 0.6392157077789307 0.5960784554481506
0.7073891758918762 0.09237328171730042 0.005928853526711464 0.5098039507865906 0.501960813999176 0.40392157435417175
0.6453201770782471 0.17274592816829681 0.9905138611793518 0.9333333373069763 0.9529411792755127 0.9764705896377563
0.6278325319290161 0.18743091821670532 0.005928853526711464 0.7333333492279053 0.7490196228027344 0.6901960968971252
0.5411329865455627 0.12979631125926971 0.0063241105526685715 0.6431372761726379 0.6509804129600525 0.5686274766921997
0.5770936012268066 0.19595767557621002 0.9897233247756958 0.38823530077934265 0.3843137323856354 0.3686274588108063
0.5541871786117554 0.16437707841396332 0.9901185631752014 0.3686274588108063 0.35686275362968445 0.32156863808631897
0.7209359407424927 0.1664298176765442 0.005928853526711464 0.6627451181411743 0.6705882549285889 0.615686297416687
0.6081280708312988 0.11858519166707993 0.005928853526711464 0.6470588445663452 0.6392157077789307 0.5921568870544434
0.617241382598877 0.11100584268569946 0.005928853526711464 0.5490196347236633 0.5647059082984924 0.5058823823928833
0.6305418610572815 0.12300647050142288 0.9905138611793518 0.3529411852359772 0.34117648005485535 0.32156863808631897
0.7384236454963684 0.21048475801944733 0.9928853511810303 1.0 1.0 1.0
0.5724138021469116 0.18048317730426788 0.9901185631752014 0.38823530077934265 0.3843137323856354 0.3686274588108063
0.6541872024536133 0.08163587749004364 0.9897233247756958 0.3921568691730499 0.3764705955982208 0.34117648005485535
0.7076354622840881 0.11353228986263275 0.005928853526711464 0.6431372761726379 0.6509804129600525 0.6078431606292725
0.6901477575302124 0.20164218544960022 0.9897233247756958 0.9725490212440491 0.9882352948188782 1.0
0.6470443606376648 0.2182220071554184 0.15019762516021729 0.12941177189350128 0.125490203499794 0.10588235408067703
0.7312808036804199 0.14463919401168823 0.9924901127815247 0.48627451062202454 0.5058823823928833 0.5215686559677124
0.7206896543502808 0.12411179393529892 0.1826086938381195 0.4313725531101227 0.47058823704719543 0.47843137383461
0.5256157517433167 0.12821727991104126 0.0063241105526685715 0.6078431606292725 0.6274510025978088 0.5411764979362488
0.5477832555770874 0.12790146470069885 0.0063241105526685715 0.615686297416687 0.6274510025978088 0.6000000238418579
0.7049261331558228 0.08937312662601471 0.005928853526711464 0.5803921818733215 0.5568627715110779 0.47058823704719543
0.6366994976997375 0.21301120519638062 0.3011857569217682 0.3294117748737335 0.3529411852359772 0.3529411852359772
0.5325123071670532 0.224222332239151 0.9885375499725342 0.3333333432674408 0.3333333432674408 0.3019607961177826
0.5229064226150513 0.2186957150697708 0.005533596966415644 0.3176470696926117 0.3176470696926117 0.2862745225429535
0.6017241477966309 0.20606347918510437 0.2956521809101105 0.09019608050584793 0.08627451211214066 0.0784313753247261
0.7273399233818054 0.22201168537139893 0.006719367578625679 0.43529412150382996 0.4313725531101227 0.3529411852359772
0.7258620858192444 0.1004263386130333 0.1766798347234726 0.3176470696926117 0.35686275362968445 0.3529411852359772
0.7091132998466492 0.14716564118862152 0.005533596966415644 0.6431372761726379 0.6431372761726379 0.6117647290229797
0.5761083960533142 0.22185377776622772 0.26284584403038025 0.10196078568696976 0.09803921729326248 0.09019608050584793
0.4992610812187195 0.1722722202539444 0.005928853526711464 0.5333333611488342 0.5490196347236633 0.4941176474094391
0.5184729099273682 0.21790620684623718 0.9889327883720398 0.3686274588108063 0.3490196168422699 0.3333333432674408
0.5635467767715454 0.22548554837703705 0.23715415596961975 0.12156862765550613 0.11764705926179886 0.10196078568696976
0.5780788064002991 0.09316279739141464 0.005533596966415644 0.5529412031173706 0.5607843399047852 0.47843137383461
0.5034482479095459 0.2182220071554184 0.9889327883720398 0.3529411852359772 0.34117648005485535 0.30588236451148987
0.6741379499435425 0.10768987983465195 0.9901185631752014 0.3176470696926117 0.30588236451148987 0.2862745225429535
0.6618226766586304 0.21206378936767578 0.006719367578625679 0.4901960790157318 0.4941176474094391 0.43921568989753723
0.5834975242614746 0.0860571637749672 0.005533596966415644 0.529411792755127 0.5333333611488342 0.4627451002597809
0.6660098433494568 0.07958313822746277 0.005138339940458536 0.5647059082984924 0.5647059082984924 0.5333333611488342
0.6967980265617371 0.1007421463727951 0.1822134405374527 0.32156863808631897 0.3607843220233917 0.35686275362968445
0.6362069249153137 0.08210958540439606 0.9897233247756958 0.35686275362968445 0.3490196168422699 0.2980392277240753
0.5588669776916504 0.20211590826511383 0.0063241105526685715 0.45098039507865906 0.43921568989753723 0.4117647111415863
0.7337438464164734 0.09632086008787155 0.17509882152080536 0.3019607961177826 0.33725491166114807 0.32549020648002625
0.4992610812187195 0.2123796045780182 0.9889327883720398 0.3686274588108063 0.35686275362968445 0.3294117748737335
0.5854679942131042 0.12474340945482254 0.9901185631752014 0.364705890417099 0.3450980484485626 0.32156863808631897
0.5721675157546997 0.11669035255908966 0.9901185631752014 0.3686274588108063 0.3529411852359772 0.30980393290519714
0.7263546586036682 0.10500552505254745 0.17826086282730103 0.33725491166114807 0.3764705955982208 0.3803921639919281
