0.8342364430427551 0.44923415780067444 0.0063241105526685715 0.5607843399047852 0.545098066329956 0.4313725531101227
0.7258620858192444 0.39823147654533386 0.17984189093112946 0.04313725605607033 0.05098039284348488 0.0470588244497776
0.693842351436615 0.32843834161758423 0.007509881630539894 0.3176470696926117 0.3294117748737335 0.26274511218070984
0.7603448033332825 0.3871782720088959 0.0063241105526685715 0.2235294133424759 0.2078431397676468 0.16078431904315948
0.6258620619773865 0.47276172041893005 0.01067193690687418 0.21176470816135406 0.21176470816135406 0.20392157137393951
0.7655172348022461 0.3244907557964325 0.9936758875846863 0.33725491166114807 0.3333333432674408 0.35686275362968445
0.7162561416625977 0.36917731165885925 0.0063241105526685715 0.239215686917305 0.24313725531101227 0.21176470816135406
0.7201970219612122 0.3353860676288605 0.0071146246045827866 0.3607843220233917 0.3686274588108063 0.3137255012989044
0.6362069249153137 0.47023528814315796 0.29802370071411133 0.49803921580314636 0.5215686559677124 0.5058823823928833
0.7448275685310364 0.41860097646713257 0.006719367578625679 0.15294118225574493 0.14901961386203766 0.1411764770746231
0.6399014592170715 0.39775776863098145 0.006719367578625679 0.250980406999588 0.2705882489681244 0.24705882370471954
0.798275887966156 0.47197219729423523 0.0071146246045827866 0.5568627715110779 0.5372549295425415 0.45098039507865906
0.754679799079895 0.43297016620635986 0.0071146246045827866 0.26274511218070984 0.24705882370471954 0.20000000298023224
0.8270936012268066 0.3181746304035187 0.992094874382019 0.40392157435417175 0.3921568691730499 0.364705890417099
0.7455664873123169 0.345649778842926 0.24229249358177185 0.12156862765550613 0.12156862765550613 0.11372549086809158
0.753201961517334 0.3415443003177643 0.9936758875846863 0.3764705955982208 0.3764705955982208 0.3686274588108063
0.8115763664245605 0.3649139404296875 0.005928853526711464 0.5921568870544434 0.5843137502670288 0.501960813999176
0.7970443367958069 0.42049580812454224 0.9901185631752014 0.3921568691730499 0.37254902720451355 0.3607843220233917
0.7903940677642822 0.4708668887615204 0.0071146246045827866 0.6313725709915161 0.6313725709915161 0.49803921580314636
0.7325122952461243 0.4331280589103699 0.29841896891593933 0.5215686559677124 0.529411792755127 0.5176470875740051
0.6586207151412964 0.43218064308166504 0.9901185631752014 0.364705890417099 0.3607843220233917 0.34117648005485535
0.7278324961662292 0.31785884499549866 0.9936758875846863 0.8823529481887817 0.8980392217636108 0.9019607901573181
0.7487684488296509 0.3759671449661255 0.992094874382019 0.3921568691730499 0.3921568691730499 0.3843137323856354
0.7455664873123169 0.46076110005378723 0.2494071125984192 0.16470588743686676 0.16078431904315948 0.14509804546833038
0.6896551847457886 0.36680877208709717 0.1664031594991684 0.05882352963089943 0.05882352963089943 0.05882352963089943
0.6832512021064758 0.3974419832229614 0.29960474371910095 0.6078431606292725 0.6078431606292725 0.6392157077789307
0.6839901208877563 0.44954997301101685 0.29841896891593933 0.4901960790157318 0.5137255191802979 0.4588235318660736
0.7354679703712463 0.32938575744628906 0.19011858105659485 0.2078431397676468 0.20000000298023224 0.20392157137393951
0.678078830242157 0.44718143343925476 0.9901185631752014 0.37254902720451355 0.35686275362968445 0.3529411852359772
0.7896551489830017 0.3276488184928894 0.0063241105526685715 0.4901960790157318 0.47843137383461 0.4117647111415863
0.6807881593704224 0.34959733486175537 0.9909090995788574 0.41960784792900085 0.40392157435417175 0.40784314274787903
0.6871921420097351 0.4056529402732849 0.29960474371910095 0.5411764979362488 0.5529412031173706 0.572549045085907
0.7761083841323853 0.3825990855693817 0.0063241105526685715 0.30980393290519714 0.30980393290519714 0.26274511218070984
0.7177339792251587 0.3938102126121521 0.991304337978363 0.40392157435417175 0.3960784375667572 0.4000000059604645
0.6192117929458618 0.44418126344680786 0.9897233247756958 0.4000000059604645 0.38823530077934265 0.3686274588108063
0.6815270781517029 0.3996526002883911 0.005533596966415644 0.0941176488995552 0.10196078568696976 0.09019608050584793
0.7182266116142273 0.35212379693984985 0.006719367578625679 0.27843138575553894 0.29019609093666077 0.26274511218070984
0.6862068772315979 0.35559767484664917 0.9909090995788574 0.40784314274787903 0.4000000059604645 0.40392157435417175
0.7376847267150879 0.44639191031455994 0.20000000298023224 0.14901961386203766 0.14901961386203766 0.1568627506494522
0.7492610812187195 0.4599715769290924 0.007509881630539894 0.2705882489681244 0.2549019753932953 0.2078431397676468
0.6463054418563843 0.3590715229511261 0.9893280863761902 0.3333333432674408 0.3176470696926117 0.32156863808631897
0.8019704222679138 0.3915995657444 0.9905138611793518 0.4000000059604645 0.38823530077934265 0.3686274588108063
0.7174876928329468 0.4283909797668457 0.19644269347190857 0.03921568766236305 0.04313725605607033 0.05098039284348488
0.7334975600242615 0.3931785821914673 0.14861659705638885 0.054901961237192154 0.062745101749897 0.05882352963089943
0.746798038482666 0.3369651138782501 0.1557312309741974 0.06666667014360428 0.08235294371843338 0.0784313753247261
0.8504925966262817 0.4077056646347046 0.9901185631752014 0.4000000059604645 0.38823530077934265 0.3607843220233917
0.7881773114204407 0.3770724833011627 0.0063241105526685715 0.41960784792900085 0.4117647111415863 0.3529411852359772
0.7460591197013855 0.36396652460098267 0.27786561846733093 0.125490203499794 0.125490203499794 0.125490203499794
0.7007389068603516 0.46060317754745483 0.29802370071411133 0.5647059082984924 0.5882353186607361 0.5803921818733215
0.7527093887329102 0.38149377703666687 0.28972330689430237 0.125490203499794 0.12941177189350128 0.10980392247438431
0.6714285612106323 0.4029685854911804 0.9901185631752014 0.4117647111415863 0.3960784375667572 0.3921568691730499
0.6583743691444397 0.4396020770072937 0.01067193690687418 0.1764705926179886 0.1764705926179886 0.16862745583057404
0.7105911374092102 0.3507026731967926 0.1616600751876831 0.05882352963089943 0.05882352963089943 0.05882352963089943
0.7162561416625977 0.40044212341308594 0.991304337978363 0.3960784375667572 0.3921568691730499 0.3843137323856354
0.8443349599838257 0.39791569113731384 0.005928853526711464 0.6823529601097107 0.658823549747467 0.5960784554481506
0.8258620500564575 0.4200221002101898 0.9901185631752014 0.3843137323856354 0.37254902720451355 0.3529411852359772
0.639162540435791 0.4086530804634094 0.9897233247756958 0.3921568691730499 0.3764705955982208 0.37254902720451355
0.7125615477561951 0.3884415030479431 0.15177865326404572 0.07058823853731155 0.07058823853731155 0.07058823853731155
0.7480295300483704 0.40407389402389526 0.006719367578625679 0.20392157137393951 0.1921568661928177 0.16470588743686676
0.6746305227279663 0.3734407126903534 0.9905138611793518 0.40392157435417175 0.40392157435417175 0.4117647111415863
0.6224138140678406 0.32338544726371765 0.2964426875114441 0.501960813999176 0.529411792755127 0.5529412031173706
0.7283251285552979 0.3309647738933563 0.29960474371910095 0.5176470875740051 0.5647059082984924 0.5647059082984924
0.7381773591041565 0.4217590391635895 0.15494070947170258 0.07058823853731155 0.07450980693101883 0.08235294371843338
0.7357142567634583 0.35843992233276367 0.9928853511810303 0.41960784792900085 0.4156862795352936 0.4000000059604645
0.7431034445762634 0.3816516697406769 0.2343873530626297 0.14509804546833038 0.14509804546833038 0.13725490868091583
0.7492610812187195 0.36001893877983093 0.9928853511810303 0.3921568691730499 0.3921568691730499 0.3843137323856354
0.6411330103874207 0.4602873921394348 0.9901185631752014 0.2980392277240753 0.2980392277240753 0.2666666805744171
0.742118239402771 0.4598136842250824 0.29960474371910095 0.062745101749897 0.062745101749897 0.062745101749897
0.7359606027603149 0.3961787521839142 0.0063241105526685715 0.16078431904315948 0.16470588743686676 0.13333334028720856
0.8549261093139648 0.44149690866470337 0.9897233247756958 0.23529411852359772 0.23529411852359772 0.20392157137393951
0.8620689511299133 0.3683878183364868 0.9905138611793518 0.3960784375667572 0.3843137323856354 0.364705890417099
0.685960590839386 0.42665404081344604 0.29881423711776733 0.43529412150382996 0.4588235318660736 0.41960784792900085
0.8150246143341064 0.34691300988197327 0.992094874382019 0.4117647111415863 0.3960784375667572 0.3607843220233917
0.7066502571105957 0.4590241611003876 0.29802370071411133 0.5647059082984924 0.5803921818733215 0.5764706134796143
0.7918719053268433 0.45870834589004517 0.0071146246045827866 0.529411792755127 0.529411792755127 0.41960784792900085
0.745320200920105 0.3473867177963257 0.26324111223220825 0.10980392247438431 0.10980392247438431 0.10196078568696976
0.7224137783050537 0.33459654450416565 0.29960474371910095 0.5098039507865906 0.545098066329956 0.5333333611488342
0.7012315392494202 0.3682298958301544 0.17549407482147217 0.04313725605607033 0.04313725605607033 0.04313725605607033
0.6450738906860352 0.35796621441841125 0.9893280863761902 0.3294117748737335 0.3137255012989044 0.3176470696926117
0.6194581389427185 0.3961787521839142 0.007509881630539894 0.21176470816135406 0.21176470816135406 0.1725490242242813
0.8224138021469116 0.33412283658981323 0.0063241105526685715 0.5882353186607361 0.6039215922355652 0.5490196347236633
0.7450739145278931 0.37170377373695374 0.26205533742904663 0.1411764770746231 0.13725490868091583 0.12156862765550613
0.7507389187812805 0.41528502106666565 0.006719367578625679 0.09019608050584793 0.08627451211214066 0.06666667014360428
0.7076354622840881 0.4626559317111969 0.0071146246045827866 0.4627451002597809 0.4470588266849518 0.4431372582912445
0.734236478805542 0.40123164653778076 0.29328063130378723 0.6470588445663452 0.6627451181411743 0.7058823704719543
0.8487684726715088 0.39570504426956177 0.9901185631752014 0.3921568691730499 0.37254902720451355 0.35686275362968445
0.7004926204681396 0.4114953279495239 0.9909090995788574 0.40784314274787903 0.3921568691730499 0.3803921639919281
0.629802942276001 0.41544291377067566 0.005533596966415644 0.22745098173618317 0.21568627655506134 0.1882352977991104
0.7923645377159119 0.4457603096961975 0.9901185631752014 0.25882354378700256 0.24705882370471954 0.22745098173618317
0.8182265758514404 0.4714984893798828 0.9897233247756958 0.1921568661928177 0.18039216101169586 0.16078431904315948
0.6817734241485596 0.3538607358932495 0.29960474371910095 0.6235294342041016 0.6431372761726379 0.6196078658103943
0.6189655065536499 0.34059688448905945 0.2972331941127777 0.5960784554481506 0.6000000238418579 0.615686297416687
0.7763546705245972 0.4482867419719696 0.0071146246045827866 0.4313725531101227 0.40392157435417175 0.3294117748737335
0.7108374238014221 0.3480183184146881 0.1715414971113205 0.05098039284348488 0.054901961237192154 0.07058823853731155
0.7665024399757385 0.3829149007797241 0.0063241105526685715 0.3019607961177826 0.29019609093666077 0.26274511218070984
0.6711822748184204 0.37801989912986755 0.9901185631752014 0.3843137323856354 0.3843137323856354 0.3921568691730499
0.7413793206214905 0.3878098726272583 0.3019762933254242 0.43921568989753723 0.45490196347236633 0.45098039507865906
0.6640394330024719 0.42160114645957947 0.003952569328248501 0.10588235408067703 0.10196078568696976 0.08627451211214066
0.6603448390960693 0.42081162333488464 0.002766798483207822 0.12156862765550613 0.11764705926179886 0.09803921729326248
0.6600984930992126 0.3364914059638977 0.9901185631752014 0.29019609093666077 0.29411765933036804 0.3019607961177826
0.7041872143745422 0.44054949283599854 0.17312252521514893 0.09019608050584793 0.09019608050584793 0.09019608050584793
0.7197044491767883 0.41828516125679016 0.17391304671764374 0.09803921729326248 0.10196078568696976 0.10980392247438431
0.6559113264083862 0.3710721731185913 0.29960474371910095 0.6431372761726379 0.658823549747467 0.6705882549285889
0.8248768448829651 0.4403916001319885 0.0063241105526685715 0.6117647290229797 0.5882353186607361 0.4941176474094391
0.6802955865859985 0.3873361647129059 0.9905138611793518 0.3921568691730499 0.3843137323856354 0.38823530077934265
0.8502463102340698 0.3248065710067749 0.006719367578625679 0.4431372582912445 0.4431372582912445 0.3490196168422699
0.6711822748184204 0.4075477719306946 0.9901185631752014 0.4156862795352936 0.4000000059604645 0.3960784375667572
0.7266010046005249 0.38986262679100037 0.21501976251602173 0.1411764770746231 0.1411764770746231 0.13333334028720856
0.621921181678772 0.44149690866470337 0.010276679880917072 0.24313725531101227 0.239215686917305 0.23137255012989044
0.6541872024536133 0.3958629369735718 0.005928853526711464 0.40784314274787903 0.40392157435417175 0.3333333432674408
0.7445812821388245 0.37470394372940063 0.27351778745651245 0.1921568661928177 0.20000000298023224 0.1882352977991104
0.7455664873123169 0.4446549713611603 0.260474294424057 0.16078431904315948 0.1568627506494522 0.14901961386203766
0.7416256070137024 0.3844939172267914 0.25256916880607605 0.13333334028720856 0.13333334028720856 0.125490203499794
0.7903940677642822 0.3282804489135742 0.9932806491851807 0.32549020648002625 0.3333333432674408 0.3294117748737335
0.7253694534301758 0.3644402325153351 0.9924901127815247 0.40392157435417175 0.38823530077934265 0.3764705955982208
0.676354706287384 0.3445444405078888 0.29881423711776733 0.572549045085907 0.6078431606292725 0.5882353186607361
0.8280788064002991 0.45965576171875 0.9897233247756958 0.20000000298023224 0.1882352977991104 0.16078431904315948
0.6305418610572815 0.44718143343925476 0.011462450958788395 0.0784313753247261 0.07450980693101883 0.06666667014360428
0.7258620858192444 0.32638558745384216 0.9936758875846863 0.9333333373069763 0.9529411792755127 0.9686274528503418
0.7746305465698242 0.4288646876811981 0.006719367578625679 0.3490196168422699 0.32156863808631897 0.250980406999588
0.7733989953994751 0.3827569782733917 0.0063241105526685715 0.4627451002597809 0.4588235318660736 0.38823530077934265
0.7056650519371033 0.3222801089286804 0.29802370071411133 0.43529412150382996 0.47058823704719543 0.4588235318660736
0.7192118167877197 0.4339175820350647 0.29841896891593933 0.529411792755127 0.5333333611488342 0.501960813999176
0.7807881832122803 0.47007736563682556 0.9897233247756958 0.21568627655506134 0.20392157137393951 0.18431372940540314
0.7458128333091736 0.35749250650405884 0.24861660599708557 0.14901961386203766 0.15294118225574493 0.13333334028720856
0.7950738668441772 0.4572872221469879 0.0071146246045827866 0.4901960790157318 0.5058823823928833 0.40784314274787903
0.6467980146408081 0.4100742042064667 0.29960474371910095 0.4901960790157318 0.5098039507865906 0.5215686559677124
0.7354679703712463 0.4315490424633026 0.0071146246045827866 0.10588235408067703 0.10980392247438431 0.054901961237192154
0.742118239402771 0.46691930294036865 0.007905138656497002 0.21960784494876862 0.20392157137393951 0.1568627506494522
0.7798029780387878 0.338228315114975 0.9932806491851807 0.4117647111415863 0.4156862795352936 0.3843137323856354
0.7694581151008606 0.40644243359565735 0.9905138611793518 0.38823530077934265 0.364705890417099 0.37254902720451355
0.7448275685310364 0.3789673149585724 0.3027667999267578 0.03529411926865578 0.03529411926865578 0.03529411926865578
0.7943349480628967 0.362071692943573 0.005928853526711464 0.5254902243614197 0.5137255191802979 0.43921568989753723
0.756157636642456 0.4689720571041107 0.27391305565834045 0.18039216101169586 0.1764705926179886 0.16862745583057404
0.7623152732849121 0.3844939172267914 0.0063241105526685715 0.250980406999588 0.23137255012989044 0.2078431397676468
0.7381773591041565 0.4193904995918274 0.9905138611793518 0.3921568691730499 0.38823530077934265 0.3803921639919281
0.7413793206214905 0.4258645176887512 0.2644268870353699 0.1411764770746231 0.1411764770746231 0.13333334028720856
0.7487684488296509 0.3849676251411438 0.15256917476654053 0.10980392247438431 0.125490203499794 0.12156862765550613
0.8054187297821045 0.3873361647129059 0.005928853526711464 0.6627451181411743 0.6352941393852234 0.5607843399047852
0.6908866763114929 0.39523133635520935 0.9909090995788574 0.3803921639919281 0.3803921639919281 0.3803921639919281
0.7243842482566833 0.34580767154693604 0.1561264842748642 0.05882352963089943 0.054901961237192154 0.07450980693101883
0.7322660088539124 0.3188062608242035 0.007509881630539894 0.27450981736183167 0.27450981736183167 0.24313725531101227
0.7426108121871948 0.4280751645565033 0.28418973088264465 0.3450980484485626 0.3450980484485626 0.3450980484485626
0.6307882070541382 0.3852834403514862 0.29960474371910095 0.6039215922355652 0.6078431606292725 0.6235294342041016
0.8428571224212646 0.38117796182632446 0.005928853526711464 0.7529411911964417 0.7450980544090271 0.6549019813537598
0.6450738906860352 0.35796621441841125 0.29881423711776733 0.6313725709915161 0.6549019813537598 0.6470588445663452
0.7231526970863342 0.4452866017818451 0.0071146246045827866 0.27450981736183167 0.26274511218070984 0.23529411852359772
0.6305418610572815 0.46376124024391174 0.012252964079380035 0.05882352963089943 0.05882352963089943 0.05098039284348488
0.8253694772720337 0.47039318084716797 0.0063241105526685715 0.6352941393852234 0.6235294342041016 0.5568627715110779
0.6463054418563843 0.3186483383178711 0.9936758875846863 0.9450980424880981 0.9607843160629272 0.9960784316062927
0.8431034684181213 0.4544449746608734 0.9897233247756958 0.24313725531101227 0.23137255012989044 0.20392157137393951
0.6386699676513672 0.3298594653606415 0.991304337978363 0.8509804010391235 0.8705882430076599 0.8941176533699036
0.7620689868927002 0.3447023630142212 0.30948618054389954 0.11372549086809158 0.11372549086809158 0.11372549086809158
0.6554186940193176 0.4427601397037506 0.014229249209165573 0.0941176488995552 0.0941176488995552 0.10196078568696976
0.701724112033844 0.42665404081344604 0.008695651777088642 0.47843137383461 0.4901960790157318 0.4470588266849518
0.7229064106941223 0.3878098726272583 0.15217390656471252 0.06666667014360428 0.07450980693101883 0.07058823853731155
0.7339901328086853 0.32101690769195557 0.9936758875846863 0.8274509906768799 0.8549019694328308 0.8784313797950745
0.748522162437439 0.42728564143180847 0.006719367578625679 0.21176470816135406 0.21176470816135406 0.1725490242242813
0.7036945819854736 0.37565135955810547 0.0063241105526685715 0.3294117748737335 0.3294117748737335 0.32156863808631897
0.6532019972801208 0.37217748165130615 0.9897233247756958 0.30980393290519714 0.29411765933036804 0.2980392277240753
0.692364513874054 0.3535449206829071 0.29960474371910095 0.6000000238418579 0.6274510025978088 0.6000000238418579
0.6229063868522644 0.32891204953193665 0.004347825888544321 0.23529411852359772 0.2235294133424759 0.1882352977991104
0.7807881832122803 0.3702826499938965 0.0063241105526685715 0.45098039507865906 0.42352941632270813 0.3607843220233917
0.7630541920661926 0.42428550124168396 0.9901185631752014 0.37254902720451355 0.35686275362968445 0.3450980484485626
0.8426108360290527 0.4277593493461609 0.005928853526711464 0.5882353186607361 0.5882353186607361 0.4941176474094391
0.6320196986198425 0.4683404266834259 0.9901185631752014 0.38823530077934265 0.38823530077934265 0.35686275362968445
0.6864532232284546 0.34580767154693604 0.006719367578625679 0.34117648005485535 0.3529411852359772 0.27843138575553894
0.80147784948349 0.40612664818763733 0.005928853526711464 0.49803921580314636 0.4745098054409027 0.4117647111415863
0.7931034564971924 0.4077056646347046 0.0063241105526685715 0.5411764979362488 0.5215686559677124 0.4470588266849518
0.7748768329620361 0.4454444944858551 0.0071146246045827866 0.45490196347236633 0.4470588266849518 0.3490196168422699
0.6263546943664551 0.44718143343925476 0.011067193932831287 0.07058823853731155 0.06666667014360428 0.05882352963089943
0.676354706287384 0.4476551413536072 0.29841896891593933 0.46666666865348816 0.4901960790157318 0.45098039507865906
0.7440886497497559 0.42744356393814087 0.1557312309741974 0.08627451211214066 0.09019608050584793 0.09803921729326248
0.7169950604438782 0.4193904995918274 0.1822134405374527 0.10980392247438431 0.11372549086809158 0.12156862765550613
0.7554187178611755 0.36001893877983093 0.2873517870903015 0.12156862765550613 0.12156862765550613 0.11372549086809158
0.740394115447998 0.3911258578300476 0.9916995763778687 0.3960784375667572 0.3921568691730499 0.3843137323856354
0.7376847267150879 0.419232577085495 0.26245060563087463 0.12941177189350128 0.125490203499794 0.10980392247438431
0.8088669776916504 0.3158060908317566 0.9924901127815247 0.3686274588108063 0.3686274588108063 0.33725491166114807
0.6448276042938232 0.3652297556400299 0.003952569328248501 0.4000000059604645 0.40392157435417175 0.34117648005485535
0.6226601004600525 0.332701712846756 0.2968379557132721 0.5529412031173706 0.5843137502670288 0.5921568870544434
0.6894088387489319 0.4689720571041107 0.006719367578625679 0.5254902243614197 0.5333333611488342 0.5137255191802979
0.7150246500968933 0.44433918595314026 0.9901185631752014 0.3607843220233917 0.3450980484485626 0.34117648005485535
0.7014778256416321 0.4506553113460541 0.9897233247756958 0.37254902720451355 0.3686274588108063 0.3607843220233917
0.6325123310089111 0.44639191031455994 0.29841896891593933 0.4274509847164154 0.43529412150382996 0.3921568691730499
0.6534482836723328 0.3797568380832672 0.30000001192092896 0.6313725709915161 0.6392157077789307 0.6352941393852234
0.7051724195480347 0.3769145607948303 0.17549407482147217 0.0470588244497776 0.0470588244497776 0.0470588244497776
0.7137930989265442 0.44654983282089233 0.1660079061985016 0.09019608050584793 0.09019608050584793 0.09019608050584793
0.6322659850120544 0.3448602557182312 0.0035573123022913933 0.25882354378700256 0.2666666805744171 0.2235294133424759
0.7541871666908264 0.3360176980495453 0.28379446268081665 0.10588235408067703 0.10588235408067703 0.09803921729326248
0.7049261331558228 0.44449707865715027 0.29841896891593933 0.5098039507865906 0.529411792755127 0.5137255191802979
0.7487684488296509 0.41860097646713257 0.006719367578625679 0.10196078568696976 0.11372549086809158 0.08627451211214066
0.8231527209281921 0.4400757849216461 0.0063241105526685715 0.6039215922355652 0.5803921818733215 0.48627451062202454
0.7455664873123169 0.32591187953948975 0.14466403424739838 0.062745101749897 0.08627451211214066 0.07058823853731155
0.8389162421226501 0.35180798172950745 0.991304337978363 0.3960784375667572 0.3843137323856354 0.364705890417099
0.7157635688781738 0.4418127238750458 0.19367589056491852 0.2549019753932953 0.22745098173618317 0.1882352977991104
0.8327586054801941 0.34691300988197327 0.0063241105526685715 0.47843137383461 0.48235294222831726 0.4274509847164154
0.7014778256416321 0.47260382771492004 0.0071146246045827866 0.5176470875740051 0.5137255191802979 0.4941176474094391
0.7322660088539124 0.3846518099308014 0.20197628438472748 0.14509804546833038 0.14509804546833038 0.13725490868091583
0.7386699318885803 0.4083372950553894 0.9909090995788574 0.40392157435417175 0.4000000059604645 0.3843137323856354
0.7568965554237366 0.4400757849216461 0.28853756189346313 0.15294118225574493 0.15294118225574493 0.14509804546833038
0.7206896543502808 0.3184904456138611 0.2964426875114441 0.47843137383461 0.5058823823928833 0.47843137383461
0.7615763545036316 0.44449707865715027 0.30000001192092896 0.16862745583057404 0.16078431904315948 0.16470588743686676
0.6268472671508789 0.4165482521057129 0.29920947551727295 0.47058823704719543 0.47843137383461 0.4588235318660736
0.6783251166343689 0.32859623432159424 0.006719367578625679 0.29411765933036804 0.29411765933036804 0.24705882370471954
0.7036945819854736 0.35449233651161194 0.9916995763778687 0.4274509847164154 0.41960784792900085 0.42352941632270813
0.7391625642776489 0.32891204953193665 0.18379446864128113 0.07450980693101883 0.0784313753247261 0.08627451211214066
0.7997536659240723 0.3183325529098511 0.0063241105526685715 0.45490196347236633 0.47058823704719543 0.37254902720451355
0.7551724314689636 0.4426022469997406 0.2758893370628357 0.1568627506494522 0.1568627506494522 0.14901961386203766
0.8105911612510681 0.4285488724708557 0.9901185631752014 0.32549020648002625 0.30588236451148987 0.2823529541492462
0.6997537016868591 0.3184904456138611 0.9936758875846863 0.8196078538894653 0.8470588326454163 0.8705882430076599
0.7317733764648438 0.4108637273311615 0.9909090995788574 0.37254902720451355 0.3686274588108063 0.3607843220233917
0.624876856803894 0.464866578578949 0.012252964079380035 0.21176470816135406 0.21176470816135406 0.20392157137393951
0.7091132998466492 0.45618191361427307 0.17509882152080536 0.07450980693101883 0.08235294371843338 0.0784313753247261
0.8201970458030701 0.35765039920806885 0.991304337978363 0.4000000059604645 0.3960784375667572 0.3764705955982208
0.6504926085472107 0.367756187915802 0.9897233247756958 0.3450980484485626 0.32549020648002625 0.34117648005485535
0.7041872143745422 0.43202275037765503 0.9901185631752014 0.364705890417099 0.3607843220233917 0.3450980484485626
0.6487684845924377 0.3388599455356598 0.9897233247756958 0.27843138575553894 0.27450981736183167 0.2666666805744171
0.7586206793785095 0.40123164653778076 0.9909090995788574 0.40392157435417175 0.3843137323856354 0.37254902720451355
0.6337438225746155 0.4072319567203522 0.29960474371910095 0.5215686559677124 0.5254902243614197 0.545098066329956
0.7283251285552979 0.3881256878376007 0.9916995763778687 0.4156862795352936 0.40784314274787903 0.4117647111415863
0.7162561416625977 0.3914416432380676 0.005928853526711464 0.2235294133424759 0.23137255012989044 0.1882352977991104
0.7440886497497559 0.4656561017036438 0.9897233247756958 0.3607843220233917 0.3450980484485626 0.34117648005485535
0.7913793325424194 0.45776093006134033 0.9897233247756958 0.22745098173618317 0.21568627655506134 0.1882352977991104
0.6926108598709106 0.3930206894874573 0.17312252521514893 0.0941176488995552 0.10196078568696976 0.09803921729326248
0.640640377998352 0.4688141345977783 0.011857707053422928 0.10980392247438431 0.10980392247438431 0.10980392247438431
0.6236453056335449 0.4362861216068268 0.0071146246045827866 0.2980392277240753 0.27450981736183167 0.22745098173618317
0.8044335246086121 0.4369177222251892 0.9901185631752014 0.239215686917305 0.22745098173618317 0.2078431397676468
0.74064040184021 0.3770724833011627 0.14782609045505524 0.062745101749897 0.05882352963089943 0.05098039284348488
0.6674876809120178 0.40138953924179077 0.0063241105526685715 0.4313725531101227 0.4431372582912445 0.5098039507865906
0.7113300561904907 0.32891204953193665 0.29881423711776733 0.46666666865348816 0.5058823823928833 0.501960813999176
0.6167487502098083 0.4454444944858551 0.010276679880917072 0.06666667014360428 0.062745101749897 0.054901961237192154
0.6379310488700867 0.38007262349128723 0.005138339940458536 0.2862745225429535 0.27450981736183167 0.24705882370471954
0.746798038482666 0.38923102617263794 0.30395257472991943 0.3960784375667572 0.43529412150382996 0.43921568989753723
0.6440886855125427 0.32875415682792664 0.9916995763778687 0.8666666746139526 0.886274516582489 0.9098039269447327
0.7480295300483704 0.44718143343925476 0.3031620681285858 0.04313725605607033 0.05098039284348488 0.0470588244497776
0.6849753856658936 0.34975525736808777 0.29920947551727295 0.6039215922355652 0.6235294342041016 0.6000000238418579
0.7214285731315613 0.3968103528022766 0.1826086938381195 0.03921568766236305 0.0470588244497776 0.04313725605607033
0.640640377998352 0.3652297556400299 0.9893280863761902 0.3490196168422699 0.3333333432674408 0.3294117748737335
0.7078817486763 0.33207011222839355 0.16837944090366364 0.06666667014360428 0.062745101749897 0.0470588244497776
0.6453201770782471 0.3357018828392029 0.004743082914501429 0.24705882370471954 0.24705882370471954 0.21568627655506134
0.6613300442695618 0.35828202962875366 0.29920947551727295 0.6431372761726379 0.6666666865348816 0.6666666865348816
0.6967980265617371 0.38149377703666687 0.0063241105526685715 0.45490196347236633 0.4588235318660736 0.43529412150382996
0.8325123190879822 0.3311226963996887 0.992094874382019 0.16470588743686676 0.16470588743686676 0.13333334028720856
0.7507389187812805 0.44607609510421753 0.15335968136787415 0.1568627506494522 0.16470588743686676 0.15294118225574493
0.692364513874054 0.338228315114975 0.17351779341697693 0.054901961237192154 0.054901961237192154 0.054901961237192154
0.7455664873123169 0.33507025241851807 0.3011857569217682 0.1764705926179886 0.21176470816135406 0.20000000298023224
0.7894088625907898 0.44670772552490234 0.0071146246045827866 0.5176470875740051 0.501960813999176 0.3960784375667572
0.7339901328086853 0.327017217874527 0.1513833999633789 0.13725490868091583 0.08235294371843338 0.0784313753247261
0.6371921300888062 0.3799147307872772 0.9893280863761902 0.33725491166114807 0.3333333432674408 0.32549020648002625
0.756157636642456 0.46960365772247314 0.2766798436641693 0.12941177189350128 0.125490203499794 0.11764705926179886
0.7586206793785095 0.4422864317893982 0.28972330689430237 0.1568627506494522 0.1568627506494522 0.14901961386203766
0.7623152732849121 0.37533554434776306 0.30553358793258667 0.15294118225574493 0.1568627506494522 0.13725490868091583
0.8357142806053162 0.45523449778556824 0.9897233247756958 0.22745098173618317 0.21568627655506134 0.19607843458652496
0.7056650519371033 0.47228801250457764 0.9897233247756958 0.3529411852359772 0.33725491166114807 0.3333333432674408
0.7330049276351929 0.3472287952899933 0.9928853511810303 0.42352941632270813 0.42352941632270813 0.42352941632270813
0.7305418848991394 0.3424917161464691 0.9928853511810303 0.4313725531101227 0.4313725531101227 0.43921568989753723
0.6980295777320862 0.3560713827610016 0.17549407482147217 0.05882352963089943 0.06666667014360428 0.062745101749897
0.6295566558837891 0.372967004776001 0.29920947551727295 0.6313725709915161 0.6352941393852234 0.6549019813537598
0.8416256308555603 0.33254382014274597 0.006719367578625679 0.5098039507865906 0.5215686559677124 0.43921568989753723
0.7206896543502808 0.338228315114975 0.29960474371910095 0.5058823823928833 0.545098066329956 0.5411764979362488
0.7428571581840515 0.3813358545303345 0.3023715317249298 0.1882352977991104 0.20392157137393951 0.20000000298023224
0.6428571343421936 0.3587557375431061 0.29881423711776733 0.6313725709915161 0.6549019813537598 0.6549019813537598
0.8453202247619629 0.3679141104221344 0.0063241105526685715 0.5137255191802979 0.49803921580314636 0.45098039507865906
0.7221674919128418 0.3301752805709839 0.15928854048252106 0.06666667014360428 0.062745101749897 0.054901961237192154
0.7918719053268433 0.45870834589004517 0.0071146246045827866 0.529411792755127 0.529411792755127 0.41960784792900085
0.6613300442695618 0.34391283988952637 0.29841896891593933 0.5882353186607361 0.6117647290229797 0.5960784554481506
0.7113300561904907 0.38307279348373413 0.15533596277236938 0.07450980693101883 0.07450980693101883 0.07450980693101883
0.8201970458030701 0.45539239048957825 0.0063241105526685715 0.6078431606292725 0.5921568870544434 0.48627451062202454
0.6320196986198425 0.36365070939064026 0.0031620552763342857 0.3019607961177826 0.29019609093666077 0.2549019753932953
0.7125615477561951 0.4359703063964844 0.16916996240615845 0.09019608050584793 0.09019608050584793 0.09019608050584793
0.8142856955528259 0.4054950177669525 0.9901185631752014 0.3764705955982208 0.3607843220233917 0.3490196168422699
0.8591132760047913 0.3393336534500122 0.991304337978363 0.3921568691730499 0.3803921639919281 0.3450980484485626
0.7078817486763 0.3941259980201721 0.15375493466854095 0.062745101749897 0.062745101749897 0.062745101749897
0.8288177251815796 0.36886152625083923 0.005928853526711464 0.5372549295425415 0.5411764979362488 0.48627451062202454
0.670197069644928 0.3514921963214874 0.9905138611793518 0.2980392277240753 0.2823529541492462 0.2862745225429535
0.7933497428894043 0.38338860869407654 0.005928853526711464 0.5215686559677124 0.501960813999176 0.42352941632270813
0.7081280946731567 0.4599715769290924 0.2976284623146057 0.5764706134796143 0.5921568870544434 0.5882353186607361
0.7044335007667542 0.408179372549057 0.9909090995788574 0.4117647111415863 0.3960784375667572 0.3921568691730499
0.7034482955932617 0.3885993957519531 0.29960474371910095 0.6509804129600525 0.6666666865348816 0.6627451181411743
0.6551724076271057 0.43233853578567505 0.29881423711776733 0.40392157435417175 0.4117647111415863 0.3921568691730499
0.7125615477561951 0.43833884596824646 0.19920948147773743 0.04313725605607033 0.04313725605607033 0.0
0.7071428298950195 0.3593873381614685 0.9916995763778687 0.40784314274787903 0.4000000059604645 0.40392157435417175
0.7527093887329102 0.4047055244445801 0.0063241105526685715 0.23137255012989044 0.21960784494876862 0.18431372940540314
0.7169950604438782 0.4707089960575104 0.16916996240615845 0.06666667014360428 0.07450980693101883 0.07058823853731155
0.7889162302017212 0.39759987592697144 0.0063241105526685715 0.4313725531101227 0.40784314274787903 0.30588236451148987
0.6238916516304016 0.4078635573387146 0.00830039568245411 0.09803921729326248 0.08627451211214066 0.05882352963089943
0.732758641242981 0.36680877208709717 0.1513833999633789 0.04313725605607033 0.04313725605607033 0.03529411926865578
0.7465517520904541 0.356860876083374 0.1826086938381195 0.10196078568696976 0.10196078568696976 0.10196078568696976
0.7985221743583679 0.3169114291667938 0.9928853511810303 0.3960784375667572 0.3843137323856354 0.364705890417099
0.6852216720581055 0.3249644637107849 0.9932806491851807 0.8196078538894653 0.8392156958580017 0.8509804010391235
0.8339901566505432 0.41275855898857117 0.9901185631752014 0.3960784375667572 0.3764705955982208 0.3607843220233917
0.6815270781517029 0.44402337074279785 0.29841896891593933 0.4588235318660736 0.47843137383461 0.45490196347236633
0.7773398756980896 0.39286279678344727 0.9909090995788574 0.364705890417099 0.3529411852359772 0.32549020648002625
0.6389162540435791 0.3878098726272583 0.30000001192092896 0.6039215922355652 0.6078431606292725 0.6274510025978088
0.7450739145278931 0.36096635460853577 0.2652173936367035 0.32156863808631897 0.3450980484485626 0.3450980484485626
0.7310344576835632 0.39728406071662903 0.991304337978363 0.38823530077934265 0.3843137323856354 0.3686274588108063
0.6657635569572449 0.3848097324371338 0.9901185631752014 0.38823530077934265 0.3803921639919281 0.3843137323856354
0.7371920943260193 0.42602241039276123 0.2343873530626297 0.16078431904315948 0.16078431904315948 0.15294118225574493
0.7714285850524902 0.4138638973236084 0.0063241105526685715 0.4274509847164154 0.4000000059604645 0.3294117748737335
0.7980295419692993 0.46170851588249207 0.0071146246045827866 0.5607843399047852 0.545098066329956 0.4313725531101227
0.7096059322357178 0.39791569113731384 0.15454545617103577 0.062745101749897 0.07058823853731155 0.06666667014360428
0.7470443248748779 0.453971266746521 0.9901185631752014 0.3490196168422699 0.3333333432674408 0.3294117748737335
0.7066502571105957 0.3306489884853363 0.16798418760299683 0.0470588244497776 0.0470588244497776 0.0470588244497776
0.6955664753913879 0.32385915517807007 0.007905138656497002 0.47843137383461 0.48627451062202454 0.46666666865348816
0.743842363357544 0.44749724864959717 0.1873517781496048 0.0784313753247261 0.08627451211214066 0.08235294371843338
0.7130541801452637 0.3930206894874573 0.29960474371910095 0.6431372761726379 0.6509804129600525 0.6470588445663452
0.7224137783050537 0.4478130340576172 0.29802370071411133 0.5254902243614197 0.545098066329956 0.5215686559677124
0.7189655303955078 0.3281225264072418 0.9932806491851807 0.9176470637321472 0.9411764740943909 0.9411764740943909
0.7270935773849487 0.32606980204582214 0.17430830001831055 0.062745101749897 0.05882352963089943 0.0784313753247261
0.6719211935997009 0.3619137704372406 0.9905138611793518 0.4000000059604645 0.3921568691730499 0.3960784375667572
0.8559113144874573 0.44702354073524475 0.9897233247756958 0.250980406999588 0.239215686917305 0.20392157137393951
0.7330049276351929 0.4501815736293793 0.007509881630539894 0.125490203499794 0.125490203499794 0.08627451211214066
0.6630541682243347 0.4462340176105499 0.9901185631752014 0.3764705955982208 0.37254902720451355 0.35686275362968445
0.7283251285552979 0.4422864317893982 0.15731225907802582 0.09019608050584793 0.09019608050584793 0.09019608050584793
0.6741379499435425 0.3734407126903534 0.005533596966415644 0.4588235318660736 0.4745098054409027 0.4156862795352936
0.7049261331558228 0.34312331676483154 0.17272727191448212 0.062745101749897 0.062745101749897 0.062745101749897
0.6325123310089111 0.4427601397037506 0.011462450958788395 0.10196078568696976 0.10980392247438431 0.10588235408067703
0.7169950604438782 0.35749250650405884 0.006719367578625679 0.34117648005485535 0.3490196168422699 0.3294117748737335
0.7426108121871948 0.3353860676288605 0.21739129722118378 0.16078431904315948 0.14901961386203766 0.12156862765550613
0.8588669896125793 0.35449233651161194 0.006719367578625679 0.6431372761726379 0.6313725709915161 0.5568627715110779
0.6793103218078613 0.4193904995918274 0.29920947551727295 0.4470588266849518 0.48235294222831726 0.47058823704719543
0.8064039349555969 0.39207327365875244 0.9905138611793518 0.3764705955982208 0.364705890417099 0.33725491166114807
0.743596076965332 0.45270803570747375 0.30000001192092896 0.062745101749897 0.062745101749897 0.062745101749897
0.6261083483695984 0.33254382014274597 0.9905138611793518 0.8313725590705872 0.8509804010391235 0.8745098114013672
0.7975369691848755 0.3197536766529083 0.0063241105526685715 0.5372549295425415 0.5607843399047852 0.4588235318660736
0.7465517520904541 0.37517765164375305 0.3031620681285858 0.019607843831181526 0.019607843831181526 0.019607843831181526
0.7192118167877197 0.4656561017036438 0.1660079061985016 0.08235294371843338 0.09019608050584793 0.08627451211214066
0.7066502571105957 0.44607609510421753 0.17075099050998688 0.09019608050584793 0.09019608050584793 0.09019608050584793
0.6633005142211914 0.39491552114486694 0.005533596966415644 0.35686275362968445 0.3764705955982208 0.2980392277240753
0.7416256070137024 0.41196906566619873 0.9909090995788574 0.38823530077934265 0.3843137323856354 0.3686274588108063
0.7413793206214905 0.44449707865715027 0.9901185631752014 0.37254902720451355 0.35686275362968445 0.3607843220233917
0.7817733883857727 0.35765039920806885 0.0063241105526685715 0.3764705955982208 0.3529411852359772 0.2980392277240753
0.7162561416625977 0.4107058346271515 0.29920947551727295 0.5960784554481506 0.6078431606292725 0.6431372761726379
0.6871921420097351 0.3966524600982666 0.005533596966415644 0.364705890417099 0.38823530077934265 0.38823530077934265
0.7086206674575806 0.3453339636325836 0.1719367653131485 0.054901961237192154 0.054901961237192154 0.062745101749897
0.7007389068603516 0.37186166644096375 0.16284584999084473 0.062745101749897 0.062745101749897 0.062745101749897
0.6273398995399475 0.33207011222839355 0.2968379557132721 0.5647059082984924 0.5843137502670288 0.5960784554481506
0.7283251285552979 0.4713405966758728 0.18972331285476685 0.772549033164978 0.7490196228027344 0.686274528503418
0.7475369572639465 0.356545090675354 0.27826085686683655 0.11372549086809158 0.11372549086809158 0.10588235408067703
0.8500000238418579 0.453971266746521 0.005928853526711464 0.4901960790157318 0.4901960790157318 0.38823530077934265
0.8332512378692627 0.44402337074279785 0.9897233247756958 0.239215686917305 0.22745098173618317 0.1921568661928177
0.8128078579902649 0.3589136302471161 0.005928853526711464 0.5098039507865906 0.5215686559677124 0.47843137383461
0.761083722114563 0.34612348675727844 0.3063241243362427 0.12156862765550613 0.12156862765550613 0.11372549086809158
0.7793103456497192 0.443233847618103 0.9901185631752014 0.25882354378700256 0.2549019753932953 0.23529411852359772
0.8142856955528259 0.4144954979419708 0.9901185631752014 0.3803921639919281 0.3764705955982208 0.35686275362968445
0.6527093648910522 0.34596556425094604 0.29841896891593933 0.6078431606292725 0.6274510025978088 0.6039215922355652
0.6640394330024719 0.4624980390071869 0.29802370071411133 0.5058823823928833 0.5333333611488342 0.5058823823928833
0.697044312953949 0.32843834161758423 0.007905138656497002 0.2862745225429535 0.30980393290519714 0.26274511218070984
0.678078830242157 0.4086530804634094 0.9901185631752014 0.40784314274787903 0.3921568691730499 0.38823530077934265
0.7248768210411072 0.4680246412754059 0.2976284623146057 0.6235294342041016 0.6313725709915161 0.6274510025978088
0.7953202128410339 0.4102321267127991 0.0063241105526685715 0.4941176474094391 0.48627451062202454 0.38823530077934265
0.765763521194458 0.4227064549922943 0.006719367578625679 0.3333333432674408 0.30980393290519714 0.26274511218070984
0.7288177609443665 0.4287067651748657 0.0071146246045827866 0.250980406999588 0.250980406999588 0.21176470816135406
0.6862068772315979 0.32970157265663147 0.29841896891593933 0.48235294222831726 0.5058823823928833 0.49803921580314636
0.7317733764648438 0.3363334834575653 0.30000001192092896 0.5372549295425415 0.572549045085907 0.5607843399047852
0.804679811000824 0.3827569782733917 0.9909090995788574 0.42352941632270813 0.4117647111415863 0.3843137323856354
0.6261083483695984 0.4072319567203522 0.29960474371910095 0.49803921580314636 0.5137255191802979 0.5254902243614197
0.748522162437439 0.38907310366630554 0.15691699087619781 0.16078431904315948 0.16470588743686676 0.1725490242242813
0.6633005142211914 0.3797568380832672 0.004743082914501429 0.40392157435417175 0.4274509847164154 0.37254902720451355
0.7490147948265076 0.45555028319358826 0.007509881630539894 0.20000000298023224 0.1921568661928177 0.13333334028720856
0.8445813059806824 0.41560080647468567 0.005928853526711464 0.6196078658103943 0.6117647290229797 0.529411792755127
0.8578817844390869 0.41828516125679016 0.005928853526711464 0.5686274766921997 0.5607843399047852 0.4627451002597809
0.6839901208877563 0.39270487427711487 0.29960474371910095 0.6431372761726379 0.6470588445663452 0.6549019813537598
0.6194581389427185 0.3559134602546692 0.002766798483207822 0.26274511218070984 0.2549019753932953 0.2078431397676468
0.7093595862388611 0.3614400625228882 0.1620553433895111 0.06666667014360428 0.06666667014360428 0.06666667014360428
0.7024630308151245 0.41244277358055115 0.29920947551727295 0.5254902243614197 0.5529412031173706 0.5764706134796143
0.7408866882324219 0.3788094222545624 0.1972332000732422 0.07058823853731155 0.07058823853731155 0.062745101749897
0.6862068772315979 0.3649139404296875 0.1770751029253006 0.062745101749897 0.062745101749897 0.062745101749897
0.6726601123809814 0.36649298667907715 0.9905138611793518 0.3921568691730499 0.3921568691730499 0.3921568691730499
0.818719208240509 0.3685457110404968 0.005928853526711464 0.5882353186607361 0.5607843399047852 0.49803921580314636
0.6931034326553345 0.39775776863098145 0.005928853526711464 0.3333333432674408 0.32549020648002625 0.3294117748737335
0.7463054060935974 0.4402337074279785 0.14347825944423676 0.1411764770746231 0.16078431904315948 0.13725490868091583
0.6399014592170715 0.38370439410209656 0.9893280863761902 0.33725491166114807 0.3333333432674408 0.32549020648002625
0.7630541920661926 0.4504973888397217 0.3110671937465668 0.3921568691730499 0.4117647111415863 0.42352941632270813
0.6182265877723694 0.37817779183387756 0.005533596966415644 0.20392157137393951 0.1921568661928177 0.16470588743686676
0.7815271019935608 0.44402337074279785 0.9901185631752014 0.2666666805744171 0.26274511218070984 0.24313725531101227
0.6428571343421936 0.3587557375431061 0.29881423711776733 0.6313725709915161 0.6549019813537598 0.6549019813537598
0.6549261212348938 0.36965101957321167 0.29960474371910095 0.6470588445663452 0.6627451181411743 0.6745098233222961
0.6458128094673157 0.3191220462322235 0.2968379557132721 0.47058823704719543 0.5058823823928833 0.4941176474094391
0.8256157636642456 0.3189641535282135 0.992094874382019 0.40784314274787903 0.3960784375667572 0.3686274588108063
0.7837438583374023 0.3791252076625824 0.991304337978363 0.3803921639919281 0.3686274588108063 0.34117648005485535
0.738916277885437 0.38638874888420105 0.3007905185222626 0.615686297416687 0.6352941393852234 0.6470588445663452
0.8041871786117554 0.4478130340576172 0.9901185631752014 0.2549019753932953 0.2549019753932953 0.2235294133424759
0.806157648563385 0.3735986053943634 0.9909090995788574 0.4117647111415863 0.3960784375667572 0.3843137323856354
0.6243842244148254 0.45191851258277893 0.29841896891593933 0.4470588266849518 0.45490196347236633 0.4117647111415863
0.6512315273284912 0.4560239911079407 0.9901185631752014 0.40784314274787903 0.40392157435417175 0.3843137323856354
0.6889162659645081 0.3685457110404968 0.1766798347234726 0.03529411926865578 0.03529411926865578 0.03529411926865578
0.7302955389022827 0.36349281668663025 0.1984189748764038 0.13333334028720856 0.13333334028720856 0.125490203499794
0.6862068772315979 0.4391283690929413 0.29841896891593933 0.45098039507865906 0.47843137383461 0.45098039507865906
0.8004925847053528 0.32275381684303284 0.0063241105526685715 0.529411792755127 0.545098066329956 0.45490196347236633
0.7288177609443665 0.38591504096984863 0.29960474371910095 0.6274510025978088 0.6352941393852234 0.6313725709915161
0.7352216839790344 0.42333805561065674 0.2031620591878891 0.027450980618596077 0.0313725508749485 0.03921568766236305
0.6975369453430176 0.47291961312294006 0.2976284623146057 0.658823549747467 0.6666666865348816 0.6549019813537598
0.678078830242157 0.4021790623664856 0.005928853526711464 0.3921568691730499 0.40392157435417175 0.43921568989753723
0.745320200920105 0.3789673149585724 0.3031620681285858 0.0470588244497776 0.0470588244497776 0.0470588244497776
0.6899014711380005 0.45002368092536926 0.9901185631752014 0.38823530077934265 0.3843137323856354 0.3686274588108063
0.8027093410491943 0.362229585647583 0.9916995763778687 0.3921568691730499 0.38823530077934265 0.3686274588108063
0.7384236454963684 0.4516027271747589 0.19960474967956543 0.15294118225574493 0.15294118225574493 0.16078431904315948
0.8470443487167358 0.3387020230293274 0.991304337978363 0.3960784375667572 0.3843137323856354 0.35686275362968445
0.7046797871589661 0.33712300658226013 0.1711462438106537 0.07058823853731155 0.06666667014360428 0.05882352963089943
0.6697044372558594 0.35259750485420227 0.29920947551727295 0.6313725709915161 0.6509804129600525 0.6274510025978088
0.8571428656578064 0.3614400625228882 0.9905138611793518 0.3921568691730499 0.3803921639919281 0.3529411852359772
0.7384236454963684 0.4331280589103699 0.2292490154504776 0.15294118225574493 0.15294118225574493 0.14509804546833038
0.7108374238014221 0.3942839205265045 0.29960474371910095 0.6392157077789307 0.6470588445663452 0.6431372761726379
0.8426108360290527 0.3871782720088959 0.9905138611793518 0.4000000059604645 0.38823530077934265 0.3686274588108063
0.63768470287323 0.44607609510421753 0.29841896891593933 0.43921568989753723 0.45098039507865906 0.4156862795352936
0.6310344934463501 0.46107688546180725 0.9901185631752014 0.3607843220233917 0.3450980484485626 0.3019607961177826
0.756403923034668 0.43849676847457886 0.16482213139533997 0.11372549086809158 0.12156862765550613 0.11764705926179886
0.6384236216545105 0.3255960941314697 0.992094874382019 0.8588235378265381 0.8745098114013672 0.9098039269447327
