0.6238916516304016 0.5979788303375244 0.01067193690687418 0.42352941632270813 0.45490196347236633 0.46666666865348816
0.5342364311218262 0.5843991637229919 0.002766798483207822 0.40784314274787903 0.45098039507865906 0.43529412150382996
0.7275862097740173 0.5831359624862671 0.1671936810016632 0.05098039284348488 0.05098039284348488 0.04313725605607033
0.6901477575302124 0.6826148629188538 0.1723320186138153 0.03529411926865578 0.03529411926865578 0.03529411926865578
0.6660098433494568 0.6369808912277222 0.006719367578625679 0.05882352963089943 0.054901961237192154 0.0470588244497776
0.7270935773849487 0.6769303679466248 0.2960474193096161 0.5215686559677124 0.545098066329956 0.5372549295425415
0.6743842363357544 0.6586136221885681 0.006719367578625679 0.3490196168422699 0.35686275362968445 0.3137255012989044
0.670197069644928 0.615979790687561 0.0071146246045827866 0.2549019753932953 0.2549019753932953 0.2235294133424759
0.5889162421226501 0.7093005180358887 0.9916995763778687 0.3764705955982208 0.3764705955982208 0.3843137323856354
0.6509852409362793 0.5795041918754578 0.0035573123022913933 0.23529411852359772 0.2705882489681244 0.25882354378700256
0.6467980146408081 0.6241907477378845 0.0063241105526685715 0.34117648005485535 0.24705882370471954 0.2078431397676468
0.5310344696044922 0.6813516616821289 0.0023715414572507143 0.47058823704719543 0.4745098054409027 0.41960784792900085
0.6529556512832642 0.6849834322929382 0.006719367578625679 0.3843137323856354 0.4000000059604645 0.3333333432674408
0.7194581031799316 0.643612802028656 0.17786560952663422 0.05882352963089943 0.05882352963089943 0.05882352963089943
0.639162540435791 0.5981367230415344 0.991304337978363 0.2666666805744171 0.2549019753932953 0.22745098173618317
0.6133005023002625 0.5682930946350098 0.9905138611793518 0.364705890417099 0.3529411852359772 0.3333333432674408
0.5790640115737915 0.5739775896072388 0.9905138611793518 0.3333333432674408 0.32156863808631897 0.29411765933036804
0.5566502213478088 0.6292436718940735 0.992094874382019 0.3529411852359772 0.3490196168422699 0.3333333432674408
0.684236466884613 0.6502447724342346 0.9936758875846863 0.9176470637321472 0.9333333373069763 0.9450980424880981
0.69852215051651 0.6786673069000244 0.0063241105526685715 0.4313725531101227 0.4431372582912445 0.40784314274787903
0.6007389426231384 0.6016106009483337 0.9916995763778687 0.3529411852359772 0.3490196168422699 0.3294117748737335
0.7105911374092102 0.6950892210006714 0.9936758875846863 0.9647058844566345 0.9647058844566345 0.9960784316062927
0.628078818321228 0.6582977771759033 0.2960474193096161 0.5058823823928833 0.5098039507865906 0.5176470875740051
0.5987684726715088 0.7034580707550049 0.2960474193096161 0.5921568870544434 0.6039215922355652 0.6313725709915161
0.6566502451896667 0.691141664981842 0.2960474193096161 0.5686274766921997 0.5803921818733215 0.615686297416687
0.5169950723648071 0.6666666865348816 0.991304337978363 0.32549020648002625 0.32156863808631897 0.30588236451148987
0.49802955985069275 0.5885046720504761 0.006719367578625679 0.48627451062202454 0.501960813999176 0.5137255191802979
0.5327585935592651 0.6562450528144836 0.0031620552763342857 0.43921568989753723 0.4313725531101227 0.3803921639919281
0.5495073795318604 0.6672982573509216 0.9916995763778687 0.364705890417099 0.364705890417099 0.35686275362968445
0.5743842124938965 0.6714037656784058 0.9916995763778687 0.3764705955982208 0.3764705955982208 0.3843137323856354
0.7105911374092102 0.562292754650116 0.2972331941127777 0.5215686559677124 0.5333333611488342 0.5529412031173706
0.5029556751251221 0.7063003182411194 0.2956521809101105 0.4117647111415863 0.43529412150382996 0.4274509847164154
0.5485221743583679 0.5728722810745239 0.9905138611793518 0.37254902720451355 0.37254902720451355 0.3333333432674408
0.7268472909927368 0.6958787441253662 0.9936758875846863 0.9529411792755127 0.9647058844566345 0.9843137264251709
0.6869457960128784 0.6775619983673096 0.17509882152080536 0.0313725508749485 0.0313725508749485 0.0313725508749485
0.5246305465698242 0.6696668267250061 0.0031620552763342857 0.529411792755127 0.5176470875740051 0.45098039507865906
0.5517241358757019 0.70235276222229 0.003952569328248501 0.04313725605607033 0.03529411926865578 0.03921568766236305
0.6295566558837891 0.6958787441253662 0.0063241105526685715 0.3333333432674408 0.32549020648002625 0.27843138575553894
0.6586207151412964 0.6671403646469116 0.2960474193096161 0.48235294222831726 0.48627451062202454 0.5058823823928833
0.5305418968200684 0.6684036254882812 0.002766798483207822 0.4431372582912445 0.41960784792900085 0.37254902720451355
0.4965517222881317 0.665561318397522 0.003952569328248501 0.6431372761726379 0.6352941393852234 0.5882353186607361
0.5778325200080872 0.7097741961479187 0.991304337978363 0.35686275362968445 0.35686275362968445 0.3490196168422699
0.507881760597229 0.6638244390487671 0.0031620552763342857 0.6078431606292725 0.6117647290229797 0.5490196347236633
0.6935960650444031 0.6202431917190552 0.2968379557132721 0.6196078658103943 0.6549019813537598 0.6509804129600525
0.6807881593704224 0.6230854392051697 0.9909090995788574 0.3803921639919281 0.38823530077934265 0.3764705955982208
0.5802955627441406 0.7100899815559387 0.005533596966415644 0.05882352963089943 0.06666667014360428 0.062745101749897
0.732758641242981 0.6939839124679565 0.28458496928215027 0.08627451211214066 0.09019608050584793 0.09803921729326248
0.7369458079338074 0.6887730956077576 0.3007905185222626 0.5568627715110779 0.5843137502670288 0.615686297416687
0.5162561535835266 0.6442444324493408 0.29407113790512085 0.5215686559677124 0.5215686559677124 0.5215686559677124
0.6679803133010864 0.6972998380661011 0.9928853511810303 0.9450980424880981 0.95686274766922 0.9764705896377563
0.6268472671508789 0.5935575366020203 0.00830039568245411 0.3333333432674408 0.3529411852359772 0.364705890417099
0.5160098671913147 0.5607137084007263 0.005533596966415644 0.46666666865348816 0.5058823823928833 0.501960813999176
0.7073891758918762 0.562134861946106 0.9897233247756958 0.3450980484485626 0.3333333432674408 0.3137255012989044
0.6384236216545105 0.6971419453620911 0.2960474193096161 0.6000000238418579 0.6039215922355652 0.6235294342041016
0.5253694653511047 0.5782409310340881 0.0015810276381671429 0.4313725531101227 0.47058823704719543 0.47843137383461
0.6583743691444397 0.5780830383300781 0.003952569328248501 0.24313725531101227 0.2862745225429535 0.2549019753932953
0.49827587604522705 0.5910311341285706 0.9909090995788574 0.34117648005485535 0.3294117748737335 0.3019607961177826
0.5955665111541748 0.6333491206169128 0.9924901127815247 0.35686275362968445 0.33725491166114807 0.3137255012989044
0.6041871905326843 0.6237170100212097 0.2964426875114441 0.501960813999176 0.49803921580314636 0.4901960790157318
0.6662561297416687 0.6731407046318054 0.9932806491851807 0.9921568632125854 1.0 0.9960784316062927
0.6204433441162109 0.6050844788551331 0.9916995763778687 0.3607843220233917 0.35686275362968445 0.33725491166114807
0.6770936250686646 0.6057161092758179 0.015019763261079788 0.40784314274787903 0.4313725531101227 0.42352941632270813
0.6551724076271057 0.6575083136558533 0.9932806491851807 1.0 0.9960784316062927 1.0
0.556157648563385 0.567661464214325 0.9905138611793518 0.3764705955982208 0.364705890417099 0.3294117748737335
0.6024630665779114 0.6878256797790527 0.2960474193096161 0.5647059082984924 0.5686274766921997 0.5882353186607361
0.6428571343421936 0.6354018449783325 0.2964426875114441 0.49803921580314636 0.5137255191802979 0.5176470875740051
0.6477832794189453 0.6448760628700256 0.2964426875114441 0.5098039507865906 0.5098039507865906 0.5098039507865906
0.5066502690315247 0.5663982033729553 0.28932806849479675 0.11372549086809158 0.11764705926179886 0.125490203499794
0.6120689511299133 0.5720827579498291 0.2964426875114441 0.6078431606292725 0.6352941393852234 0.6666666865348816
0.6482758522033691 0.6999841928482056 0.0071146246045827866 0.16862745583057404 0.1764705926179886 0.13333334028720856
0.6884236335754395 0.6333491206169128 0.007905138656497002 0.3607843220233917 0.37254902720451355 0.33725491166114807
0.7105911374092102 0.6284541487693787 0.2968379557132721 0.5803921818733215 0.6196078658103943 0.6235294342041016
0.6369457840919495 0.6341386437416077 0.2964426875114441 0.48627451062202454 0.501960813999176 0.5137255191802979
0.5913792848587036 0.615979790687561 0.28972330689430237 0.16078431904315948 0.16470588743686676 0.1725490242242813
0.5837438702583313 0.6701405048370361 0.291304349899292 0.2705882489681244 0.2862745225429535 0.2980392277240753
0.5605911612510681 0.6060318946838379 0.991304337978363 0.37254902720451355 0.3607843220233917 0.3333333432674408
0.5852216482162476 0.6556134819984436 0.2806324064731598 0.29411765933036804 0.29411765933036804 0.29411765933036804
0.6408867239952087 0.5695562958717346 0.2968379557132721 0.5882353186607361 0.6078431606292725 0.6235294342041016
0.6588670015335083 0.6016106009483337 0.005138339940458536 0.2823529541492462 0.2823529541492462 0.27450981736183167
0.601477861404419 0.5823464393615723 0.2964426875114441 0.6039215922355652 0.6235294342041016 0.6392157077789307
0.5753694772720337 0.6328754425048828 0.0031620552763342857 0.13333334028720856 0.12941177189350128 0.10980392247438431
0.6586207151412964 0.6834043860435486 0.006719367578625679 0.3490196168422699 0.3529411852359772 0.29019609093666077
0.5825123190879822 0.654508113861084 0.0031620552763342857 0.0470588244497776 0.0470588244497776 0.0470588244497776
0.621921181678772 0.5817148089408875 0.991304337978363 0.3490196168422699 0.3450980484485626 0.3294117748737335
0.49334976077079773 0.6257697939872742 0.30000001192092896 0.5764706134796143 0.5882353186607361 0.615686297416687
0.5317733883857727 0.6721932888031006 0.002766798483207822 0.4156862795352936 0.41960784792900085 0.35686275362968445
0.4963054060935974 0.6069793105125427 0.29920947551727295 0.6313725709915161 0.615686297416687 0.6196078658103943
0.6007389426231384 0.5967156291007996 0.991304337978363 0.30588236451148987 0.30980393290519714 0.2862745225429535
0.7246305346488953 0.6466130018234253 0.1826086938381195 0.05098039284348488 0.05098039284348488 0.04313725605607033
0.5120689868927002 0.5900837182998657 0.28774702548980713 0.6078431606292725 0.5686274766921997 0.572549045085907
0.5987684726715088 0.5951365828514099 0.2964426875114441 0.5960784554481506 0.6000000238418579 0.6078431606292725
0.6756157875061035 0.6006631851196289 0.9905138611793518 0.2980392277240753 0.3019607961177826 0.27843138575553894
0.5497536659240723 0.5747671127319336 0.9905138611793518 0.3686274588108063 0.3686274588108063 0.32156863808631897
0.640640377998352 0.6166114211082458 0.9916995763778687 0.38823530077934265 0.3843137323856354 0.3764705955982208
0.5874384045600891 0.573503851890564 0.2865612506866455 0.16078431904315948 0.16862745583057404 0.16470588743686676
0.6529556512832642 0.604768693447113 0.2968379557132721 0.6431372761726379 0.658823549747467 0.6627451181411743
0.7357142567634583 0.6808779239654541 0.260869562625885 0.08627451211214066 0.08627451211214066 0.08627451211214066
0.697044312953949 0.654192328453064 0.9940711259841919 0.9254902005195618 0.9411764740943909 0.9529411792755127
0.6389162540435791 0.6421917080879211 0.2964426875114441 0.49803921580314636 0.501960813999176 0.5176470875740051
0.6497536897659302 0.6813516616821289 0.005928853526711464 0.45098039507865906 0.4274509847164154 0.364705890417099
0.6044334769248962 0.691299557685852 0.992094874382019 0.33725491166114807 0.3294117748737335 0.34117648005485535
0.6682265996932983 0.5956103205680847 0.9905138611793518 0.32549020648002625 0.3294117748737335 0.30980393290519714
0.5866994857788086 0.6308226585388184 0.002766798483207822 0.15294118225574493 0.14901961386203766 0.1411764770746231
0.7312808036804199 0.6469287872314453 0.18853755295276642 0.03921568766236305 0.0470588244497776 0.04313725605607033
0.5847290754318237 0.6289278268814087 0.992094874382019 0.35686275362968445 0.3607843220233917 0.33725491166114807
0.5194581151008606 0.6680877804756165 0.29881423711776733 0.06666667014360428 0.07450980693101883 0.07058823853731155
0.5975369215011597 0.6954050064086914 0.2960474193096161 0.5882353186607361 0.5882353186607361 0.5960784554481506
0.5923645496368408 0.6658771634101868 0.2960474193096161 0.5137255191802979 0.5137255191802979 0.5215686559677124
0.6967980265617371 0.5896099805831909 0.2972331941127777 0.5372549295425415 0.5607843399047852 0.5607843399047852
0.6229063868522644 0.6027159094810486 0.01304347813129425 0.3921568691730499 0.42352941632270813 0.4313725531101227
0.6564039587974548 0.5858203172683716 0.003952569328248501 0.2823529541492462 0.2862745225429535 0.29411765933036804
0.7384236454963684 0.7055107951164246 0.9936758875846863 0.9607843160629272 0.9803921580314636 0.9960784316062927
0.6716748476028442 0.5804516077041626 0.004347825888544321 0.3960784375667572 0.3843137323856354 0.364705890417099
0.6583743691444397 0.5989262461662292 0.2968379557132721 0.5843137502670288 0.6000000238418579 0.5960784554481506
0.6967980265617371 0.707879364490509 0.2956521809101105 0.615686297416687 0.6313725709915161 0.6352941393852234
0.690640389919281 0.6202431917190552 0.9909090995788574 0.3843137323856354 0.3803921639919281 0.3607843220233917
0.6078817844390869 0.6088741421699524 0.2964426875114441 0.5490196347236633 0.5568627715110779 0.5529412031173706
0.5906403660774231 0.6036633253097534 0.013438735157251358 0.09803921729326248 0.08235294371843338 0.08627451211214066
0.6115763783454895 0.6783515214920044 0.004347825888544321 0.0313725508749485 0.0470588244497776 0.05098039284348488
0.6288177371025085 0.6532449126243591 0.2960474193096161 0.5098039507865906 0.5176470875740051 0.5137255191802979
0.6711822748184204 0.5818727016448975 0.2972331941127777 0.572549045085907 0.5960784554481506 0.5882353186607361
0.49802955985069275 0.615821897983551 0.005533596966415644 0.45098039507865906 0.45098039507865906 0.40392157435417175
0.6940886974334717 0.6865624785423279 0.9932806491851807 0.9764705896377563 0.9725490212440491 0.9921568632125854
0.6238916516304016 0.6249802708625793 0.004743082914501429 0.32549020648002625 0.2823529541492462 0.2666666805744171
0.6403940916061401 0.6360334753990173 0.9928853511810303 1.0 1.0 1.0
0.6903941035270691 0.632243812084198 0.2964426875114441 0.6000000238418579 0.6392157077789307 0.6352941393852234
0.7307881712913513 0.696826159954071 0.22292490303516388 0.0313725508749485 0.0313725508749485 0.0313725508749485
0.5187191963195801 0.6857729554176331 0.0015810276381671429 0.054901961237192154 0.0470588244497776 0.05882352963089943
0.5133004784584045 0.6750355362892151 0.30039525032043457 0.10980392247438431 0.10980392247438431 0.10980392247438431
0.6059113144874573 0.6530870199203491 0.004743082914501429 0.16862745583057404 0.16470588743686676 0.14901961386203766
0.5433497428894043 0.6125059127807617 0.9916995763778687 0.3294117748737335 0.32549020648002625 0.30588236451148987
0.6177340149879456 0.6636664867401123 0.9924901127815247 0.9803921580314636 0.9803921580314636 0.9803921580314636
0.5440886616706848 0.6107689738273621 0.0031620552763342857 0.4000000059604645 0.364705890417099 0.3294117748737335
0.6261083483695984 0.5611874461174011 0.003952569328248501 0.2078431397676468 0.21568627655506134 0.19607843458652496
0.5857142806053162 0.6712458729743958 0.28458496928215027 0.10588235408067703 0.125490203499794 0.1411764770746231
0.6253694295883179 0.5946629047393799 0.2968379557132721 0.6196078658103943 0.6352941393852234 0.6470588445663452
0.5889162421226501 0.6439286470413208 0.0031620552763342857 0.125490203499794 0.12156862765550613 0.10588235408067703
0.5884236693382263 0.6278225183486938 0.002766798483207822 0.10980392247438431 0.10588235408067703 0.09019608050584793
0.5967980027198792 0.6950892210006714 0.9916995763778687 0.3450980484485626 0.34117648005485535 0.3607843220233917
0.7300492525100708 0.5610295534133911 0.2972331941127777 0.5529412031173706 0.572549045085907 0.5882353186607361
0.5091133117675781 0.6960366368293762 0.9909090995788574 0.3333333432674408 0.33725491166114807 0.3137255012989044
0.7275862097740173 0.6977735757827759 0.9936758875846863 0.9529411792755127 0.9647058844566345 0.9843137264251709
0.7268472909927368 0.7094584107398987 0.0063241105526685715 0.2862745225429535 0.27843138575553894 0.21960784494876862
0.6403940916061401 0.6080846190452576 0.2968379557132721 0.6039215922355652 0.6235294342041016 0.6352941393852234
0.7354679703712463 0.6832464933395386 0.2699604630470276 0.09019608050584793 0.09019608050584793 0.09019608050584793
0.5726600885391235 0.7063003182411194 0.005138339940458536 0.062745101749897 0.07058823853731155 0.05882352963089943
0.506157636642456 0.6366651058197021 0.29960474371910095 0.21568627655506134 0.2235294133424759 0.21960784494876862
0.6958128213882446 0.6791409850120544 0.17549407482147217 0.0313725508749485 0.0313725508749485 0.0313725508749485
0.6539409160614014 0.6761408448219299 0.9928853511810303 0.9607843160629272 0.9725490212440491 0.9921568632125854
0.7219212055206299 0.6857729554176331 0.2960474193096161 0.501960813999176 0.5333333611488342 0.5411764979362488
0.7056650519371033 0.6030317544937134 0.2972331941127777 0.5411764979362488 0.572549045085907 0.5803921818733215
0.5975369215011597 0.5973471999168396 0.2964426875114441 0.5843137502670288 0.5921568870544434 0.5882353186607361
0.6423645615577698 0.6251381635665894 0.2964426875114441 0.5254902243614197 0.5411764979362488 0.545098066329956
0.6352216601371765 0.5965577363967896 0.991304337978363 0.3529411852359772 0.34117648005485535 0.32156863808631897
0.6770936250686646 0.6999841928482056 0.006719367578625679 0.0470588244497776 0.06666667014360428 0.09019608050584793
0.6431034207344055 0.6298752427101135 0.005928853526711464 0.3294117748737335 0.3490196168422699 0.32549020648002625
0.6073891520500183 0.6529291272163391 0.9924901127815247 0.3529411852359772 0.3607843220233917 0.35686275362968445
0.5194581151008606 0.643139123916626 0.2924901247024536 0.054901961237192154 0.054901961237192154 0.054901961237192154
0.5231527090072632 0.5924522280693054 0.9909090995788574 0.37254902720451355 0.37254902720451355 0.3333333432674408
0.5674876570701599 0.5787146687507629 0.9905138611793518 0.37254902720451355 0.37254902720451355 0.3333333432674408
0.5036945939064026 0.6532449126243591 0.9916995763778687 0.32549020648002625 0.32156863808631897 0.3019607961177826
0.6908866763114929 0.6096636652946472 0.015019763261079788 0.27843138575553894 0.30980393290519714 0.3176470696926117
0.7349753975868225 0.5690825581550598 0.2968379557132721 0.0784313753247261 0.0941176488995552 0.10588235408067703
0.5135468244552612 0.6554555296897888 0.29960474371910095 0.10588235408067703 0.10588235408067703 0.11372549086809158
0.7029556632041931 0.638244092464447 0.2964426875114441 0.5882353186607361 0.6196078658103943 0.6274510025978088
0.5852216482162476 0.6568766832351685 0.992094874382019 0.3921568691730499 0.38823530077934265 0.3803921639919281
0.546798050403595 0.5998736619949341 0.991304337978363 0.3686274588108063 0.3686274588108063 0.32156863808631897
0.7135468125343323 0.5611874461174011 0.0063241105526685715 0.47843137383461 0.48235294222831726 0.4274509847164154
0.5807881951332092 0.6560871601104736 0.0031620552763342857 0.07058823853731155 0.07058823853731155 0.07058823853731155
0.6357142925262451 0.6998263001441956 0.2960474193096161 0.6000000238418579 0.6117647290229797 0.6313725709915161
0.615517258644104 0.67645663022995 0.992094874382019 0.7333333492279053 0.7607843279838562 0.8352941274642944
0.5509852170944214 0.665245532989502 0.002766798483207822 0.33725491166114807 0.3333333432674408 0.3137255012989044
0.5896551609039307 0.6887730956077576 0.2960474193096161 0.5607843399047852 0.5764706134796143 0.5882353186607361
0.6960591077804565 0.632243812084198 0.2964426875114441 0.6000000238418579 0.6392157077789307 0.6352941393852234
0.5214285850524902 0.7086688876152039 0.0031620552763342857 0.4000000059604645 0.4000000059604645 0.3686274588108063
0.6091132760047913 0.6069793105125427 0.2964426875114441 0.5686274766921997 0.5764706134796143 0.572549045085907
0.5926108360290527 0.6167693138122559 0.992094874382019 0.37254902720451355 0.3607843220233917 0.34117648005485535
0.6889162659645081 0.5959261059761047 0.9901185631752014 0.3333333432674408 0.34117648005485535 0.2980392277240753
0.5317733883857727 0.6199273467063904 0.002766798483207822 0.46666666865348816 0.43529412150382996 0.3921568691730499
0.6133005023002625 0.6766145825386047 0.992094874382019 0.8039215803146362 0.8509804010391235 0.9137254953384399
0.5933497548103333 0.6578240990638733 0.2964426875114441 0.5215686559677124 0.5215686559677124 0.529411792755127
0.701724112033844 0.5670298337936401 0.0063241105526685715 0.23529411852359772 0.23529411852359772 0.22745098173618317
0.6581280827522278 0.6620875000953674 0.0063241105526685715 0.5254902243614197 0.529411792755127 0.4745098054409027
0.697044312953949 0.6289278268814087 0.991304337978363 0.843137264251709 0.8470588326454163 0.8666666746139526
0.6056650280952454 0.7007737159729004 0.005928853526711464 0.2980392277240753 0.2823529541492462 0.23529411852359772
0.5830049514770508 0.6227695941925049 0.0031620552763342857 0.14901961386203766 0.14509804546833038 0.12941177189350128
0.7066502571105957 0.6946154832839966 0.16916996240615845 0.03529411926865578 0.03529411926865578 0.03529411926865578
0.6995074152946472 0.5813990235328674 0.2972331941127777 0.5215686559677124 0.5333333611488342 0.5529412031173706
0.6768472790718079 0.6933522820472717 0.9928853511810303 0.9647058844566345 0.9686274528503418 0.9764705896377563
0.5800492763519287 0.6884573101997375 0.28853756189346313 0.12156862765550613 0.125490203499794 0.1411764770746231
0.737438440322876 0.5665561556816101 0.005928853526711464 0.2823529541492462 0.27450981736183167 0.22745098173618317
0.6253694295883179 0.6522974967956543 0.2960474193096161 0.5098039507865906 0.5137255191802979 0.5215686559677124
0.687438428401947 0.6025580167770386 0.2972331941127777 0.615686297416687 0.6470588445663452 0.6549019813537598
0.5903940796852112 0.6991946697235107 0.9916995763778687 0.3490196168422699 0.3490196168422699 0.35686275362968445
0.501477837562561 0.6871940493583679 0.3015810251235962 0.6470588445663452 0.6784313917160034 0.6901960968971252
0.6963053941726685 0.6892467737197876 0.2956521809101105 0.5058823823928833 0.5254902243614197 0.5372549295425415
0.6039409041404724 0.5577135682106018 0.2964426875114441 0.6352941393852234 0.6666666865348816 0.6745098233222961
0.738916277885437 0.6560871601104736 0.23320157825946808 0.10980392247438431 0.10980392247438431 0.10980392247438431
0.7366995215415955 0.707563579082489 0.0063241105526685715 0.2980392277240753 0.29019609093666077 0.23137255012989044
0.5633004903793335 0.6849834322929382 0.002766798483207822 0.27843138575553894 0.27843138575553894 0.239215686917305
0.6679803133010864 0.62103271484375 0.991304337978363 0.3960784375667572 0.3921568691730499 0.37254902720451355
0.49827587604522705 0.5892941951751709 0.9909090995788574 0.35686275362968445 0.3450980484485626 0.3176470696926117
0.6729063987731934 0.6810358166694641 0.006719367578625679 0.3921568691730499 0.4000000059604645 0.3450980484485626
0.7229064106941223 0.5649771094322205 0.9897233247756958 0.33725491166114807 0.3333333432674408 0.32549020648002625
0.5209359526634216 0.6731407046318054 0.991304337978363 0.3333333432674408 0.3294117748737335 0.3137255012989044
0.5184729099273682 0.5903995037078857 0.004743082914501429 0.572549045085907 0.6078431606292725 0.5882353186607361
0.6465517282485962 0.5769777297973633 0.2968379557132721 0.5960784554481506 0.615686297416687 0.6274510025978088
0.6197044253349304 0.5870835185050964 0.004347825888544321 0.3960784375667572 0.4117647111415863 0.42352941632270813
0.7285714149475098 0.6292436718940735 0.2968379557132721 0.5215686559677124 0.5607843399047852 0.5686274766921997
0.7386699318885803 0.6796147227287292 0.0063241105526685715 0.19607843458652496 0.18431372940540314 0.1568627506494522
0.5268473029136658 0.6688773036003113 0.0031620552763342857 0.41960784792900085 0.4000000059604645 0.32549020648002625
0.5982758402824402 0.6041370630264282 0.9916995763778687 0.34117648005485535 0.33725491166114807 0.3176470696926117
0.6007389426231384 0.6939839124679565 0.2960474193096161 0.5843137502670288 0.5882353186607361 0.5960784554481506
0.5118226408958435 0.5858203172683716 0.9909090995788574 0.3686274588108063 0.35686275362968445 0.3294117748737335
0.7352216839790344 0.5847150087356567 0.0071146246045827866 0.29019609093666077 0.27843138575553894 0.24313725531101227
0.5802955627441406 0.7100899815559387 0.005533596966415644 0.05882352963089943 0.06666667014360428 0.062745101749897
0.5906403660774231 0.6946154832839966 0.004743082914501429 0.20000000298023224 0.18039216101169586 0.1568627506494522
0.6551724076271057 0.5651350021362305 0.003952569328248501 0.2549019753932953 0.26274511218070984 0.24313725531101227
0.6000000238418579 0.5877151489257812 0.2964426875114441 0.6039215922355652 0.6196078658103943 0.6235294342041016
0.6229063868522644 0.5543975830078125 0.2964426875114441 0.6313725709915161 0.6431372761726379 0.6705882549285889
0.49753695726394653 0.6642981171607971 0.3011857569217682 0.5137255191802979 0.5137255191802979 0.4745098054409027
0.5266009569168091 0.5559766292572021 0.005138339940458536 0.4274509847164154 0.4627451002597809 0.45098039507865906
0.6288177371025085 0.5880309343338013 0.2968379557132721 0.6039215922355652 0.6196078658103943 0.6313725709915161
0.6699507236480713 0.6960366368293762 0.9928853511810303 0.9529411792755127 0.9647058844566345 0.9843137264251709
0.6896551847457886 0.5608716011047363 0.005928853526711464 0.3843137323856354 0.3960784375667572 0.3529411852359772
0.6167487502098083 0.5757145285606384 0.2964426875114441 0.6235294342041016 0.6431372761726379 0.658823549747467
0.5534482598304749 0.6549818515777588 0.9916995763778687 0.35686275362968445 0.3529411852359772 0.3450980484485626
0.6556650400161743 0.6669824719429016 0.005928853526711464 0.4274509847164154 0.43529412150382996 0.3843137323856354
0.5581280589103699 0.6551397442817688 0.002766798483207822 0.3294117748737335 0.3294117748737335 0.29019609093666077
0.5842364430427551 0.5802937150001526 0.9909090995788574 0.37254902720451355 0.37254902720451355 0.34117648005485535
0.7172414064407349 0.6614558696746826 0.17391304671764374 0.03921568766236305 0.03921568766236305 0.03921568766236305
0.6682265996932983 0.7094584107398987 0.007509881630539894 0.5215686559677124 0.5137255191802979 0.45490196347236633
0.6995074152946472 0.6732985973358154 0.0063241105526685715 0.501960813999176 0.5058823823928833 0.48235294222831726
0.5527093410491943 0.6693510413169861 0.0023715414572507143 0.3803921639919281 0.3803921639919281 0.3490196168422699
0.5660098791122437 0.6252960562705994 0.992094874382019 0.3333333432674408 0.33725491166114807 0.3176470696926117
0.7128078937530518 0.7004579305648804 0.0063241105526685715 0.0784313753247261 0.08627451211214066 0.08235294371843338
0.6884236335754395 0.6248223781585693 0.9909090995788574 0.3529411852359772 0.3529411852359772 0.3450980484485626
0.5394088625907898 0.6691930890083313 0.002766798483207822 0.42352941632270813 0.4274509847164154 0.35686275362968445
0.5630542039871216 0.6696668267250061 0.9916995763778687 0.3960784375667572 0.38823530077934265 0.3921568691730499
0.6263546943664551 0.6854571104049683 0.2960474193096161 0.5372549295425415 0.5490196347236633 0.5686274766921997
0.629802942276001 0.6458234786987305 0.9928853511810303 1.0 1.0 1.0
0.6640394330024719 0.648665726184845 0.2964426875114441 0.5176470875740051 0.5215686559677124 0.5411764979362488
0.7022167444229126 0.6870361566543579 0.9936758875846863 0.9764705896377563 0.9803921580314636 1.0
0.5839901566505432 0.5971893072128296 0.005928853526711464 0.0784313753247261 0.0941176488995552 0.09019608050584793
0.6532019972801208 0.5986104607582092 0.9909090995788574 0.35686275362968445 0.3450980484485626 0.3176470696926117
0.6884236335754395 0.5943470597267151 0.9901185631752014 0.3490196168422699 0.3529411852359772 0.32156863808631897
0.5 0.632717490196228 0.9916995763778687 0.3333333432674408 0.33725491166114807 0.3137255012989044
0.7206896543502808 0.5885046720504761 0.9897233247756958 0.3019607961177826 0.3019607961177826 0.2705882489681244
0.495320200920105 0.6016106009483337 0.9909090995788574 0.3607843220233917 0.3607843220233917 0.3294117748737335
0.7347290515899658 0.6333491206169128 0.17984189093112946 0.05882352963089943 0.05882352963089943 0.05882352963089943
0.7105911374092102 0.5949786901473999 0.0071146246045827866 0.07450980693101883 0.06666667014360428 0.07058823853731155
0.6822659969329834 0.5866098403930664 0.9901185631752014 0.3019607961177826 0.30588236451148987 0.27450981736183167
0.5532019734382629 0.6862466335296631 0.0023715414572507143 0.34117648005485535 0.3490196168422699 0.2980392277240753
0.6911330223083496 0.5888204574584961 0.005928853526711464 0.3843137323856354 0.40392157435417175 0.3803921639919281
0.6825123429298401 0.6935101747512817 0.006719367578625679 0.3294117748737335 0.34117648005485535 0.30588236451148987
0.7364531755447388 0.6459813714027405 0.007509881630539894 0.19607843458652496 0.20392157137393951 0.16078431904315948
0.5359606146812439 0.5915048122406006 0.0031620552763342857 0.47058823704719543 0.5098039507865906 0.47843137383461
0.640640377998352 0.5881888270378113 0.2968379557132721 0.6078431606292725 0.6235294342041016 0.6196078658103943
0.7241379022598267 0.5973471999168396 0.9897233247756958 0.3607843220233917 0.35686275362968445 0.33725491166114807
0.7381773591041565 0.5807673931121826 0.16442687809467316 0.08627451211214066 0.0941176488995552 0.09019608050584793
0.7189655303955078 0.5602400302886963 0.2972331941127777 0.5372549295425415 0.5490196347236633 0.5686274766921997
0.5019704699516296 0.6022422313690186 0.004743082914501429 0.45490196347236633 0.4745098054409027 0.4588235318660736
0.5226600766181946 0.6857729554176331 0.0015810276381671429 0.05098039284348488 0.0470588244497776 0.06666667014360428
0.7381773591041565 0.573661744594574 0.005928853526711464 0.29411765933036804 0.2862745225429535 0.20392157137393951
0.6687192320823669 0.5916627049446106 0.9905138611793518 0.3529411852359772 0.34117648005485535 0.30588236451148987
0.6839901208877563 0.6497710347175598 0.9936758875846863 0.9137254953384399 0.929411768913269 0.9411764740943909
0.7357142567634583 0.6903521418571472 0.29169961810112 0.21960784494876862 0.2235294133424759 0.24313725531101227
0.7293103337287903 0.562766432762146 0.0063241105526685715 0.23529411852359772 0.22745098173618317 0.16862745583057404
0.6706896424293518 0.5529764890670776 0.004743082914501429 0.48627451062202454 0.4745098054409027 0.40784314274787903
0.49778324365615845 0.6960366368293762 0.29960474371910095 0.6745098233222961 0.6980392336845398 0.6980392336845398
0.6588670015335083 0.5869256258010864 0.9905138611793518 0.30980393290519714 0.2980392277240753 0.2705882489681244
0.6583743691444397 0.5777672529220581 0.2968379557132721 0.5882353186607361 0.6039215922355652 0.6000000238418579
0.5091133117675781 0.5847150087356567 0.005138339940458536 0.4470588266849518 0.48235294222831726 0.47058823704719543
0.5581280589103699 0.6920890808105469 0.0031620552763342857 0.30980393290519714 0.2980392277240753 0.2705882489681244
0.6573891639709473 0.6455076336860657 0.0063241105526685715 0.529411792755127 0.5529412031173706 0.49803921580314636
0.4992610812187195 0.5701879262924194 0.005533596966415644 0.4941176474094391 0.5372549295425415 0.5215686559677124
0.5958127975463867 0.5869256258010864 0.2964426875114441 0.6078431606292725 0.6117647290229797 0.6196078658103943
0.6263546943664551 0.6646139025688171 0.2960474193096161 0.49803921580314636 0.5176470875740051 0.501960813999176
0.506403923034668 0.6341386437416077 0.9916995763778687 0.3607843220233917 0.3490196168422699 0.3294117748737335
0.5864531993865967 0.7094584107398987 0.2960474193096161 0.572549045085907 0.5921568870544434 0.6039215922355652
0.4960591197013855 0.6297173500061035 0.0071146246045827866 0.501960813999176 0.4901960790157318 0.42352941632270813
0.5399014949798584 0.5785567760467529 0.9909090995788574 0.3686274588108063 0.3686274588108063 0.3294117748737335
0.6041871905326843 0.6750355362892151 0.2960474193096161 0.5215686559677124 0.5215686559677124 0.5215686559677124
0.557635486125946 0.6151902675628662 0.002766798483207822 0.34117648005485535 0.3137255012989044 0.29019609093666077
0.49359604716300964 0.6369808912277222 0.30000001192092896 0.5607843399047852 0.5568627715110779 0.5882353186607361
0.6849753856658936 0.6409284472465515 0.2964426875114441 0.5607843399047852 0.5921568870544434 0.6039215922355652
0.5103448033332825 0.6774040460586548 0.991304337978363 0.33725491166114807 0.3333333432674408 0.3137255012989044
0.5418719053268433 0.5703458189964294 0.005533596966415644 0.4627451002597809 0.49803921580314636 0.47843137383461
0.5566502213478088 0.6355597376823425 0.0031620552763342857 0.32156863808631897 0.30980393290519714 0.29019609093666077
0.5502462983131409 0.7056687474250793 0.2960474193096161 0.07450980693101883 0.07058823853731155 0.09019608050584793
0.571921169757843 0.6706142425537109 0.9916995763778687 0.364705890417099 0.364705890417099 0.37254902720451355
0.6741379499435425 0.5742933750152588 0.9901185631752014 0.34117648005485535 0.3294117748737335 0.3019607961177826
0.7167487740516663 0.5640296936035156 0.0063241105526685715 0.38823530077934265 0.37254902720451355 0.33725491166114807
0.5492610931396484 0.6513500809669495 0.0031620552763342857 0.43921568989753723 0.4431372582912445 0.37254902720451355
0.673399031162262 0.6905100345611572 0.9928853511810303 0.9490196108818054 0.9529411792755127 0.9725490212440491
0.6130542159080505 0.6669824719429016 0.2960474193096161 0.4901960790157318 0.5058823823928833 0.5176470875740051
0.5487684607505798 0.627032995223999 0.0031620552763342857 0.37254902720451355 0.3450980484485626 0.32156863808631897
0.7315270900726318 0.5817148089408875 0.006719367578625679 0.21960784494876862 0.2078431397676468 0.1725490242242813
0.6039409041404724 0.6807200312614441 0.003952569328248501 0.24313725531101227 0.23529411852359772 0.1882352977991104
0.7152709364891052 0.6240328550338745 0.17588932812213898 0.03529411926865578 0.03529411926865578 0.03529411926865578
0.7004926204681396 0.6822990775108337 0.9936758875846863 0.9764705896377563 0.9803921580314636 1.0
0.5391625761985779 0.6178746223449707 0.002766798483207822 0.4000000059604645 0.364705890417099 0.3450980484485626
0.5302955508232117 0.5766619443893433 0.9909090995788574 0.3843137323856354 0.3843137323856354 0.3450980484485626
0.4965517222881317 0.637770414352417 0.30039525032043457 0.5607843399047852 0.5568627715110779 0.5803921818733215
0.7354679703712463 0.5602400302886963 0.2968379557132721 0.08627451211214066 0.10980392247438431 0.10980392247438431
0.5504925847053528 0.5720827579498291 0.9905138611793518 0.3921568691730499 0.3803921639919281 0.3450980484485626
0.5024630427360535 0.670930027961731 0.991304337978363 0.32549020648002625 0.32549020648002625 0.29411765933036804
0.5066502690315247 0.6726669669151306 0.002766798483207822 0.43921568989753723 0.45098039507865906 0.42352941632270813
0.6221674680709839 0.6562450528144836 0.2960474193096161 0.5254902243614197 0.529411792755127 0.5372549295425415
0.6162561774253845 0.6901942491531372 0.005533596966415644 0.24313725531101227 0.22745098173618317 0.18039216101169586
0.6086207032203674 0.6691930890083313 0.992094874382019 0.29411765933036804 0.29019609093666077 0.30980393290519714
0.5231527090072632 0.6164534687995911 0.002766798483207822 0.5215686559677124 0.48627451062202454 0.45098039507865906
0.606157660484314 0.5741354823112488 0.2964426875114441 0.6000000238418579 0.6352941393852234 0.6627451181411743
0.6362069249153137 0.5945049524307251 0.006719367578625679 0.22745098173618317 0.24705882370471954 0.25882354378700256
0.5238916277885437 0.5629243850708008 0.9909090995788574 0.37254902720451355 0.37254902720451355 0.32549020648002625
0.49408867955207825 0.6972998380661011 0.0 0.40392157435417175 0.3960784375667572 0.30588236451148987
0.695320188999176 0.5956103205680847 0.0063241105526685715 0.1882352977991104 0.2078431397676468 0.18039216101169586
0.5236453413963318 0.6166114211082458 0.002766798483207822 0.5333333611488342 0.49803921580314636 0.4627451002597809
0.7317733764648438 0.6949313282966614 0.19130434095859528 0.06666667014360428 0.06666667014360428 0.06666667014360428
0.6958128213882446 0.6928785443305969 0.9932806491851807 0.9764705896377563 0.9803921580314636 0.9960784316062927
0.6221674680709839 0.654666006565094 0.2960474193096161 0.5058823823928833 0.5058823823928833 0.5137255191802979
0.515763521194458 0.5725564360618591 0.9909090995788574 0.3686274588108063 0.3686274588108063 0.3294117748737335
0.6901477575302124 0.6169272065162659 0.2968379557132721 0.6196078658103943 0.6549019813537598 0.6431372761726379
0.697044312953949 0.5766619443893433 0.005928853526711464 0.3803921639919281 0.3843137323856354 0.364705890417099
0.6396551728248596 0.6688773036003113 0.005533596966415644 0.3529411852359772 0.3686274588108063 0.30980393290519714
0.5903940796852112 0.6082425117492676 0.2758893370628357 0.6980392336845398 0.686274528503418 0.6196078658103943
0.7182266116142273 0.6794568300247192 0.0063241105526685715 0.24705882370471954 0.250980406999588 0.22745098173618317
0.6889162659645081 0.5959261059761047 0.9901185631752014 0.3333333432674408 0.34117648005485535 0.2980392277240753
0.7226601243019104 0.6609821319580078 0.17905138432979584 0.07058823853731155 0.07058823853731155 0.07058823853731155
0.5874384045600891 0.6530870199203491 0.2964426875114441 0.5176470875740051 0.5137255191802979 0.49803921580314636
0.6948275566101074 0.6717195510864258 0.006719367578625679 0.4431372582912445 0.45098039507865906 0.3686274588108063
0.6362069249153137 0.6336649060249329 0.2964426875114441 0.49803921580314636 0.501960813999176 0.5176470875740051
0.5549260973930359 0.6690351963043213 0.0023715414572507143 0.3490196168422699 0.3529411852359772 0.32156863808631897
0.5266009569168091 0.6025580167770386 0.991304337978363 0.3686274588108063 0.35686275362968445 0.3294117748737335
0.6448276042938232 0.557081937789917 0.2968379557132721 0.6000000238418579 0.6117647290229797 0.6313725709915161
0.6470443606376648 0.6522974967956543 0.005928853526711464 0.5372549295425415 0.5372549295425415 0.5058823823928833
0.5147783160209656 0.5550292134284973 0.9905138611793518 0.3843137323856354 0.3764705955982208 0.3294117748737335
0.5701970458030701 0.5962418913841248 0.004347825888544321 0.062745101749897 0.07058823853731155 0.06666667014360428
0.6965517401695251 0.6151902675628662 0.2968379557132721 0.6078431606292725 0.6549019813537598 0.6549019813537598
0.6669950485229492 0.6631928086280823 0.9932806491851807 0.9921568632125854 0.9960784316062927 1.0
0.6778324842453003 0.6635085940361023 0.9932806491851807 0.9647058844566345 0.9647058844566345 0.9960784316062927
0.7061576247215271 0.5687667727470398 0.1766798347234726 0.07450980693101883 0.07450980693101883 0.07450980693101883
0.7362068891525269 0.5684509873390198 0.20039525628089905 0.10196078568696976 0.09803921729326248 0.08235294371843338
0.7238916158676147 0.5648192167282104 0.0063241105526685715 0.32156863808631897 0.3019607961177826 0.2862745225429535
0.6822659969329834 0.6237170100212097 0.9909090995788574 0.3607843220233917 0.3607843220233917 0.3529411852359772
0.6896551847457886 0.6522974967956543 0.007509881630539894 0.03529411926865578 0.03529411926865578 0.03529411926865578
0.7100985050201416 0.6331912279129028 0.9916995763778687 0.843137264251709 0.8549019694328308 0.8823529481887817
0.5975369215011597 0.6194536685943604 0.992094874382019 0.35686275362968445 0.3607843220233917 0.3294117748737335
0.6221674680709839 0.6731407046318054 0.004743082914501429 0.2666666805744171 0.27450981736183167 0.23137255012989044
0.6110837459564209 0.5534501671791077 0.2964426875114441 0.6352941393852234 0.6666666865348816 0.6784313917160034
0.5802955627441406 0.573188066482544 0.9905138611793518 0.3686274588108063 0.35686275362968445 0.3294117748737335
0.5044335126876831 0.6830886006355286 0.3015810251235962 0.40784314274787903 0.43921568989753723 0.45098039507865906
0.5935960412025452 0.5548713207244873 0.9905138611793518 0.3764705955982208 0.3843137323856354 0.3333333432674408
0.5847290754318237 0.6369808912277222 0.002766798483207822 0.125490203499794 0.12156862765550613 0.10588235408067703
0.7266010046005249 0.5862939953804016 0.1723320186138153 0.05882352963089943 0.05882352963089943 0.05098039284348488
0.6593596339225769 0.5870835185050964 0.0035573123022913933 0.32549020648002625 0.3333333432674408 0.3294117748737335
0.5881773233413696 0.5769777297973633 0.0019762846641242504 0.1764705926179886 0.20000000298023224 0.1921568661928177
0.5009852051734924 0.6957208514213562 0.9909090995788574 0.30588236451148987 0.3019607961177826 0.2823529541492462
0.5128079056739807 0.6071372032165527 0.991304337978363 0.3529411852359772 0.3490196168422699 0.3294117748737335
0.6640394330024719 0.6355597376823425 0.9924901127815247 0.9960784316062927 0.9960784316062927 0.9960784316062927
0.5371921062469482 0.7083530426025391 0.0035573123022913933 0.35686275362968445 0.3490196168422699 0.3019607961177826
0.5307881832122803 0.6685615181922913 0.002766798483207822 0.4431372582912445 0.41960784792900085 0.37254902720451355
0.5982758402824402 0.654192328453064 0.992094874382019 0.3529411852359772 0.3529411852359772 0.3529411852359772
0.5108374357223511 0.6717195510864258 0.0031620552763342857 0.43921568989753723 0.4431372582912445 0.38823530077934265
0.5918719172477722 0.707721471786499 0.2960474193096161 0.6000000238418579 0.6039215922355652 0.6235294342041016
0.7322660088539124 0.6294015645980835 0.26798418164253235 0.07450980693101883 0.07450980693101883 0.06666667014360428
0.609359622001648 0.6922469735145569 0.992094874382019 0.3490196168422699 0.3529411852359772 0.37254902720451355
0.6426108479499817 0.5728722810745239 0.9905138611793518 0.3607843220233917 0.3490196168422699 0.3294117748737335
0.6967980265617371 0.6834043860435486 0.2956521809101105 0.47843137383461 0.49803921580314636 0.5098039507865906
0.5724138021469116 0.7055107951164246 0.991304337978363 0.30588236451148987 0.30588236451148987 0.2980392277240753
0.5746305584907532 0.5855044722557068 0.005138339940458536 0.239215686917305 0.25882354378700256 0.23529411852359772
0.6192117929458618 0.6624032855033875 0.9924901127815247 1.0 1.0 1.0
0.5581280589103699 0.691141664981842 0.002766798483207822 0.3019607961177826 0.29019609093666077 0.2549019753932953
0.5273398756980896 0.5703458189964294 0.0035573123022913933 0.49803921580314636 0.5568627715110779 0.545098066329956
0.5448275804519653 0.599242091178894 0.991304337978363 0.3764705955982208 0.3764705955982208 0.3294117748737335
0.63768470287323 0.6944575905799866 0.9924901127815247 0.9450980424880981 0.95686274766922 0.9764705896377563
0.7243842482566833 0.5757145285606384 0.2976284623146057 0.545098066329956 0.5647059082984924 0.5803921818733215
0.6041871905326843 0.6993526220321655 0.005533596966415644 0.25882354378700256 0.24313725531101227 0.20000000298023224
0.6714285612106323 0.6650876402854919 0.006719367578625679 0.5411764979362488 0.5607843399047852 0.5333333611488342
0.6502463221549988 0.7015632390975952 0.2956521809101105 0.6000000238418579 0.6117647290229797 0.6313725709915161
0.7061576247215271 0.6513500809669495 0.007509881630539894 0.2549019753932953 0.27450981736183167 0.24705882370471954
0.6066502332687378 0.5799778699874878 0.2964426875114441 0.615686297416687 0.6313725709915161 0.6431372761726379
0.7125615477561951 0.5900837182998657 0.006719367578625679 0.3490196168422699 0.35686275362968445 0.3137255012989044
0.5219211578369141 0.696826159954071 0.0015810276381671429 0.40392157435417175 0.4431372582912445 0.33725491166114807
0.6928571462631226 0.7096163034439087 0.2956521809101105 0.6352941393852234 0.6549019813537598 0.6392157077789307
0.6674876809120178 0.6559292674064636 0.006719367578625679 0.4901960790157318 0.4901960790157318 0.4431372582912445
0.7224137783050537 0.5558187365531921 0.18853755295276642 0.18039216101169586 0.1568627506494522 0.16470588743686676
0.7160098552703857 0.6172429919242859 0.2968379557132721 0.5568627715110779 0.5960784554481506 0.6000000238418579
0.504679799079895 0.5610295534133911 0.9909090995788574 0.32549020648002625 0.32549020648002625 0.27843138575553894
0.503201961517334 0.5870835185050964 0.29407113790512085 0.12156862765550613 0.11372549086809158 0.11764705926179886
0.5100985169410706 0.5932417511940002 0.004743082914501429 0.48235294222831726 0.5058823823928833 0.5058823823928833
0.5066502690315247 0.6025580167770386 0.9909090995788574 0.3529411852359772 0.35686275362968445 0.32549020648002625
0.6564039587974548 0.6811937689781189 0.9928853511810303 0.9490196108818054 0.9607843160629272 0.9803921580314636
0.684482753276825 0.6827727556228638 0.9932806491851807 0.9686274528503418 0.9725490212440491 0.9882352948188782
0.6647783517837524 0.6745617985725403 0.0063241105526685715 0.43529412150382996 0.4431372582912445 0.3607843220233917
0.7384236454963684 0.6568766832351685 0.20158103108406067 0.20392157137393951 0.21176470816135406 0.2078431397676468
0.6650246381759644 0.6019264459609985 0.2968379557132721 0.5686274766921997 0.5843137502670288 0.5882353186607361
0.7307881712913513 0.696668267250061 0.2810276746749878 0.18431372940540314 0.20000000298023224 0.20392157137393951
0.7357142567634583 0.6312963962554932 0.00830039568245411 0.19607843458652496 0.20000000298023224 0.14509804546833038
0.6926108598709106 0.6451918482780457 0.2964426875114441 0.5568627715110779 0.5921568870544434 0.6117647290229797
0.695320188999176 0.643139123916626 0.9932806491851807 0.8980392217636108 0.9137254953384399 0.9254902005195618
0.49704432487487793 0.615979790687561 0.29960474371910095 0.6039215922355652 0.6039215922355652 0.6039215922355652
0.6598522067070007 0.6783515214920044 0.9928853511810303 0.9450980424880981 0.95686274766922 0.9764705896377563
0.6472906470298767 0.6906679272651672 0.2960474193096161 0.572549045085907 0.5803921818733215 0.6313725709915161
0.6977832317352295 0.5645033717155457 0.0063241105526685715 0.47843137383461 0.4901960790157318 0.4627451002597809
0.6879310607910156 0.7053529024124146 0.9928853511810303 0.9647058844566345 0.9764705896377563 0.9960784316062927
0.5903940796852112 0.6082425117492676 0.2758893370628357 0.6980392336845398 0.686274528503418 0.6196078658103943
0.6443349719047546 0.708037257194519 0.007509881630539894 0.4627451002597809 0.45490196347236633 0.364705890417099
0.7150246500968933 0.5540817975997925 0.18339921534061432 0.05882352963089943 0.06666667014360428 0.062745101749897
0.6753694415092468 0.5799778699874878 0.005138339940458536 0.40784314274787903 0.4117647111415863 0.3803921639919281
0.7320197224617004 0.6361913681030273 0.992094874382019 0.8078431487083435 0.8235294222831726 0.8352941274642944
0.6403940916061401 0.6150323748588562 0.9916995763778687 0.3843137323856354 0.3803921639919281 0.37254902720451355
0.7315270900726318 0.6942996978759766 0.2972331941127777 0.18039216101169586 0.20000000298023224 0.21176470816135406
0.7108374238014221 0.5725564360618591 0.2972331941127777 0.5137255191802979 0.5490196347236633 0.545098066329956
