0.24507388472557068 0.06016106158494949 0.0071146246045827866 0.6117647290229797 0.6039215922355652 0.5137255191802979
0.34261083602905273 0.04389704763889313 0.13952569663524628 0.9058823585510254 0.800000011920929 0.5843137502670288
0.2145320177078247 0.006158218719065189 0.8395256996154785 0.5254902243614197 0.4274509847164154 0.30588236451148987
0.338177353143692 0.0015790305333212018 0.16363635659217834 0.6627451181411743 0.5058823823928833 0.23529411852359772
0.21600985527038574 0.00552660645917058 0.6383399367332458 0.6196078658103943 0.5058823823928833 0.3490196168422699
0.1669950783252716 0.006158218719065189 0.3996047377586365 0.6784313917160034 0.5215686559677124 0.3294117748737335
0.3261083662509918 0.0517922006547451 0.010276679880917072 0.364705890417099 0.3490196168422699 0.3019607961177826
0.21157635748386383 0.10279488563537598 0.006719367578625679 0.5686274766921997 0.5568627715110779 0.49803921580314636
0.36206895112991333 0.03142270818352699 0.06047431007027626 0.22745098173618317 0.1725490242242813 0.12941177189350128
0.2509852349758148 0.01089530996978283 0.156521737575531 0.843137264251709 0.7254902124404907 0.4901960790157318
0.28029558062553406 0.0014211274683475494 0.30869564414024353 0.6941176652908325 0.5254902243614197 0.3176470696926117
0.20024630427360535 0.006158218719065189 0.3292490243911743 0.6549019813537598 0.5098039507865906 0.29411765933036804
0.3499999940395355 0.0007895152666606009 0.5328063368797302 0.6627451181411743 0.5372549295425415 0.3529411852359772
0.29113301634788513 0.02526448853313923 0.14980237185955048 0.9019607901573181 0.7764706015586853 0.545098066329956
0.3379310369491577 0.0688457265496254 0.10553359985351562 0.2862745225429535 0.23137255012989044 0.12941177189350128
0.33866995573043823 0.0009474182734265924 0.47588932514190674 0.658823549747467 0.5254902243614197 0.33725491166114807
0.3655172288417816 0.15174482762813568 0.005928853526711464 0.7411764860153198 0.7333333492279053 0.6745098233222961
0.36650246381759644 0.05052897706627846 0.00909090880304575 0.32156863808631897 0.2980392277240753 0.250980406999588
0.24408866465091705 0.00552660645917058 0.06679841876029968 0.4156862795352936 0.30588236451148987 0.16078431904315948
0.26699507236480713 0.11558502912521362 0.9901185631752014 0.30980393290519714 0.29019609093666077 0.2666666805744171
0.2655172348022461 0.025422390550374985 0.14940711855888367 0.8823529481887817 0.7450980544090271 0.5176470875740051
0.3463054299354553 0.0006316122016869485 0.8102766871452332 0.5058823823928833 0.40392157435417175 0.2666666805744171
0.31625616550445557 0.05605558305978775 0.9897233247756958 0.33725491166114807 0.30980393290519714 0.27843138575553894
0.2935960590839386 0.048160430043935776 0.07944664359092712 0.25882354378700256 0.2078431397676468 0.1411764770746231
0.13842365145683289 0.09047844260931015 0.9909090995788574 0.3843137323856354 0.3529411852359772 0.30980393290519714
0.35960590839385986 0.03821253776550293 0.1411067247390747 0.8666666746139526 0.7764706015586853 0.5803921818733215
0.2650246322154999 0.14163903892040253 0.9909090995788574 0.37254902720451355 0.35686275362968445 0.3529411852359772
0.198029562830925 0.006000315770506859 0.38260868191719055 0.6352941393852234 0.4901960790157318 0.2823529541492462
0.24827586114406586 0.039475761353969574 0.9905138611793518 0.3176470696926117 0.2862745225429535 0.24313725531101227
0.1862068921327591 0.005684509873390198 0.7628458738327026 0.6196078658103943 0.5529412031173706 0.45098039507865906
0.23300492763519287 0.006000315770506859 0.18142291903495789 0.6470588445663452 0.49803921580314636 0.24313725531101227
0.21354679763317108 0.034107059240341187 0.008695651777088642 0.47058823704719543 0.4588235318660736 0.3843137323856354
0.30295565724372864 0.0007895152666606009 0.6727272868156433 0.6196078658103943 0.48627451062202454 0.33725491166114807
0.3682265877723694 0.06410863995552063 0.9893280863761902 0.3607843220233917 0.3333333432674408 0.29411765933036804
0.16403940320014954 0.005842412821948528 0.8762845993041992 0.3960784375667572 0.3294117748737335 0.21176470816135406
0.36650246381759644 0.0832149088382721 0.007905138656497002 0.6901960968971252 0.7019608020782471 0.6666666865348816
0.2105911374092102 0.005842412821948528 0.8063241243362427 0.6039215922355652 0.5254902243614197 0.38823530077934265
0.14359605312347412 0.1380072683095932 0.9909090995788574 0.3176470696926117 0.32156863808631897 0.2666666805744171
0.3371921181678772 0.0006316122016869485 0.8245059251785278 0.501960813999176 0.38823530077934265 0.2549019753932953
0.3258620798587799 0.05542397126555443 0.9897233247756958 0.3019607961177826 0.27450981736183167 0.24313725531101227
0.16403940320014954 0.1291646957397461 0.007509881630539894 0.5529412031173706 0.5568627715110779 0.4941176474094391
0.2342364490032196 0.005684509873390198 0.42885375022888184 0.6470588445663452 0.5215686559677124 0.33725491166114807
0.1509852260351181 0.09142586588859558 0.9909090995788574 0.37254902720451355 0.3490196168422699 0.3019607961177826
0.2938423752784729 0.1495341807603836 0.9964426755905151 0.6705882549285889 0.7058823704719543 0.686274528503418
0.12389162927865982 0.1263224333524704 0.00830039568245411 0.6235294342041016 0.6235294342041016 0.5764706134796143
0.20763546228408813 0.005684509873390198 0.5972331762313843 0.686274528503418 0.5647059082984924 0.3921568691730499
0.158620685338974 0.005842412821948528 0.7146245241165161 0.6509804129600525 0.5568627715110779 0.4470588266849518
0.19384236633777618 0.09032054245471954 0.007509881630539894 0.3960784375667572 0.40784314274787903 0.29411765933036804
0.26773399114608765 0.0007895152666606009 0.9272727370262146 0.3137255012989044 0.23529411852359772 0.10588235408067703
0.17216749489307404 0.005842412821948528 0.7996047139167786 0.5960784554481506 0.5098039507865906 0.4156862795352936
0.1307881772518158 0.0315806083381176 0.17905138432979584 0.11764705926179886 0.11764705926179886 0.08627451211214066
0.15024630725383759 0.08400442451238632 0.9909090995788574 0.364705890417099 0.3294117748737335 0.29411765933036804
0.1864532083272934 0.005842412821948528 0.6055335998535156 0.6509804129600525 0.5568627715110779 0.3843137323856354
0.3408867120742798 0.0007895152666606009 0.5841897130012512 0.6549019813537598 0.545098066329956 0.3607843220233917
0.20295566320419312 0.005684509873390198 0.6000000238418579 0.6470588445663452 0.5333333611488342 0.3607843220233917
0.2967980206012726 0.09000473469495773 0.9901185631752014 0.2666666805744171 0.239215686917305 0.2078431397676468
0.3487684726715088 0.0006316122016869485 0.9015810489654541 0.41960784792900085 0.32549020648002625 0.18431372940540314
0.3342364430427551 0.0009474182734265924 0.5399209260940552 0.6666666865348816 0.5490196347236633 0.3529411852359772
0.14014779031276703 0.006000315770506859 0.48181816935539246 0.6196078658103943 0.4901960790157318 0.32156863808631897
0.24852216243743896 0.01784304529428482 0.03754940629005432 0.4588235318660736 0.3333333432674408 0.1725490242242813
0.24458128213882446 0.008210958912968636 0.9450592994689941 0.27450981736183167 0.2078431397676468 0.09803921729326248
0.23275862634181976 0.0372651182115078 0.9905138611793518 0.3529411852359772 0.32156863808631897 0.27843138575553894
0.18842364847660065 0.11874309182167053 0.0071146246045827866 0.615686297416687 0.6117647290229797 0.5333333611488342
0.13423645496368408 0.15316595137119293 0.9905138611793518 0.3490196168422699 0.34117648005485535 0.29411765933036804
0.2463054209947586 0.07910943031311035 0.0071146246045827866 0.5921568870544434 0.5843137502670288 0.5254902243614197
0.29507389664649963 0.0011053213384002447 0.46166008710861206 0.6941176652908325 0.5686274766921997 0.3686274588108063
0.2977832555770874 0.0007895152666606009 0.9154150485992432 0.3686274588108063 0.27843138575553894 0.1568627506494522
0.25123152136802673 0.040423180907964706 0.07667984068393707 0.4627451002597809 0.34117648005485535 0.16078431904315948
0.34236451983451843 0.046107690781354904 0.08695652335882187 0.21960784494876862 0.16862745583057404 0.10588235408067703
0.2298029512166977 0.00552660645917058 0.6055335998535156 0.5882353186607361 0.47843137383461 0.3333333432674408
0.2137930989265442 0.00552660645917058 0.7703557014465332 0.6117647290229797 0.5137255191802979 0.3921568691730499
0.3497537076473236 0.0004737091367132962 0.9300395250320435 0.34117648005485535 0.25882354378700256 0.13725490868091583
0.25566503405570984 0.1177956759929657 0.006719367578625679 0.6941176652908325 0.686274528503418 0.6352941393852234
0.20960591733455658 0.007263540290296078 0.91660076379776 0.3960784375667572 0.30588236451148987 0.18431372940540314
0.3600985109806061 0.07058266550302505 0.11501976102590561 0.8196078538894653 0.7450980544090271 0.615686297416687
0.29630541801452637 0.10958471149206161 0.0071146246045827866 0.7333333492279053 0.7372549176216125 0.6823529601097107
0.2384236454963684 0.007421443238854408 0.8889328241348267 0.3764705955982208 0.3019607961177826 0.1725490242242813
0.31133005023002625 0.0007895152666606009 0.7114624381065369 0.6274510025978088 0.5176470875740051 0.37254902720451355
0.20000000298023224 0.006000315770506859 0.3537549376487732 0.6352941393852234 0.4901960790157318 0.2823529541492462
0.32733988761901855 0.1294804960489273 0.005928853526711464 0.6274510025978088 0.6235294342041016 0.5411764979362488
0.3248768448829651 0.07689878344535828 0.00830039568245411 0.6039215922355652 0.5960784554481506 0.5372549295425415
0.24704433977603912 0.007263540290296078 0.9130434989929199 0.3294117748737335 0.2549019753932953 0.13725490868091583
0.1312807947397232 0.006000315770506859 0.4988142251968384 0.6392157077789307 0.5176470875740051 0.33725491166114807
0.31551724672317505 0.1550607979297638 0.9905138611793518 0.3607843220233917 0.33725491166114807 0.33725491166114807
0.29901477694511414 0.0011053213384002447 0.4545454680919647 0.6823529601097107 0.5568627715110779 0.35686275362968445
0.20147782564163208 0.006474025081843138 0.873913049697876 0.4588235318660736 0.3686274588108063 0.24313725531101227
0.20517241954803467 0.013579661957919598 0.010276679880917072 0.4745098054409027 0.48627451062202454 0.40392157435417175
0.20000000298023224 0.006158218719065189 0.1557312309741974 0.6313725709915161 0.501960813999176 0.29019609093666077
0.15566502511501312 0.005842412821948528 0.8833991885185242 0.4431372582912445 0.33725491166114807 0.21960784494876862
0.35049259662628174 0.061108481138944626 0.09486165642738342 0.22745098173618317 0.1725490242242813 0.12156862765550613
0.27512314915657043 0.1376914530992508 0.9909090995788574 0.3333333432674408 0.3137255012989044 0.2980392277240753
0.35467979311943054 0.013421759009361267 0.15296442806720734 0.8705882430076599 0.7568627595901489 0.49803921580314636
0.21231527626514435 0.0273172277957201 0.9905138611793518 0.3843137323856354 0.3607843220233917 0.3137255012989044
0.1662561595439911 0.005684509873390198 0.06877470016479492 0.5058823823928833 0.37254902720451355 0.2235294133424759
0.24014778435230255 0.006631928030401468 0.8158102631568909 0.545098066329956 0.4470588266849518 0.3294117748737335
0.3105911314487457 0.11732196062803268 0.9901185631752014 0.3137255012989044 0.29411765933036804 0.2705882489681244
0.34408867359161377 0.0014211274683475494 0.2399209439754486 0.7411764860153198 0.5803921818733215 0.3607843220233917
0.21256157755851746 0.03631770238280296 0.9905138611793518 0.3490196168422699 0.3176470696926117 0.2666666805744171
0.21551723778247833 0.05495025962591171 0.9905138611793518 0.3294117748737335 0.3019607961177826 0.26274511218070984
0.1588670015335083 0.04452865943312645 0.007905138656497002 0.5058823823928833 0.48235294222831726 0.41960784792900085
0.2423645257949829 0.006158218719065189 0.12569169700145721 0.3529411852359772 0.27843138575553894 0.16078431904315948
0.1312807947397232 0.00805305503308773 0.9747035503387451 0.12941177189350128 0.09803921729326248 0.08627451211214066
0.23866994678974152 0.07531975209712982 0.9905138611793518 0.30588236451148987 0.29019609093666077 0.24705882370471954
0.28054186701774597 0.0007895152666606009 0.747826099395752 0.5647059082984924 0.47058823704719543 0.33725491166114807
0.28719210624694824 0.02558029443025589 0.06877470016479492 0.25882354378700256 0.2078431397676468 0.1411764770746231
0.3285714387893677 0.06442444026470184 0.00830039568245411 0.5529412031173706 0.545098066329956 0.4941176474094391
0.20344828069210052 0.02589610032737255 0.9905138611793518 0.38823530077934265 0.364705890417099 0.3019607961177826
0.30295565724372864 0.02810674160718918 0.9901185631752014 0.3137255012989044 0.2823529541492462 0.239215686917305
0.20320196449756622 0.006158218719065189 0.3181818127632141 0.6745098233222961 0.529411792755127 0.32549020648002625
0.312561571598053 0.07516185194253922 0.9897233247756958 0.3176470696926117 0.29019609093666077 0.250980406999588
0.1349753737449646 0.005210800562053919 0.04387351870536804 0.4156862795352936 0.30980393290519714 0.23529411852359772
0.24926108121871948 0.0374230220913887 0.03280632570385933 0.45490196347236633 0.3450980484485626 0.1568627506494522
0.19310344755649567 0.01957997865974903 0.9909090995788574 0.3960784375667572 0.37254902720451355 0.3176470696926117
0.15812808275222778 0.006158218719065189 0.9407114386558533 0.32549020648002625 0.25882354378700256 0.14901961386203766
0.19359606504440308 0.006316122133284807 0.18339921534061432 0.6000000238418579 0.4627451002597809 0.20392157137393951
0.1990147829055786 0.08242539316415787 0.007509881630539894 0.5529412031173706 0.5490196347236633 0.46666666865348816
0.21748767793178558 0.11937470734119415 0.9905138611793518 0.33725491166114807 0.32156863808631897 0.27450981736183167
0.23201970756053925 0.00552660645917058 0.5395256876945496 0.5882353186607361 0.47843137383461 0.29019609093666077
0.3684729039669037 0.046423494815826416 0.03992094844579697 0.2862745225429535 0.27843138575553894 0.23137255012989044
0.2066502422094345 0.007579346187412739 0.9533596634864807 0.2823529541492462 0.21568627655506134 0.10588235408067703
0.22364531457424164 0.005368703510612249 0.7063241004943848 0.6352941393852234 0.5215686559677124 0.3960784375667572
0.2507389187812805 0.006316122133284807 0.9691699743270874 0.14901961386203766 0.11764705926179886 0.10588235408067703
0.2894088625907898 0.033475447446107864 0.14584980905056 0.9137254953384399 0.7882353067398071 0.5490196347236633
0.35935959219932556 0.09237328171730042 0.007509881630539894 0.6392157077789307 0.6431372761726379 0.5803921818733215
0.2507389187812805 0.041528500616550446 0.06126482039690018 0.4627451002597809 0.3529411852359772 0.16470588743686676
0.2261083722114563 0.005684509873390198 0.40869563817977905 0.6509804129600525 0.5098039507865906 0.30588236451148987
0.3524630665779114 0.0007895152666606009 0.5735177993774414 0.6470588445663452 0.5254902243614197 0.3450980484485626
0.14507389068603516 0.006316122133284807 0.20000000298023224 0.32549020648002625 0.239215686917305 0.08627451211214066
0.23546798527240753 0.1438496708869934 0.9916995763778687 0.27843138575553894 0.27843138575553894 0.2705882489681244
0.21551723778247833 0.04247592017054558 0.00830039568245411 0.45098039507865906 0.4274509847164154 0.364705890417099
0.36305418610572815 0.001263224403373897 0.27233201265335083 0.7098039388656616 0.5529412031173706 0.32156863808631897
0.24876847863197327 0.034107059240341187 0.10711462795734406 0.46666666865348816 0.3176470696926117 0.13333334028720856
0.158620685338974 0.006316122133284807 0.20948617160320282 0.6196078658103943 0.4627451002597809 0.23137255012989044
0.23177340626716614 0.12016421556472778 0.006719367578625679 0.4431372582912445 0.43921568989753723 0.3607843220233917
0.22290641069412231 0.005842412821948528 0.12727272510528564 0.5803921818733215 0.4274509847164154 0.19607843458652496
0.3524630665779114 0.0014211274683475494 0.21106719970703125 0.7372549176216125 0.5803921818733215 0.3490196168422699
0.31453201174736023 0.0006316122016869485 0.8893280625343323 0.4117647111415863 0.3176470696926117 0.18431372940540314
0.29211822152137756 0.0007895152666606009 0.8909090757369995 0.4313725531101227 0.33725491166114807 0.20392157137393951
0.2615763545036316 0.0015790305333212018 0.40909090638160706 0.6117647290229797 0.48627451062202454 0.29411765933036804
0.2140394151210785 0.005684509873390198 0.0830039530992508 0.6274510025978088 0.5254902243614197 0.32549020648002625
0.36256158351898193 0.0315806083381176 0.056521739810705185 0.22745098173618317 0.1725490242242813 0.12941177189350128
0.23990148305892944 0.006631928030401468 0.8237153887748718 0.5411764979362488 0.43921568989753723 0.3333333432674408
0.33448275923728943 0.11842728406190872 0.0063241105526685715 0.5254902243614197 0.5098039507865906 0.4627451002597809
0.2334975302219391 0.00552660645917058 0.5102766752243042 0.6352941393852234 0.5058823823928833 0.33725491166114807
0.2458128035068512 0.0372651182115078 0.9905138611793518 0.3450980484485626 0.3137255012989044 0.2705882489681244
0.2455665022134781 0.05952944979071617 0.11146245151758194 0.49803921580314636 0.3607843220233917 0.14901961386203766
0.35098522901535034 0.03268593177199364 0.9897233247756958 0.3529411852359772 0.3294117748737335 0.2823529541492462
0.19261083006858826 0.10247907787561417 0.9909090995788574 0.3607843220233917 0.3490196168422699 0.29019609093666077
0.20763546228408813 0.005842412821948528 0.5367588996887207 0.6784313917160034 0.5568627715110779 0.3764705955982208
0.21896551549434662 0.06063476949930191 0.0071146246045827866 0.6823529601097107 0.6901960968971252 0.6352941393852234
0.1352216750383377 0.05858203023672104 0.00830039568245411 0.46666666865348816 0.45098039507865906 0.3529411852359772
0.36773398518562317 0.0006316122016869485 0.7209486365318298 0.6000000238418579 0.5333333611488342 0.4156862795352936
0.3650246262550354 0.0009474182734265924 0.4521739184856415 0.7137255072593689 0.5647059082984924 0.3803921639919281
0.16354680061340332 0.005842412821948528 0.8557312488555908 0.4901960790157318 0.40784314274787903 0.29411765933036804
0.21773399412631989 0.005684509873390198 0.44980236887931824 0.658823549747467 0.5254902243614197 0.3450980484485626
0.2610837519168854 0.0017369334818795323 0.678260862827301 0.5137255191802979 0.3960784375667572 0.1921568661928177
0.3027093708515167 0.0011053213384002447 0.44426876306533813 0.6823529601097107 0.5568627715110779 0.35686275362968445
0.21625615656375885 0.13627032935619354 0.0063241105526685715 0.7215686440467834 0.7254902124404907 0.6627451181411743
0.3300492465496063 0.06537186354398727 0.1300395280122757 0.8980392217636108 0.8156862854957581 0.6392157077789307
0.3086206912994385 0.09047844260931015 0.9897233247756958 0.2823529541492462 0.2549019753932953 0.2235294133424759
0.12906403839588165 0.12032212316989899 0.00830039568245411 0.5607843399047852 0.5686274766921997 0.5137255191802979
0.17660097777843475 0.006316122133284807 0.2395256906747818 0.6431372761726379 0.4901960790157318 0.25882354378700256
0.12463054060935974 0.033791251480579376 0.008695651777088642 0.3176470696926117 0.3176470696926117 0.2705882489681244
0.13571429252624512 0.1321648508310318 0.9909090995788574 0.3176470696926117 0.3137255012989044 0.24313725531101227
0.3485221564769745 0.0006316122016869485 0.8173912763595581 0.5176470875740051 0.4156862795352936 0.27843138575553894
0.2266009896993637 0.005368703510612249 0.7490118741989136 0.615686297416687 0.5176470875740051 0.3960784375667572
0.35935959219932556 0.1147955134510994 0.006719367578625679 0.5843137502670288 0.6039215922355652 0.5254902243614197
0.3647783398628235 0.12237486243247986 0.0063241105526685715 0.6549019813537598 0.6509804129600525 0.5803921818733215
0.19975370168685913 0.06521395593881607 0.007509881630539894 0.5529412031173706 0.545098066329956 0.4627451002597809
0.2729063928127289 0.09411021322011948 0.007509881630539894 0.5058823823928833 0.48235294222831726 0.41960784792900085
0.14162561297416687 0.0862150639295578 0.1561264842748642 0.4156862795352936 0.4274509847164154 0.30588236451148987
0.3261083662509918 0.0007895152666606009 0.709486186504364 0.6078431606292725 0.5058823823928833 0.3686274588108063
0.2137930989265442 0.1004263386130333 0.006719367578625679 0.5921568870544434 0.6000000238418579 0.5137255191802979
0.2573891580104828 0.00236854562535882 0.18379446864128113 0.45490196347236633 0.29411765933036804 0.04313725605607033
0.2497536987066269 0.04405495151877403 0.033596839755773544 0.47843137383461 0.3450980484485626 0.16862745583057404
0.3600985109806061 0.1294804960489273 0.005928853526711464 0.729411780834198 0.7333333492279053 0.6705882549285889
0.2182265967130661 0.005842412821948528 0.343082994222641 0.6627451181411743 0.5098039507865906 0.27843138575553894
0.15788176655769348 0.009947892278432846 0.9893280863761902 0.12156862765550613 0.10196078568696976 0.08627451211214066
0.33571428060531616 0.0015790305333212018 0.20513834059238434 0.7450980544090271 0.5882353186607361 0.3450980484485626
0.1504926085472107 0.08953102678060532 0.9909090995788574 0.3803921639919281 0.3490196168422699 0.30588236451148987
0.2943349778652191 0.06268750876188278 0.00830039568245411 0.5568627715110779 0.5686274766921997 0.45490196347236633
0.31133005023002625 0.001263224403373897 0.32608696818351746 0.6823529601097107 0.529411792755127 0.3137255012989044
0.3342364430427551 0.0007895152666606009 0.7256916761398315 0.5921568870544434 0.4901960790157318 0.3450980484485626
0.21724137663841248 0.14163903892040253 0.991304337978363 0.29411765933036804 0.29411765933036804 0.2549019753932953
0.1472906470298767 0.006158218719065189 0.4415019750595093 0.6509804129600525 0.5058823823928833 0.3333333432674408
0.1862068921327591 0.005842412821948528 0.6992095112800598 0.6313725709915161 0.5254902243614197 0.40784314274787903
0.3502463102340698 0.0007895152666606009 0.5909090638160706 0.6392157077789307 0.5137255191802979 0.364705890417099
0.19556650519371033 0.006158218719065189 0.23122529685497284 0.6196078658103943 0.48235294222831726 0.26274511218070984
0.2588669955730438 0.0022106426768004894 0.6683794260025024 0.4000000059604645 0.32549020648002625 0.19607843458652496
0.1822660118341446 0.15269224345684052 0.006719367578625679 0.5215686559677124 0.5333333611488342 0.45098039507865906
0.24433498084545135 0.0773724913597107 0.006719367578625679 0.572549045085907 0.5764706134796143 0.5215686559677124
0.25 0.1492183804512024 0.0063241105526685715 0.7411764860153198 0.7333333492279053 0.6431372761726379
0.2662561535835266 0.11084794253110886 0.9901185631752014 0.29411765933036804 0.27450981736183167 0.250980406999588
0.14064039289951324 0.006000315770506859 0.11581027507781982 0.47058823704719543 0.34117648005485535 0.1725490242242813
0.13423645496368408 0.03868624567985535 0.1664031594991684 0.11372549086809158 0.12156862765550613 0.10196078568696976
0.1862068921327591 0.09616295248270035 0.007509881630539894 0.6313725709915161 0.6235294342041016 0.5254902243614197
0.13842365145683289 0.005368703510612249 0.05928853899240494 0.09019608050584793 0.0941176488995552 0.07058823853731155
0.28374382853507996 0.0007895152666606009 0.8786561489105225 0.43921568989753723 0.33725491166114807 0.2078431397676468
0.158620685338974 0.006316122133284807 0.17549407482147217 0.5803921818733215 0.45490196347236633 0.21568627655506134
0.185960590839386 0.005842412821948528 0.5197628736495972 0.6627451181411743 0.5529412031173706 0.3686274588108063
0.289901465177536 0.02068529836833477 0.05098814144730568 0.25882354378700256 0.1921568661928177 0.09019608050584793
0.3253694474697113 0.03237012401223183 0.9897233247756958 0.3137255012989044 0.27843138575553894 0.24313725531101227
0.19285714626312256 0.006158218719065189 0.2667984068393707 0.6549019813537598 0.49803921580314636 0.29411765933036804
0.18497537076473236 0.006158218719065189 0.35691699385643005 0.5960784554481506 0.45490196347236633 0.250980406999588
0.1470443308353424 0.006000315770506859 0.5762845873832703 0.6392157077789307 0.529411792755127 0.3764705955982208
0.3561576306819916 0.0006316122016869485 0.7988142371177673 0.529411792755127 0.4156862795352936 0.29019609093666077
0.27955666184425354 0.02589610032737255 0.0470355749130249 0.239215686917305 0.22745098173618317 0.20000000298023224
0.19950738549232483 0.005842412821948528 0.5387351512908936 0.6470588445663452 0.529411792755127 0.3333333432674408
0.13990147411823273 0.11890099197626114 0.00830039568245411 0.5176470875740051 0.5254902243614197 0.47058823704719543
0.19679802656173706 0.15269224345684052 0.9944664239883423 0.8705882430076599 0.8901960849761963 0.9058823585510254
0.3655172288417816 0.1520606279373169 0.005928853526711464 0.7019608020782471 0.6941176652908325 0.6352941393852234
0.14926108717918396 0.006316122133284807 0.2130434811115265 0.6039215922355652 0.45098039507865906 0.23529411852359772
0.3086206912994385 0.0007895152666606009 0.6743083000183105 0.6078431606292725 0.47843137383461 0.34117648005485535
0.3605911433696747 0.03300173580646515 0.048616599291563034 0.2980392277240753 0.29019609093666077 0.24313725531101227
0.24901477992534637 0.024790778756141663 0.07667984068393707 0.4313725531101227 0.30588236451148987 0.14509804546833038
0.32389163970947266 0.0862150639295578 0.007905138656497002 0.6705882549285889 0.6745098233222961 0.6196078658103943
0.26699507236480713 0.0007895152666606009 0.7577075362205505 0.5843137502670288 0.45490196347236633 0.3333333432674408
0.2266009896993637 0.12853308022022247 0.006719367578625679 0.6078431606292725 0.6039215922355652 0.5254902243614197
0.1633004993200302 0.006158218719065189 0.14505928754806519 0.6000000238418579 0.4627451002597809 0.20392157137393951
0.14753694832324982 0.006316122133284807 0.3015810251235962 0.6745098233222961 0.5411764979362488 0.3607843220233917
0.3342364430427551 0.0011053213384002447 0.3446640372276306 0.6784313917160034 0.5333333611488342 0.32549020648002625
0.205911323428154 0.009158376604318619 0.9865612387657166 0.13725490868091583 0.10588235408067703 0.0941176488995552
0.17684729397296906 0.006316122133284807 0.18616600334644318 0.5843137502670288 0.4431372582912445 0.20000000298023224
0.20492610335350037 0.006158218719065189 0.27391305565834045 0.686274528503418 0.5333333611488342 0.3176470696926117
0.27660098671913147 0.0633191242814064 0.9901185631752014 0.3176470696926117 0.29019609093666077 0.250980406999588
0.27216747403144836 0.06521395593881607 0.07707510143518448 0.239215686917305 0.21176470816135406 0.1725490242242813
0.277339905500412 0.0009474182734265924 0.5901185870170593 0.6509804129600525 0.5372549295425415 0.37254902720451355
0.12906403839588165 0.15411336719989777 0.9905138611793518 0.364705890417099 0.3490196168422699 0.3019607961177826
0.2736453115940094 0.08700457960367203 0.007509881630539894 0.6901960968971252 0.7019608020782471 0.6196078658103943
0.2729063928127289 0.08542554825544357 0.9901185631752014 0.2862745225429535 0.25882354378700256 0.22745098173618317
0.12561576068401337 0.006158218719065189 0.9569169878959656 0.27843138575553894 0.21568627655506134 0.125490203499794
0.25295567512512207 0.0034738669637590647 0.49723321199417114 0.47843137383461 0.3294117748737335 0.14509804546833038
0.35960590839385986 0.0009474182734265924 0.5027667880058289 0.6784313917160034 0.5490196347236633 0.3490196168422699
0.3416256010532379 0.0009474182734265924 0.45573121309280396 0.6666666865348816 0.5411764979362488 0.34117648005485535
0.13719211518764496 0.006000315770506859 0.679051399230957 0.6078431606292725 0.501960813999176 0.3843137323856354
0.14827586710453033 0.07516185194253922 0.14347825944423676 0.1921568661928177 0.18039216101169586 0.14509804546833038
0.23078817129135132 0.005684509873390198 0.7735177874565125 0.6000000238418579 0.5058823823928833 0.37254902720451355
0.3066502511501312 0.03331754356622696 0.072727270424366 0.24313725531101227 0.1921568661928177 0.12941177189350128
0.18546797335147858 0.09695246815681458 0.9909090995788574 0.364705890417099 0.33725491166114807 0.2980392277240753
0.3128078877925873 0.12126953899860382 0.9901185631752014 0.3294117748737335 0.3019607961177826 0.27843138575553894
0.3266009986400604 0.026843518018722534 0.9901185631752014 0.3137255012989044 0.2823529541492462 0.239215686917305
0.3499999940395355 0.0009474182734265924 0.41422924399375916 0.7019608020782471 0.5607843399047852 0.37254902720451355
0.30812808871269226 0.05921364203095436 0.13320158421993256 0.886274516582489 0.7921568751335144 0.6039215922355652
0.20935960114002228 0.00947418250143528 0.9901185631752014 0.13725490868091583 0.10588235408067703 0.0941176488995552
0.14901477098464966 0.0660034716129303 0.16837944090366364 0.12941177189350128 0.13725490868091583 0.13333334028720856
0.2504926025867462 0.05810832232236862 0.03754940629005432 0.48627451062202454 0.3607843220233917 0.12941177189350128
0.2509852349758148 0.12600663304328918 0.006719367578625679 0.6196078658103943 0.6313725709915161 0.5490196347236633
0.34334975481033325 0.01894836500287056 0.01976284570991993 0.2980392277240753 0.29019609093666077 0.24313725531101227
0.3337438404560089 0.1466919332742691 0.005928853526711464 0.5882353186607361 0.5803921818733215 0.529411792755127
0.31847289204597473 0.0014211274683475494 0.2818181812763214 0.6941176652908325 0.5529412031173706 0.364705890417099
0.14778324961662292 0.00552660645917058 0.0573122538626194 0.41960784792900085 0.3137255012989044 0.2078431397676468
0.32709360122680664 0.10405810922384262 0.9897233247756958 0.3137255012989044 0.2862745225429535 0.24705882370471954
0.34802955389022827 0.0009474182734265924 0.4529644250869751 0.6509804129600525 0.5176470875740051 0.33725491166114807
0.2697044312953949 0.0015790305333212018 0.24743083119392395 0.6941176652908325 0.5333333611488342 0.32156863808631897
0.12364532053470612 0.035212378948926926 0.9909090995788574 0.3686274588108063 0.3333333432674408 0.2666666805744171
0.3566502332687378 0.0009474182734265924 0.3584980368614197 0.6823529601097107 0.5215686559677124 0.3176470696926117
0.29581281542778015 0.0014211274683475494 0.29920947551727295 0.7137255072593689 0.545098066329956 0.3450980484485626
0.2620689570903778 0.1354808211326599 0.9909090995788574 0.3607843220233917 0.3450980484485626 0.3333333432674408
0.3682265877723694 0.0014211274683475494 0.9620553255081177 0.16862745583057404 0.12941177189350128 0.08235294371843338
0.289901465177536 0.09711037576198578 0.007509881630539894 0.6431372761726379 0.6352941393852234 0.5764706134796143
0.21625615656375885 0.00552660645917058 0.6715415120124817 0.6039215922355652 0.501960813999176 0.364705890417099
0.24359606206417084 0.00552660645917058 0.5300395488739014 0.6039215922355652 0.46666666865348816 0.3176470696926117
0.3682265877723694 0.0007895152666606009 0.5652173757553101 0.6431372761726379 0.5215686559677124 0.34117648005485535
0.1512315273284912 0.023211747407913208 0.011067193932831287 0.4627451002597809 0.42352941632270813 0.3764705955982208
0.2573891580104828 0.00236854562535882 0.18379446864128113 0.45490196347236633 0.29411765933036804 0.04313725605607033
0.12857143580913544 0.09268908947706223 0.18853755295276642 0.21568627655506134 0.23137255012989044 0.22745098173618317
0.19605910778045654 0.008526764810085297 0.9806324243545532 0.14901961386203766 0.10980392247438431 0.10196078568696976
0.2507389187812805 0.11337438970804214 0.9905138611793518 0.3176470696926117 0.29019609093666077 0.250980406999588
0.3142857253551483 0.09632086008787155 0.007509881630539894 0.5960784554481506 0.6039215922355652 0.5607843399047852
0.13325123488903046 0.11242696642875671 0.00830039568245411 0.5411764979362488 0.529411792755127 0.45490196347236633
0.12487684935331345 0.006000315770506859 0.8007904887199402 0.5490196347236633 0.45490196347236633 0.3450980484485626
0.2778325080871582 0.01957997865974903 0.15256917476654053 0.886274516582489 0.7647058963775635 0.5137255191802979
0.24753694236278534 0.00473709125071764 0.5960474014282227 0.6941176652908325 0.5764706134796143 0.4274509847164154
0.23891626298427582 0.14448128640651703 0.9916995763778687 0.24313725531101227 0.23529411852359772 0.24705882370471954
0.15714286267757416 0.006000315770506859 0.4948616623878479 0.6666666865348816 0.5333333611488342 0.35686275362968445
0.17758621275424957 0.04547607898712158 0.007905138656497002 0.529411792755127 0.5176470875740051 0.4431372582912445
0.2534482777118683 0.0660034716129303 0.9901185631752014 0.32549020648002625 0.29019609093666077 0.2549019753932953
0.28817734122276306 0.0014211274683475494 0.29446640610694885 0.6941176652908325 0.5333333611488342 0.32156863808631897
0.16428571939468384 0.13895468413829803 0.0071146246045827866 0.529411792755127 0.529411792755127 0.41960784792900085
0.3298029601573944 0.0007895152666606009 0.822529673576355 0.4431372582912445 0.3490196168422699 0.21568627655506134
0.306157648563385 0.05289752036333084 0.13636364042758942 0.9019607901573181 0.7921568751335144 0.6039215922355652
0.2586206793785095 0.0022106426768004894 0.2667984068393707 0.6313725709915161 0.48627451062202454 0.2823529541492462
0.18054187297821045 0.006000315770506859 0.11501976102590561 0.5843137502670288 0.4431372582912445 0.20000000298023224
0.15591132640838623 0.005842412821948528 0.7822134494781494 0.6470588445663452 0.5803921818733215 0.47058823704719543
0.18743842840194702 0.006158218719065189 0.31462451815605164 0.686274528503418 0.529411792755127 0.33725491166114807
0.24901477992534637 0.04247592017054558 0.02292490191757679 0.4156862795352936 0.32549020648002625 0.16078431904315948
0.20369458198547363 0.1062687486410141 0.9905138611793518 0.364705890417099 0.34117648005485535 0.29411765933036804
0.13743841648101807 0.09316279739141464 0.16403162479400635 0.10196078568696976 0.10588235408067703 0.05098039284348488
0.13374383747577667 0.006000315770506859 0.7648221254348755 0.5411764979362488 0.4588235318660736 0.3921568691730499
0.3364531993865967 0.14827096462249756 0.9905138611793518 0.32156863808631897 0.3019607961177826 0.27843138575553894
0.1667487621307373 0.13595452904701233 0.9909090995788574 0.3333333432674408 0.32156863808631897 0.26274511218070984
0.34359607100486755 0.11969050765037537 0.0063241105526685715 0.5098039507865906 0.5137255191802979 0.4588235318660736
0.13793103396892548 0.006158218719065189 0.4320158064365387 0.6352941393852234 0.4901960790157318 0.3137255012989044
0.20049260556697845 0.006316122133284807 0.18142291903495789 0.6313725709915161 0.5058823823928833 0.27450981736183167
0.286699503660202 0.08289910107851028 0.9901185631752014 0.32156863808631897 0.29411765933036804 0.26274511218070984
0.2019704431295395 0.02905416116118431 0.00909090880304575 0.5098039507865906 0.47843137383461 0.4274509847164154
0.1549261063337326 0.006316122133284807 0.18339921534061432 0.5960784554481506 0.45490196347236633 0.22745098173618317
0.28029558062553406 0.05352913215756416 0.07391304522752762 0.2666666805744171 0.21568627655506134 0.14901961386203766
0.3298029601573944 0.026211906224489212 0.00830039568245411 0.13333334028720856 0.11764705926179886 0.10588235408067703
0.17266009747982025 0.09868940711021423 0.9909090995788574 0.3764705955982208 0.3607843220233917 0.3137255012989044
0.3169950842857361 0.040107373148202896 0.08023715764284134 0.23529411852359772 0.18431372940540314 0.12156862765550613
0.2628078758716583 0.0017369334818795323 0.783399224281311 0.27450981736183167 0.18039216101169586 0.03921568766236305
0.2628078758716583 0.055897679179906845 0.13320158421993256 0.8941176533699036 0.7803921699523926 0.5529412031173706
0.20123152434825897 0.00931627955287695 0.9881423115730286 0.13333334028720856 0.10196078568696976 0.09019608050584793
0.3017241358757019 0.0011053213384002447 0.4411067068576813 0.6823529601097107 0.5490196347236633 0.3607843220233917
0.3463054299354553 0.0009474182734265924 0.4956521689891815 0.6549019813537598 0.5215686559677124 0.34117648005485535
0.16551724076271057 0.006158218719065189 0.9229248762130737 0.3490196168422699 0.26274511218070984 0.16862745583057404
0.26330047845840454 0.036949314177036285 0.9901185631752014 0.3333333432674408 0.2980392277240753 0.26274511218070984
0.19926108419895172 0.015000789426267147 0.010276679880917072 0.4274509847164154 0.42352941632270813 0.30588236451148987
0.3182266056537628 0.04073898494243622 0.9897233247756958 0.29411765933036804 0.25882354378700256 0.2235294133424759
0.27266010642051697 0.0011053213384002447 0.469960480928421 0.6784313917160034 0.5529412031173706 0.3686274588108063
0.14187191426753998 0.006158218719065189 0.3328063189983368 0.6431372761726379 0.48235294222831726 0.26274511218070984
0.2943349778652191 0.008684667758643627 0.9881423115730286 0.30980393290519714 0.2823529541492462 0.24313725531101227
0.22709359228610992 0.04942365363240242 0.9905138611793518 0.3450980484485626 0.3137255012989044 0.2705882489681244
0.35911330580711365 0.03789673000574112 0.9897233247756958 0.3333333432674408 0.3019607961177826 0.25882354378700256
0.158620685338974 0.005842412821948528 0.8371541500091553 0.5411764979362488 0.4470588266849518 0.33725491166114807
0.2460591197013855 0.011684825643897057 0.09841897338628769 0.22745098173618317 0.16470588743686676 0.06666667014360428
0.3403940796852112 0.03221222013235092 0.005533596966415644 0.11764705926179886 0.09803921729326248 0.08627451211214066
0.23916256427764893 0.006000315770506859 0.2656126618385315 0.6000000238418579 0.47058823704719543 0.26274511218070984
0.1788177341222763 0.006631928030401468 0.9328063130378723 0.3294117748737335 0.24705882370471954 0.13333334028720856
0.15295566618442535 0.06158218905329704 0.00830039568245411 0.47843137383461 0.45490196347236633 0.3921568691730499
0.1830049306154251 0.00552660645917058 0.03596837818622589 0.1725490242242813 0.1568627506494522 0.10980392247438431
0.3576354682445526 0.10216327011585236 0.9897233247756958 0.3529411852359772 0.32549020648002625 0.29411765933036804
0.23472906649112701 0.005842412821948528 0.30000001192092896 0.6509804129600525 0.4941176474094391 0.29019609093666077
0.2337438464164734 0.005684509873390198 0.417391300201416 0.658823549747467 0.5333333611488342 0.3490196168422699
0.19310344755649567 0.11842728406190872 0.006719367578625679 0.5137255191802979 0.5058823823928833 0.42352941632270813
0.3167487680912018 0.0007895152666606009 0.7181817889213562 0.5960784554481506 0.501960813999176 0.3607843220233917
0.28817734122276306 0.0017369334818795323 0.17905138432979584 0.7254902124404907 0.5490196347236633 0.32549020648002625
0.14408867061138153 0.07121427357196808 0.18853755295276642 0.1764705926179886 0.18431372940540314 0.18039216101169586
0.3411329984664917 0.1207958310842514 0.0063241105526685715 0.6039215922355652 0.6078431606292725 0.545098066329956
0.19285714626312256 0.006158218719065189 0.15494070947170258 0.6078431606292725 0.48627451062202454 0.23137255012989044
0.12512315809726715 0.006000315770506859 0.6537549495697021 0.5647059082984924 0.4588235318660736 0.3450980484485626
0.3258620798587799 0.04500236734747887 0.9897233247756958 0.33725491166114807 0.30980393290519714 0.2705882489681244
0.20394088327884674 0.006158218719065189 0.3019762933254242 0.686274528503418 0.5372549295425415 0.3450980484485626
0.35886698961257935 0.13042791187763214 0.005928853526711464 0.5960784554481506 0.6000000238418579 0.545098066329956
0.15541872382164001 0.041844308376312256 0.00830039568245411 0.5098039507865906 0.48627451062202454 0.4313725531101227
0.2864531874656677 0.12253276258707047 0.006719367578625679 0.6000000238418579 0.6000000238418579 0.5607843399047852
0.1467980295419693 0.00552660645917058 0.0470355749130249 0.45490196347236633 0.34117648005485535 0.18431372940540314
0.27216747403144836 0.0009474182734265924 0.5422924757003784 0.686274528503418 0.5607843399047852 0.3686274588108063
0.1741379350423813 0.005842412821948528 0.5845849514007568 0.6509804129600525 0.5372549295425415 0.364705890417099
0.2652709484100342 0.0014211274683475494 0.3083004057407379 0.6666666865348816 0.5098039507865906 0.30588236451148987
0.1628078818321228 0.12553292512893677 0.9909090995788574 0.3490196168422699 0.33725491166114807 0.2705882489681244
0.1549261063337326 0.006000315770506859 0.5909090638160706 0.6509804129600525 0.5372549295425415 0.37254902720451355
0.27931034564971924 0.0017369334818795323 0.18418972194194794 0.7254902124404907 0.5607843399047852 0.3333333432674408
0.3379310369491577 0.02131691202521324 0.038735177367925644 0.3019607961177826 0.2235294133424759 0.11764705926179886
0.2460591197013855 0.04768672212958336 0.12766797840595245 0.4156862795352936 0.3019607961177826 0.14509804546833038
0.23497536778450012 0.005842412821948528 0.37114623188972473 0.6196078658103943 0.4745098054409027 0.2666666805744171
0.3450738787651062 0.0015790305333212018 0.18853755295276642 0.7529411911964417 0.5960784554481506 0.364705890417099
0.3253694474697113 0.0015790305333212018 0.2035573124885559 0.7254902124404907 0.5568627715110779 0.34117648005485535
0.2568965554237366 0.10516343265771866 0.9901185631752014 0.3019607961177826 0.2862745225429535 0.250980406999588
0.13251231610774994 0.005210800562053919 0.04901185631752014 0.3960784375667572 0.2823529541492462 0.16470588743686676
0.20492610335350037 0.07010895013809204 0.9905138611793518 0.30980393290519714 0.29411765933036804 0.250980406999588
0.26822659373283386 0.0011053213384002447 0.4897233247756958 0.6705882549285889 0.545098066329956 0.3529411852359772
0.25541871786117554 0.0030001578852534294 0.43557313084602356 0.43921568989753723 0.32549020648002625 0.15294118225574493
0.1465517282485962 0.006000315770506859 0.8972331881523132 0.40392157435417175 0.32156863808631897 0.20000000298023224
0.18719211220741272 0.005842412821948528 0.6505928635597229 0.6549019813537598 0.5568627715110779 0.4000000059604645
0.3248768448829651 0.10721617192029953 0.9901185631752014 0.34117648005485535 0.3137255012989044 0.29019609093666077
0.1783251166343689 0.10232117772102356 0.9909090995788574 0.37254902720451355 0.35686275362968445 0.3137255012989044
0.27906402945518494 0.0720037892460823 0.1252964437007904 0.8980392217636108 0.7764706015586853 0.5254902243614197
0.2729063928127289 0.08416232466697693 0.9901185631752014 0.30588236451148987 0.27843138575553894 0.24705882370471954
0.2780788242816925 0.0007895152666606009 0.7098814249038696 0.615686297416687 0.48627451062202454 0.3490196168422699
0.29901477694511414 0.024317068979144096 0.14980237185955048 0.886274516582489 0.7529411911964417 0.5058823823928833
0.24408866465091705 0.04910784959793091 0.9905138611793518 0.32156863808631897 0.29019609093666077 0.24705882370471954
0.3280788064002991 0.0431075319647789 0.0833992063999176 0.2235294133424759 0.1725490242242813 0.10980392247438431
0.2098522186279297 0.06679298728704453 0.9905138611793518 0.32549020648002625 0.2980392277240753 0.25882354378700256
0.28029558062553406 0.09679456800222397 0.007509881630539894 0.6980392336845398 0.6901960968971252 0.6313725709915161
0.2216748744249344 0.026843518018722534 0.9905138611793518 0.3490196168422699 0.32549020648002625 0.27843138575553894
0.2507389187812805 0.038054633885622025 0.9901185631752014 0.3607843220233917 0.3294117748737335 0.2862745225429535
0.1583743840456009 0.04168640449643135 0.9909090995788574 0.3529411852359772 0.34117648005485535 0.2823529541492462
0.25197044014930725 0.003631770145148039 0.4071146249771118 0.46666666865348816 0.3490196168422699 0.20000000298023224
0.2610837519168854 0.12569083273410797 0.006719367578625679 0.615686297416687 0.6117647290229797 0.529411792755127
0.1780788153409958 0.006000315770506859 0.4640316069126129 0.6196078658103943 0.49803921580314636 0.3137255012989044
0.12906403839588165 0.10232117772102356 0.008695651777088642 0.5333333611488342 0.5372549295425415 0.4745098054409027
0.3463054299354553 0.02210642583668232 0.02806324139237404 0.2980392277240753 0.29019609093666077 0.24313725531101227
0.19605910778045654 0.006000315770506859 0.1094861626625061 0.5882353186607361 0.46666666865348816 0.21176470816135406
0.23275862634181976 0.005684509873390198 0.10158102959394455 0.4745098054409027 0.37254902720451355 0.1725490242242813
0.3406403958797455 0.08968893438577652 0.007509881630539894 0.49803921580314636 0.501960813999176 0.4470588266849518
0.31921181082725525 0.020527396351099014 0.015810277312994003 0.1568627506494522 0.1411764770746231 0.12941177189350128
0.14433497190475464 0.006158218719065189 0.13794466853141785 0.4941176474094391 0.37254902720451355 0.1921568661928177
0.336699515581131 0.05921364203095436 0.008695651777088642 0.501960813999176 0.5058823823928833 0.43529412150382996
0.36674878001213074 0.05526606738567352 0.9893280863761902 0.3529411852359772 0.3176470696926117 0.2823529541492462
0.35394087433815 0.0007895152666606009 0.6786561012268066 0.6117647290229797 0.5058823823928833 0.38823530077934265
0.12931033968925476 0.09411021322011948 0.9909090995788574 0.3019607961177826 0.27450981736183167 0.23529411852359772
0.3012315332889557 0.0007895152666606009 0.8940711617469788 0.4156862795352936 0.3176470696926117 0.19607843458652496
0.3305418789386749 0.0007895152666606009 0.7221344113349915 0.5921568870544434 0.47843137383461 0.3450980484485626
0.29532018303871155 0.01089530996978283 0.9901185631752014 0.2823529541492462 0.2666666805744171 0.21960784494876862
0.13325123488903046 0.006000315770506859 0.8873517513275146 0.4000000059604645 0.30588236451148987 0.19607843458652496
0.2655172348022461 0.0007895152666606009 0.8359683752059937 0.46666666865348816 0.35686275362968445 0.21176470816135406
0.3044334948062897 0.03931785747408867 0.14268775284290314 0.9019607901573181 0.7803921699523926 0.5568627715110779
0.26034483313560486 0.0017369334818795323 0.28814229369163513 0.6549019813537598 0.4901960790157318 0.29411765933036804
0.23596058785915375 0.005684509873390198 0.49209487438201904 0.6549019813537598 0.5254902243614197 0.35686275362968445
0.3088670074939728 0.02763303369283676 0.14822134375572205 0.8941176533699036 0.7607843279838562 0.5137255191802979
0.33103448152542114 0.0014211274683475494 0.26837944984436035 0.7098039388656616 0.5568627715110779 0.34117648005485535
0.16502462327480316 0.006158218719065189 0.29011857509613037 0.6823529601097107 0.5333333611488342 0.3490196168422699
0.2460591197013855 0.005684509873390198 0.761660099029541 0.6235294342041016 0.5098039507865906 0.3921568691730499
0.17931035161018372 0.1320069432258606 0.9909090995788574 0.33725491166114807 0.3137255012989044 0.250980406999588
0.3266009986400604 0.03631770238280296 0.07747035473585129 0.21176470816135406 0.18039216101169586 0.13725490868091583
0.31527093052864075 0.055581871420145035 0.9897233247756958 0.32156863808631897 0.29411765933036804 0.26274511218070984
0.2896551787853241 0.01926417089998722 0.038735177367925644 0.2980392277240753 0.21568627655506134 0.10980392247438431
0.20098522305488586 0.1549028903245926 0.0063241105526685715 0.5843137502670288 0.5803921818733215 0.49803921580314636
0.30320197343826294 0.13453339040279388 0.005928853526711464 0.5921568870544434 0.5843137502670288 0.5333333611488342
0.34433498978614807 0.1408495157957077 0.9905138611793518 0.30980393290519714 0.2980392277240753 0.27843138575553894
0.3283251225948334 0.021159008145332336 0.014229249209165573 0.12941177189350128 0.125490203499794 0.11764705926179886
0.2785714268684387 0.058739934116601944 0.9901185631752014 0.32156863808631897 0.2980392277240753 0.250980406999588
0.23251231014728546 0.006631928030401468 0.8399209380149841 0.4745098054409027 0.3843137323856354 0.26274511218070984
