0.9467980265617371 0.8462024331092834 0.9893280863761902 0.41960784792900085 0.3843137323856354 0.3490196168422699
0.9458128213882446 0.8116216659545898 0.09011857956647873 0.20392157137393951 0.21568627655506134 0.24313725531101227
0.7798029780387878 0.9467867016792297 0.08458498120307922 0.38823530077934265 0.2823529541492462 0.16862745583057404
0.7805418968200684 0.9141007661819458 0.0071146246045827866 0.3019607961177826 0.2705882489681244 0.21960784494876862
0.9820197224617004 0.8258329629898071 0.36798417568206787 0.7450980544090271 0.7098039388656616 0.6745098233222961
0.7972906231880188 0.8503078818321228 0.9889327883720398 0.23137255012989044 0.21960784494876862 0.1921568661928177
0.7938423752784729 0.9197852611541748 0.2924901247024536 0.19607843458652496 0.21568627655506134 0.1882352977991104
0.9746305346488953 0.935575544834137 0.9857707619667053 0.3294117748737335 0.2980392277240753 0.2078431397676468
0.8100985288619995 0.9174166917800903 0.14743083715438843 0.12156862765550613 0.11764705926179886 0.10196078568696976
0.9586206674575806 0.8192009925842285 0.07667984068393707 0.25882354378700256 0.2705882489681244 0.30588236451148987
0.9820197224617004 0.83814936876297 0.5043478012084961 0.19607843458652496 0.1882352977991104 0.1921568661928177
0.9165024757385254 0.9379441142082214 0.0063241105526685715 0.5333333611488342 0.5058823823928833 0.3960784375667572
0.9199507236480713 0.8034107089042664 0.9889327883720398 0.42352941632270813 0.3960784375667572 0.35686275362968445
0.8403940796852112 0.8136743903160095 0.006719367578625679 0.30588236451148987 0.30588236451148987 0.25882354378700256
0.8179802894592285 0.9036791324615479 0.0063241105526685715 0.43529412150382996 0.41960784792900085 0.3764705955982208
0.871921181678772 0.8428864479064941 0.006719367578625679 0.2980392277240753 0.3019607961177826 0.27843138575553894
0.9822660088539124 0.8348333835601807 0.12134387344121933 0.062745101749897 0.07058823853731155 0.05882352963089943
0.8435960412025452 0.8531501889228821 0.9881423115730286 0.27843138575553894 0.26274511218070984 0.22745098173618317
0.9817733764648438 0.8236222863197327 0.2292490154504776 0.6627451181411743 0.6705882549285889 0.615686297416687
0.7894088625907898 0.9305226802825928 0.24584980309009552 0.11764705926179886 0.11764705926179886 0.11764705926179886
0.7788177132606506 0.8255171179771423 0.006719367578625679 0.30588236451148987 0.2980392277240753 0.239215686917305
0.7731527090072632 0.9464708566665649 0.4320158064365387 0.3137255012989044 0.34117648005485535 0.2705882489681244
0.982758641242981 0.8234643936157227 0.4316205680370331 0.7803921699523926 0.7490196228027344 0.6980392336845398
0.9807881712913513 0.8370440602302551 0.44031620025634766 0.16470588743686676 0.1568627506494522 0.16078431904315948
0.9834975600242615 0.8376756906509399 0.5494071245193481 0.1921568661928177 0.1882352977991104 0.18039216101169586
0.7881773114204407 0.8518869280815125 0.9893280863761902 0.32156863808631897 0.30980393290519714 0.2823529541492462
0.8165024518966675 0.885994017124176 0.0063241105526685715 0.545098066329956 0.5333333611488342 0.4588235318660736
0.7916256189346313 0.843675971031189 0.006719367578625679 0.48627451062202454 0.47843137383461 0.4274509847164154
0.9448275566101074 0.9464708566665649 0.0071146246045827866 0.6549019813537598 0.6352941393852234 0.5568627715110779
0.7583743929862976 0.8834675550460815 0.9889327883720398 0.4470588266849518 0.4313725531101227 0.3960784375667572
0.8362069129943848 0.9398389458656311 0.9885375499725342 0.46666666865348816 0.43921568989753723 0.364705890417099
0.7965517044067383 0.8569398522377014 0.9889327883720398 0.2666666805744171 0.250980406999588 0.21568627655506134
0.8165024518966675 0.8300963044166565 0.9893280863761902 0.32156863808631897 0.29019609093666077 0.27843138575553894
0.947044312953949 0.7956734299659729 0.09960474073886871 0.03529411926865578 0.03529411926865578 0.07450980693101883
0.7763546705245972 0.8141481280326843 0.006719367578625679 0.364705890417099 0.364705890417099 0.3176470696926117
0.9849753975868225 0.8455708026885986 0.9292489886283875 0.4745098054409027 0.4470588266849518 0.3764705955982208
0.9049261212348938 0.8768356442451477 0.005928853526711464 0.4745098054409027 0.46666666865348816 0.4156862795352936
0.9709359407424927 0.8188852071762085 0.11304347962141037 0.062745101749897 0.09019608050584793 0.062745101749897
0.8243842124938965 0.8942049741744995 0.9889327883720398 0.21960784494876862 0.2078431397676468 0.14901961386203766
0.8160098791122437 0.8392546772956848 0.006719367578625679 0.43921568989753723 0.4470588266849518 0.40392157435417175
0.7504926323890686 0.8042002320289612 0.991304337978363 0.8274509906768799 0.8274509906768799 0.7960784435272217
0.748275876045227 0.821569561958313 0.9909090995788574 0.43529412150382996 0.4313725531101227 0.4117647111415863
0.9635468125343323 0.8196747303009033 0.012252964079380035 0.4431372582912445 0.46666666865348816 0.5137255191802979
0.9073891639709473 0.7980419993400574 0.9885375499725342 0.4313725531101227 0.4156862795352936 0.37254902720451355
0.9810344576835632 0.821411669254303 0.24347825348377228 0.7058823704719543 0.7098039388656616 0.6470588445663452
0.8768472671508789 0.827569842338562 0.006719367578625679 0.37254902720451355 0.3803921639919281 0.33725491166114807
0.9839901328086853 0.8193588852882385 0.477865606546402 0.7019608020782471 0.6901960968971252 0.6313725709915161
0.8955665230751038 0.9433128237724304 0.9889327883720398 0.4431372582912445 0.4117647111415863 0.3294117748737335
0.7445812821388245 0.9441023468971252 0.30474308133125305 0.25882354378700256 0.27450981736183167 0.2705882489681244
0.9041872024536133 0.8852044939994812 0.9889327883720398 0.3294117748737335 0.3019607961177826 0.23137255012989044
0.7701970338821411 0.8912047743797302 0.006719367578625679 0.23137255012989044 0.2235294133424759 0.1725490242242813
0.8773398995399475 0.8574135303497314 0.0063241105526685715 0.37254902720451355 0.37254902720451355 0.32549020648002625
0.7684729099273682 0.9453655481338501 0.022529644891619682 0.3333333432674408 0.29019609093666077 0.20392157137393951
0.8160098791122437 0.8207800388336182 0.9897233247756958 0.37254902720451355 0.3686274588108063 0.3490196168422699
0.9024630784988403 0.8638875484466553 0.9885375499725342 0.3960784375667572 0.37254902720451355 0.3176470696926117
0.9214285612106323 0.8086215257644653 0.9889327883720398 0.43529412150382996 0.4274509847164154 0.3803921639919281
0.9839901328086853 0.8095689415931702 0.31976285576820374 0.6901960968971252 0.6941176652908325 0.6392157077789307
0.9408866763114929 0.7898310422897339 0.07075098901987076 0.10196078568696976 0.1921568661928177 0.8823529481887817
0.7899014949798584 0.8997315764427185 0.0063241105526685715 0.23529411852359772 0.21960784494876862 0.1764705926179886
0.9837438464164734 0.8228327631950378 0.6620553135871887 0.7647058963775635 0.7411764860153198 0.686274528503418
0.7758620977401733 0.9469445943832397 0.7075098752975464 0.615686297416687 0.4431372582912445 0.33725491166114807
0.928078830242157 0.8700457811355591 0.005928853526711464 0.43921568989753723 0.4431372582912445 0.37254902720451355
0.9815270900726318 0.8619927167892456 0.005533596966415644 0.5568627715110779 0.6000000238418579 0.5686274766921997
0.7906404137611389 0.9474182724952698 0.3292490243911743 0.729411780834198 0.45490196347236633 0.21176470816135406
0.8770936131477356 0.9351018667221069 0.0063241105526685715 0.5921568870544434 0.5372549295425415 0.43529412150382996
0.9041872024536133 0.9215222001075745 0.005928853526711464 0.6470588445663452 0.6078431606292725 0.501960813999176
0.7652709484100342 0.9458392262458801 0.3636363744735718 0.5960784554481506 0.48627451062202454 0.40392157435417175
0.7502462863922119 0.8563082218170166 0.9897233247756958 0.4313725531101227 0.41960784792900085 0.4000000059604645
0.9817733764648438 0.8248855471611023 0.3011857569217682 0.658823549747467 0.6509804129600525 0.6000000238418579
0.9837438464164734 0.821253776550293 0.6007905006408691 0.7843137383460999 0.7882353067398071 0.7686274647712708
0.9817733764648438 0.8247275948524475 0.29881423711776733 0.6627451181411743 0.6549019813537598 0.6039215922355652
0.9849753975868225 0.8686246871948242 0.9418972134590149 0.45490196347236633 0.41960784792900085 0.3529411852359772
0.7445812821388245 0.8582030534744263 0.12806324660778046 0.20392157137393951 0.1921568661928177 0.13333334028720856
0.8842364549636841 0.8987841606140137 0.005928853526711464 0.5254902243614197 0.4941176474094391 0.40392157435417175
0.8411329984664917 0.8150955438613892 0.9889327883720398 0.42352941632270813 0.4117647111415863 0.3843137323856354
0.9812808036804199 0.8346754908561707 0.5241106748580933 0.20392157137393951 0.21176470816135406 0.2078431397676468
0.8142856955528259 0.8135164976119995 0.006719367578625679 0.3529411852359772 0.3607843220233917 0.3176470696926117
0.9172413945198059 0.9014685153961182 0.9893280863761902 0.40392157435417175 0.3607843220233917 0.29019609093666077
0.7709359526634216 0.9346281290054321 0.17786560952663422 0.22745098173618317 0.24705882370471954 0.23137255012989044
0.9849753975868225 0.8717827200889587 0.9063240885734558 0.47843137383461 0.45098039507865906 0.3803921639919281
0.9825122952461243 0.8188852071762085 0.30039525032043457 0.6784313917160034 0.6705882549285889 0.6196078658103943
0.9583743810653687 0.9014685153961182 0.005533596966415644 0.46666666865348816 0.4588235318660736 0.3764705955982208
0.9293103218078613 0.9322596192359924 0.0063241105526685715 0.6078431606292725 0.6000000238418579 0.501960813999176
0.8275862336158752 0.7933049201965332 0.0063241105526685715 0.40784314274787903 0.40784314274787903 0.3137255012989044
0.793596088886261 0.8831517696380615 0.16996046900749207 0.21568627655506134 0.2235294133424759 0.21960784494876862
0.74064040184021 0.8499920964241028 0.0071146246045827866 0.38823530077934265 0.40784314274787903 0.3843137323856354
0.7426108121871948 0.804831862449646 0.006719367578625679 0.26274511218070984 0.250980406999588 0.21568627655506134
0.8492611050605774 0.9305226802825928 0.9885375499725342 0.38823530077934265 0.3529411852359772 0.2862745225429535
0.7832512259483337 0.9472603797912598 0.36284583806991577 0.7607843279838562 0.5058823823928833 0.2549019753932953
0.7844827771186829 0.9098373651504517 0.17430830001831055 0.27450981736183167 0.2980392277240753 0.29019609093666077
0.8820196986198425 0.832149088382721 0.006719367578625679 0.34117648005485535 0.33725491166114807 0.3176470696926117
0.8270936012268066 0.9153639674186707 0.9889327883720398 0.4313725531101227 0.40392157435417175 0.3333333432674408
0.7571428418159485 0.8983104228973389 0.9885375499725342 0.42352941632270813 0.4117647111415863 0.3529411852359772
0.748275876045227 0.8600978851318359 0.16284584999084473 0.1725490242242813 0.18039216101169586 0.16862745583057404
0.75935959815979 0.9264171719551086 0.2494071125984192 0.18431372940540314 0.1921568661928177 0.1882352977991104
0.8509852290153503 0.811147928237915 0.9885375499725342 0.43921568989753723 0.4117647111415863 0.3803921639919281
0.8573891520500183 0.9417337775230408 0.9885375499725342 0.45098039507865906 0.41960784792900085 0.3450980484485626
0.9812808036804199 0.816516637802124 0.23241107165813446 0.7215686440467834 0.7176470756530762 0.6470588445663452
0.8243842124938965 0.8942049741744995 0.9889327883720398 0.21960784494876862 0.2078431397676468 0.14901961386203766
0.8423645496368408 0.7964629530906677 0.0063241105526685715 0.43529412150382996 0.4431372582912445 0.3607843220233917
0.7871921062469482 0.9474182724952698 0.033596839755773544 0.3333333432674408 0.24705882370471954 0.15294118225574493
0.945320188999176 0.816042959690094 0.0071146246045827866 0.40392157435417175 0.4431372582912445 0.4117647111415863
0.7652709484100342 0.9118900895118713 0.17075099050998688 0.24313725531101227 0.25882354378700256 0.2549019753932953
0.796798050403595 0.8413074612617493 0.9893280863761902 0.24705882370471954 0.23529411852359772 0.2078431397676468
0.8945812582969666 0.8814148306846619 0.9889327883720398 0.2549019753932953 0.2235294133424759 0.1725490242242813
0.7852216958999634 0.8225169777870178 0.006719367578625679 0.37254902720451355 0.3843137323856354 0.34117648005485535
0.9849753975868225 0.8760461211204529 0.9177865386009216 0.47843137383461 0.43529412150382996 0.364705890417099
0.9830049276351929 0.8250434398651123 0.5169960260391235 0.7490196228027344 0.7137255072593689 0.6784313917160034
0.7896551489830017 0.9447339177131653 0.9881423115730286 0.3607843220233917 0.34117648005485535 0.2666666805744171
0.7928571701049805 0.805305540561676 0.9905138611793518 0.43529412150382996 0.43529412150382996 0.40392157435417175
0.7477832436561584 0.8978367447853088 0.17470355331897736 0.24313725531101227 0.2666666805744171 0.25882354378700256
0.7879310250282288 0.8289909958839417 0.006719367578625679 0.45098039507865906 0.4470588266849518 0.3764705955982208
0.8214285969734192 0.8188852071762085 0.9893280863761902 0.364705890417099 0.3607843220233917 0.3450980484485626
0.9768472909927368 0.8090952038764954 0.10671936720609665 0.0470588244497776 0.05098039284348488 0.06666667014360428
0.9288177490234375 0.8233065009117126 0.9889327883720398 0.41960784792900085 0.3921568691730499 0.3607843220233917
0.7790640592575073 0.8305700421333313 0.9901185631752014 0.3450980484485626 0.32549020648002625 0.30980393290519714
0.9852216839790344 0.8763619065284729 0.8833991885185242 0.48627451062202454 0.4588235318660736 0.3960784375667572
0.9418719410896301 0.7966208457946777 0.08023715764284134 0.20000000298023224 0.2549019753932953 0.5490196347236633
0.9625615477561951 0.821569561958313 0.054940711706876755 0.35686275362968445 0.3764705955982208 0.4000000059604645
0.748275876045227 0.9218379855155945 0.17549407482147217 0.22745098173618317 0.24705882370471954 0.2235294133424759
0.7600985169410706 0.8818885087966919 0.0071146246045827866 0.501960813999176 0.501960813999176 0.45490196347236633
0.856157660484314 0.8553608059883118 0.006719367578625679 0.25882354378700256 0.25882354378700256 0.22745098173618317
0.9830049276351929 0.8193588852882385 0.17826086282730103 0.8156862854957581 0.8078431487083435 0.7254902124404907
0.9056650400161743 0.9003631472587585 0.005928853526711464 0.5882353186607361 0.5607843399047852 0.4588235318660736
0.8896551728248596 0.8278856873512268 0.006719367578625679 0.42352941632270813 0.43529412150382996 0.3607843220233917
0.940640389919281 0.7920416593551636 0.050197627395391464 0.07058823853731155 0.16862745583057404 0.6666666865348816
0.8349753618240356 0.7921996116638184 0.0063241105526685715 0.5529412031173706 0.5490196347236633 0.47843137383461
0.8413792848587036 0.8987841606140137 0.9889327883720398 0.24705882370471954 0.23529411852359772 0.16862745583057404
0.7613300681114197 0.9469445943832397 0.3324110805988312 0.5921568870544434 0.4901960790157318 0.3843137323856354
0.8793103694915771 0.8119374513626099 0.0063241105526685715 0.4000000059604645 0.40784314274787903 0.35686275362968445
0.800000011920929 0.811147928237915 0.9901185631752014 0.43921568989753723 0.43921568989753723 0.40784314274787903
0.9049261212348938 0.9145744442939758 0.9893280863761902 0.3843137323856354 0.3490196168422699 0.2823529541492462
0.9849753975868225 0.8092530965805054 0.9328063130378723 0.48627451062202454 0.4627451002597809 0.4156862795352936
0.9849753975868225 0.8738354444503784 0.8822134137153625 0.4901960790157318 0.4627451002597809 0.4000000059604645
0.9426108598709106 0.8035686016082764 0.05415019765496254 0.18039216101169586 0.19607843458652496 0.20000000298023224
0.9820197224617004 0.799463152885437 0.2853755056858063 0.7529411911964417 0.7490196228027344 0.6784313917160034
0.8431034684181213 0.907784640789032 0.9889327883720398 0.3843137323856354 0.364705890417099 0.2862745225429535
0.9820197224617004 0.7991473078727722 0.18418972194194794 0.7647058963775635 0.7686274647712708 0.6980392336845398
0.7448275685310364 0.8059371709823608 0.006719367578625679 0.3764705955982208 0.3764705955982208 0.3294117748737335
0.9694581031799316 0.9033633470535278 0.9897233247756958 0.33725491166114807 0.3137255012989044 0.22745098173618317
0.8453202247619629 0.8468340635299683 0.9881423115730286 0.25882354378700256 0.24313725531101227 0.2078431397676468
0.9849753975868225 0.8097268342971802 0.42885375022888184 0.772549033164978 0.7568627595901489 0.7098039388656616
0.8147783279418945 0.8263066411018372 0.006719367578625679 0.33725491166114807 0.33725491166114807 0.30588236451148987
0.851477861404419 0.8894678950309753 0.9889327883720398 0.2705882489681244 0.24705882370471954 0.1921568661928177
0.807881772518158 0.8537817597389221 0.9889327883720398 0.2549019753932953 0.23529411852359772 0.21176470816135406
0.823645293712616 0.8589925765991211 0.9881423115730286 0.2549019753932953 0.239215686917305 0.20392157137393951
0.8041871786117554 0.8618348240852356 0.006719367578625679 0.4588235318660736 0.45490196347236633 0.3843137323856354
0.9539408683776855 0.9463129639625549 0.007509881630539894 0.686274528503418 0.6666666865348816 0.5882353186607361
0.7948275804519653 0.8877309560775757 0.18063241243362427 0.2980392277240753 0.3333333432674408 0.3137255012989044
0.8677340149879456 0.891520619392395 0.9889327883720398 0.27450981736183167 0.250980406999588 0.19607843458652496
0.748522162437439 0.8034107089042664 0.991304337978363 0.8313725590705872 0.8274509906768799 0.8078431487083435
0.9674876928329468 0.9279962182044983 0.9897233247756958 0.23137255012989044 0.2078431397676468 0.11372549086809158
0.8083744049072266 0.9253118634223938 0.29328063130378723 0.21960784494876862 0.23137255012989044 0.250980406999588
0.7660098671913147 0.799936830997467 0.991304337978363 0.45098039507865906 0.45490196347236633 0.43529412150382996
0.8982758522033691 0.8444654941558838 0.9885375499725342 0.27450981736183167 0.250980406999588 0.20392157137393951
0.9820197224617004 0.8307279348373413 0.5928853750228882 0.5254902243614197 0.5058823823928833 0.529411792755127
0.982758641242981 0.7914100885391235 0.6664031744003296 0.6745098233222961 0.6627451181411743 0.6352941393852234
0.8450738787651062 0.8522027730941772 0.9881423115730286 0.25882354378700256 0.24313725531101227 0.2078431397676468
0.8817734122276306 0.8889941573143005 0.9889327883720398 0.26274511218070984 0.23137255012989044 0.1882352977991104
0.8073891401290894 0.9316279888153076 0.007509881630539894 0.3176470696926117 0.29411765933036804 0.239215686917305
0.9219211935997009 0.8626243472099304 0.9889327883720398 0.4156862795352936 0.3843137323856354 0.34117648005485535
0.9056650400161743 0.8842570781707764 0.005928853526711464 0.6039215922355652 0.5607843399047852 0.4901960790157318
0.915517270565033 0.8342018127441406 0.0063241105526685715 0.5137255191802979 0.5333333611488342 0.5176470875740051
0.9036945700645447 0.9369966983795166 0.0063241105526685715 0.5568627715110779 0.529411792755127 0.4274509847164154
0.9849753975868225 0.8372019529342651 0.7083004117012024 0.3019607961177826 0.3019607961177826 0.3019607961177826
0.9692118167877197 0.8694141507148743 0.005533596966415644 0.45490196347236633 0.47843137383461 0.4313725531101227
0.8546798229217529 0.8479393720626831 0.006719367578625679 0.2823529541492462 0.2705882489681244 0.250980406999588
0.7948275804519653 0.8681509494781494 0.9885375499725342 0.2549019753932953 0.239215686917305 0.20392157137393951
0.9140394330024719 0.8484130501747131 0.9889327883720398 0.43529412150382996 0.4000000059604645 0.364705890417099
0.7783251404762268 0.9373124837875366 0.3079051375389099 0.24313725531101227 0.25882354378700256 0.26274511218070984
0.8645319938659668 0.7917258739471436 0.9885375499725342 0.43921568989753723 0.4313725531101227 0.3843137323856354
0.9160098433494568 0.8259908556938171 0.006719367578625679 0.43921568989753723 0.4470588266849518 0.4274509847164154
0.7820196747779846 0.9474182724952698 0.6671936511993408 0.6000000238418579 0.45098039507865906 0.3607843220233917
0.9733990430831909 0.8289909958839417 0.08577074855566025 0.16862745583057404 0.16862745583057404 0.21568627655506134
0.8448275923728943 0.9256276488304138 0.0063241105526685715 0.529411792755127 0.4745098054409027 0.32156863808631897
0.7820196747779846 0.9469445943832397 0.032015811651945114 0.3137255012989044 0.23137255012989044 0.14901961386203766
0.796798050403595 0.8130428194999695 0.9901185631752014 0.43529412150382996 0.42352941632270813 0.3960784375667572
0.9802955389022827 0.832149088382721 0.0940711498260498 0.4627451002597809 0.45490196347236633 0.4588235318660736
0.9834975600242615 0.8850466012954712 0.9731225371360779 0.38823530077934265 0.35686275362968445 0.27450981736183167
0.9812808036804199 0.832464873790741 0.4264822006225586 0.1764705926179886 0.16470588743686676 0.2078431397676468
0.7504926323890686 0.9338386058807373 0.00909090880304575 0.43529412150382996 0.38823530077934265 0.2862745225429535
0.7798029780387878 0.7972524762153625 0.9909090995788574 0.46666666865348816 0.4627451002597809 0.45490196347236633
0.9689655303955078 0.9057318568229675 0.005533596966415644 0.5254902243614197 0.5176470875740051 0.41960784792900085
0.7832512259483337 0.9471024870872498 0.3501976430416107 0.7607843279838562 0.4901960790157318 0.22745098173618317
0.9815270900726318 0.8021475076675415 0.2454545497894287 0.7411764860153198 0.7372549176216125 0.6666666865348816
0.8302955627441406 0.8338859677314758 0.006719367578625679 0.27450981736183167 0.27450981736183167 0.23529411852359772
0.9844827651977539 0.8229906558990479 0.7549406886100769 0.5764706134796143 0.5686274766921997 0.47843137383461
0.9413793087005615 0.7948839664459229 0.04545454680919647 0.2862745225429535 0.3176470696926117 0.8392156958580017
0.9834975600242615 0.8144639134407043 0.37154150009155273 0.7647058963775635 0.7568627595901489 0.7058823704719543
0.7581281065940857 0.9308384656906128 0.21027667820453644 0.6078431606292725 0.6000000238418579 0.5490196347236633
0.742118239402771 0.8100426197052002 0.006719367578625679 0.27843138575553894 0.27843138575553894 0.24705882370471954
0.74064040184021 0.9341544508934021 0.22648221254348755 0.16078431904315948 0.16862745583057404 0.16470588743686676
0.9839901328086853 0.8356229066848755 0.7960474491119385 0.3333333432674408 0.34117648005485535 0.3294117748737335
0.7620689868927002 0.8444654941558838 0.9901185631752014 0.3764705955982208 0.364705890417099 0.3450980484485626
0.7573891878128052 0.799463152885437 0.991304337978363 0.501960813999176 0.4941176474094391 0.49803921580314636
0.7573891878128052 0.9336807131767273 0.00909090880304575 0.4274509847164154 0.3960784375667572 0.30588236451148987
0.8059113025665283 0.9115743041038513 0.17865613102912903 0.3176470696926117 0.3450980484485626 0.3137255012989044
0.8610837459564209 0.7918837666511536 0.0063241105526685715 0.4274509847164154 0.4313725531101227 0.3607843220233917
0.9679803252220154 0.9163113832473755 0.005533596966415644 0.545098066329956 0.5372549295425415 0.45490196347236633
0.746798038482666 0.940944254398346 0.9881423115730286 0.47058823704719543 0.4588235318660736 0.3921568691730499
0.9701970219612122 0.8013579845428467 0.08498023450374603 0.13333334028720856 0.13333334028720856 0.16470588743686676
0.75 0.8019895553588867 0.991304337978363 0.8352941274642944 0.8352941274642944 0.8039215803146362
0.9839901328086853 0.810516357421875 0.3703557252883911 0.7647058963775635 0.7568627595901489 0.7098039388656616
0.7913793325424194 0.8357808589935303 0.006719367578625679 0.47843137383461 0.47058823704719543 0.42352941632270813
0.88768470287323 0.8905732035636902 0.9893280863761902 0.24313725531101227 0.21568627655506134 0.15294118225574493
0.9571428298950195 0.8785725831985474 0.9897233247756958 0.3686274588108063 0.34117648005485535 0.27843138575553894
0.7733989953994751 0.9472603797912598 0.8332015872001648 0.45098039507865906 0.2862745225429535 0.13725490868091583
0.947044312953949 0.8987841606140137 0.005533596966415644 0.48627451062202454 0.4941176474094391 0.4117647111415863
0.8197044134140015 0.8420969247817993 0.006719367578625679 0.2666666805744171 0.25882354378700256 0.21176470816135406
0.7869458198547363 0.9474182724952698 0.06205533444881439 0.3607843220233917 0.2549019753932953 0.14901961386203766
0.874876856803894 0.9278383255004883 0.9889327883720398 0.38823530077934265 0.3607843220233917 0.29019609093666077
0.9830049276351929 0.8168324828147888 0.34664031863212585 0.7019608020782471 0.686274528503418 0.6431372761726379
0.9157635569572449 0.8900994658470154 0.005928853526711464 0.4588235318660736 0.4431372582912445 0.3450980484485626
0.8115763664245605 0.8476235866546631 0.0071146246045827866 0.45490196347236633 0.45098039507865906 0.37254902720451355
0.984236478805542 0.8199905157089233 0.6276679635047913 0.7372549176216125 0.7215686440467834 0.6784313917160034
0.942364513874054 0.8810989856719971 0.9893280863761902 0.4274509847164154 0.3803921639919281 0.32549020648002625
0.9655172228813171 0.8018316626548767 0.9897233247756958 0.4156862795352936 0.37254902720451355 0.3490196168422699
0.7633004784584045 0.8040423393249512 0.9909090995788574 0.4313725531101227 0.43921568989753723 0.4274509847164154
0.9081280827522278 0.8724143505096436 0.005928853526711464 0.40392157435417175 0.3921568691730499 0.35686275362968445
0.7721675038337708 0.8367282748222351 0.9901185631752014 0.29411765933036804 0.27450981736183167 0.25882354378700256
0.8354679942131042 0.8166745901107788 0.006719367578625679 0.3921568691730499 0.3843137323856354 0.3333333432674408
0.9847290515899658 0.7991473078727722 0.6027668118476868 0.7529411911964417 0.7411764860153198 0.7137255072593689
0.8854680061340332 0.8045160174369812 0.0063241105526685715 0.3843137323856354 0.3960784375667572 0.3294117748737335
0.9837438464164734 0.8356229066848755 0.2296442687511444 0.08627451211214066 0.08627451211214066 0.08627451211214066
0.7763546705245972 0.9251539707183838 0.1881422996520996 0.21568627655506134 0.239215686917305 0.2235294133424759
0.9839901328086853 0.827411949634552 0.7624505758285522 0.5647059082984924 0.5372549295425415 0.46666666865348816
0.7709359526634216 0.9456813335418701 0.028853755444288254 0.32156863808631897 0.250980406999588 0.16470588743686676
0.7662561535835266 0.8021475076675415 0.006719367578625679 0.32549020648002625 0.3294117748737335 0.27450981736183167
0.882758617401123 0.8204642534255981 0.9881423115730286 0.40784314274787903 0.3803921639919281 0.34117648005485535
0.9657635688781738 0.8847307562828064 0.9897233247756958 0.34117648005485535 0.32156863808631897 0.24705882370471954
0.8044335246086121 0.9196273684501648 0.18498024344444275 0.3490196168422699 0.3921568691730499 0.3686274588108063
0.9849753975868225 0.8141481280326843 0.9324110746383667 0.4941176474094391 0.45490196347236633 0.4156862795352936
0.826600968837738 0.8515711426734924 0.006719367578625679 0.3607843220233917 0.3529411852359772 0.30588236451148987
0.9849753975868225 0.8373598456382751 0.6616600751876831 0.24313725531101227 0.24313725531101227 0.24313725531101227
0.7679802775382996 0.9234170317649841 0.24150197207927704 0.13333334028720856 0.13333334028720856 0.13333334028720856
0.9711822867393494 0.827569842338562 0.0675889328122139 0.3333333432674408 0.3490196168422699 0.3921568691730499
0.80147784948349 0.9197852611541748 0.1762845814228058 0.3019607961177826 0.33725491166114807 0.32549020648002625
0.9839901328086853 0.8117795586585999 0.3909091055393219 0.7647058963775635 0.7490196228027344 0.7058823704719543
0.9706896543502808 0.9442602396011353 0.007509881630539894 0.5137255191802979 0.4941176474094391 0.4156862795352936
0.7926108241081238 0.9107847809791565 0.9885375499725342 0.4156862795352936 0.3803921639919281 0.3137255012989044
0.8795566558837891 0.8559924364089966 0.9881423115730286 0.24313725531101227 0.22745098173618317 0.1921568661928177
0.8105911612510681 0.9431549310684204 0.9881423115730286 0.45490196347236633 0.4274509847164154 0.35686275362968445
0.9701970219612122 0.8293067812919617 0.019367588683962822 0.43921568989753723 0.47058823704719543 0.47843137383461
0.8903940916061401 0.8288331031799316 0.9881423115730286 0.3019607961177826 0.2862745225429535 0.250980406999588
0.9588670134544373 0.8319911360740662 0.9897233247756958 0.3843137323856354 0.3529411852359772 0.30980393290519714
0.984236478805542 0.799936830997467 0.5454545617103577 0.7568627595901489 0.7882353067398071 0.7372549176216125
0.8064039349555969 0.9175745844841003 0.006719367578625679 0.33725491166114807 0.30980393290519714 0.2705882489681244
0.7926108241081238 0.8376756906509399 0.9897233247756958 0.32549020648002625 0.32156863808631897 0.3019607961177826
0.9450739026069641 0.8263066411018372 0.0063241105526685715 0.42352941632270813 0.4274509847164154 0.3960784375667572
0.9844827651977539 0.8424127697944641 0.9047430753707886 0.4901960790157318 0.4627451002597809 0.4000000059604645
0.9847290515899658 0.8300963044166565 0.9229248762130737 0.49803921580314636 0.47058823704719543 0.40784314274787903
0.9674876928329468 0.8485710024833679 0.9897233247756958 0.3843137323856354 0.3529411852359772 0.3019607961177826
0.7460591197013855 0.9341544508934021 0.21778656542301178 0.3607843220233917 0.3333333432674408 0.29411765933036804
0.81083744764328 0.8829938173294067 0.9885375499725342 0.2666666805744171 0.250980406999588 0.2078431397676468
0.9194581508636475 0.8659403324127197 0.9889327883720398 0.3843137323856354 0.3529411852359772 0.30980393290519714
0.9815270900726318 0.7981998920440674 0.27865612506866455 0.7568627595901489 0.7529411911964417 0.6823529601097107
0.8901478052139282 0.8529922366142273 0.9881423115730286 0.2235294133424759 0.2078431397676468 0.16470588743686676
0.7775862216949463 0.8755723834037781 0.006719367578625679 0.35686275362968445 0.3490196168422699 0.2980392277240753
0.7394088506698608 0.9455234408378601 0.30395257472991943 0.23137255012989044 0.25882354378700256 0.23137255012989044
0.9443349838256836 0.9474182724952698 0.9893280863761902 0.38823530077934265 0.35686275362968445 0.27450981736183167
0.7655172348022461 0.91867995262146 0.17786560952663422 0.23529411852359772 0.25882354378700256 0.24313725531101227
0.762561559677124 0.9235749244689941 0.22648221254348755 0.09019608050584793 0.09803921729326248 0.08627451211214066
0.8379310369491577 0.826938271522522 0.006719367578625679 0.32549020648002625 0.3333333432674408 0.27843138575553894
0.7876847386360168 0.9212063550949097 0.19683794677257538 0.2549019753932953 0.18039216101169586 0.12156862765550613
0.807635486125946 0.9017843008041382 0.1608695685863495 0.21176470816135406 0.21176470816135406 0.20392157137393951
0.765763521194458 0.9090478420257568 0.006719367578625679 0.40392157435417175 0.3803921639919281 0.3176470696926117
0.7534482479095459 0.860255777835846 0.15889328718185425 0.19607843458652496 0.19607843458652496 0.1882352977991104
0.9674876928329468 0.8397284150123596 0.9897233247756958 0.3764705955982208 0.3450980484485626 0.3019607961177826
0.9839901328086853 0.83799147605896 0.3529644310474396 0.15294118225574493 0.14901961386203766 0.1411764770746231
0.9662561416625977 0.8310437202453613 0.005928853526711464 0.3490196168422699 0.3843137323856354 0.364705890417099
0.7623152732849121 0.935417652130127 0.17944663763046265 0.2549019753932953 0.27450981736183167 0.24705882370471954
0.7881773114204407 0.8755723834037781 0.006719367578625679 0.43921568989753723 0.4313725531101227 0.3843137323856354
0.8194581270217896 0.8556765913963318 0.9885375499725342 0.24705882370471954 0.23137255012989044 0.19607843458652496
0.9354679584503174 0.8409916162490845 0.0063241105526685715 0.3803921639919281 0.3921568691730499 0.3490196168422699
0.9413793087005615 0.9445760250091553 0.9893280863761902 0.3921568691730499 0.3607843220233917 0.27843138575553894
0.8201970458030701 0.8932575583457947 0.9889327883720398 0.2980392277240753 0.27450981736183167 0.21960784494876862
0.9019704461097717 0.8484130501747131 0.9885375499725342 0.3450980484485626 0.3137255012989044 0.2705882489681244
0.9665024876594543 0.8441497087478638 0.005928853526711464 0.4156862795352936 0.4470588266849518 0.40392157435417175
0.7724137902259827 0.8414653539657593 0.006719367578625679 0.33725491166114807 0.34117648005485535 0.27843138575553894
0.9133005142211914 0.832149088382721 0.0063241105526685715 0.3843137323856354 0.40392157435417175 0.3803921639919281
0.982758641242981 0.821885347366333 0.4102766811847687 0.772549033164978 0.7490196228027344 0.6941176652908325
0.8147783279418945 0.9126796126365662 0.17430830001831055 0.22745098173618317 0.23137255012989044 0.21176470816135406
0.804679811000824 0.8856781721115112 0.0063241105526685715 0.42352941632270813 0.4117647111415863 0.3764705955982208
0.9825122952461243 0.794094443321228 0.5735177993774414 0.7529411911964417 0.7411764860153198 0.6823529601097107
0.9125615954399109 0.8019895553588867 0.0063241105526685715 0.3960784375667572 0.3921568691730499 0.32156863808631897
0.8790640234947205 0.9123638272285461 0.005928853526711464 0.6196078658103943 0.5803921818733215 0.4745098054409027
0.8788177371025085 0.8976788520812988 0.9893280863761902 0.239215686917305 0.21568627655506134 0.16078431904315948
0.7662561535835266 0.7947260141372681 0.991304337978363 0.47058823704719543 0.47843137383461 0.46666666865348816
0.7512315511703491 0.930364727973938 0.22213438153266907 0.6274510025978088 0.615686297416687 0.47843137383461
0.9847290515899658 0.8613611459732056 0.9245059490203857 0.48235294222831726 0.43921568989753723 0.3686274588108063
0.859359622001648 0.9117321968078613 0.005928853526711464 0.5529412031173706 0.5215686559677124 0.4470588266849518
0.7731527090072632 0.8799936771392822 0.17826086282730103 0.24705882370471954 0.2823529541492462 0.26274511218070984
0.8359605669975281 0.8390967845916748 0.006719367578625679 0.30588236451148987 0.29411765933036804 0.25882354378700256
0.7977832555770874 0.7917258739471436 0.9905138611793518 0.45490196347236633 0.43921568989753723 0.4274509847164154
0.7943349480628967 0.8676772713661194 0.9885375499725342 0.24313725531101227 0.22745098173618317 0.1921568661928177
0.9256157875061035 0.8059371709823608 0.0063241105526685715 0.43529412150382996 0.4431372582912445 0.3921568691730499
0.7761083841323853 0.7955155372619629 0.9909090995788574 0.4627451002597809 0.4588235318660736 0.4431372582912445
0.8330049514770508 0.8307279348373413 0.9889327883720398 0.3294117748737335 0.3176470696926117 0.2823529541492462
0.9519704580307007 0.9360492825508118 0.006719367578625679 0.5490196347236633 0.5490196347236633 0.45490196347236633
0.982758641242981 0.821885347366333 0.22213438153266907 0.6627451181411743 0.6705882549285889 0.615686297416687
0.8633005023002625 0.8488867878913879 0.9881423115730286 0.2666666805744171 0.250980406999588 0.21568627655506134
0.8044335246086121 0.7950418591499329 0.0063241105526685715 0.4470588266849518 0.45490196347236633 0.4117647111415863
0.9822660088539124 0.827411949634552 0.4462450444698334 0.7803921699523926 0.7411764860153198 0.6941176652908325
0.9852216839790344 0.8024632930755615 0.9169960618019104 0.5176470875740051 0.4941176474094391 0.43921568989753723
0.9844827651977539 0.8395705223083496 0.4897233247756958 0.08627451211214066 0.0784313753247261 0.09019608050584793
0.9805418848991394 0.8351492285728455 0.3169960379600525 0.11764705926179886 0.11764705926179886 0.11764705926179886
0.8775861859321594 0.9295752644538879 0.0063241105526685715 0.501960813999176 0.4588235318660736 0.37254902720451355
0.8502463102340698 0.843833863735199 0.006719367578625679 0.29019609093666077 0.27843138575553894 0.24313725531101227
0.9477832317352295 0.8558345437049866 0.005928853526711464 0.572549045085907 0.5764706134796143 0.5137255191802979
0.8221675157546997 0.8400442004203796 0.9889327883720398 0.250980406999588 0.23137255012989044 0.2078431397676468
0.9384236335754395 0.8447812795639038 0.0063241105526685715 0.41960784792900085 0.45098039507865906 0.4000000059604645
0.815763533115387 0.8359387516975403 0.9889327883720398 0.3137255012989044 0.3019607961177826 0.27450981736183167
0.8886699676513672 0.8037264943122864 0.9881423115730286 0.4470588266849518 0.4117647111415863 0.3843137323856354
0.9837438464164734 0.8117795586585999 0.36640316247940063 0.7647058963775635 0.7490196228027344 0.7058823704719543
0.7807881832122803 0.9471024870872498 0.6383399367332458 0.6745098233222961 0.5254902243614197 0.43529412150382996
0.8002462983131409 0.902573823928833 0.0063241105526685715 0.30588236451148987 0.2862745225429535 0.21176470816135406
0.7953202128410339 0.8951523900032043 0.9889327883720398 0.239215686917305 0.22745098173618317 0.16862745583057404
0.9778324961662292 0.8878888487815857 0.005533596966415644 0.5333333611488342 0.545098066329956 0.4313725531101227
0.8758620619773865 0.9221537709236145 0.0063241105526685715 0.48627451062202454 0.4588235318660736 0.3960784375667572
0.9603448510169983 0.8907310962677002 0.005533596966415644 0.43921568989753723 0.45098039507865906 0.3764705955982208
0.984236478805542 0.8179377913475037 0.5675889253616333 0.7215686440467834 0.7450980544090271 0.729411780834198
0.9519704580307007 0.7909363508224487 0.08893280476331711 0.027450980618596077 0.03529411926865578 0.08627451211214066
0.9847290515899658 0.8305700421333313 0.9138339757919312 0.501960813999176 0.46666666865348816 0.40784314274787903
0.7980295419692993 0.8515711426734924 0.0071146246045827866 0.3960784375667572 0.3843137323856354 0.3176470696926117
0.7694581151008606 0.8785725831985474 0.17826086282730103 0.2549019753932953 0.27843138575553894 0.2705882489681244
0.9480295777320862 0.8728880286216736 0.9893280863761902 0.4000000059604645 0.37254902720451355 0.30980393290519714
0.7805418968200684 0.9352597594261169 0.22569170594215393 0.062745101749897 0.06666667014360428 0.07450980693101883
0.9637930989265442 0.8545712828636169 0.005928853526711464 0.3686274588108063 0.3921568691730499 0.3529411852359772
0.8758620619773865 0.8534659743309021 0.0063241105526685715 0.3764705955982208 0.3686274588108063 0.3176470696926117
0.7586206793785095 0.9471024870872498 0.9877470135688782 0.46666666865348816 0.4431372582912445 0.3803921639919281
0.9290640354156494 0.891994297504425 0.9893280863761902 0.40392157435417175 0.37254902720451355 0.2980392277240753
0.7640393972396851 0.8842570781707764 0.17588932812213898 0.239215686917305 0.26274511218070984 0.2549019753932953
0.7903940677642822 0.9294173121452332 0.24110671877861023 0.11764705926179886 0.11764705926179886 0.11764705926179886
0.7832512259483337 0.9471024870872498 0.11936759203672409 0.3960784375667572 0.27450981736183167 0.15294118225574493
0.9435960650444031 0.902573823928833 0.005533596966415644 0.45098039507865906 0.43529412150382996 0.33725491166114807
0.7894088625907898 0.7978841066360474 0.006719367578625679 0.4431372582912445 0.4470588266849518 0.3843137323856354
0.8935960531234741 0.821885347366333 0.9881423115730286 0.3333333432674408 0.3176470696926117 0.27450981736183167
0.9837438464164734 0.8204642534255981 0.5142292380332947 0.7490196228027344 0.7372549176216125 0.6784313917160034
0.9847290515899658 0.8613611459732056 0.9245059490203857 0.48235294222831726 0.43921568989753723 0.3686274588108063
0.7490147948265076 0.8138322830200195 0.006719367578625679 0.32549020648002625 0.34117648005485535 0.2823529541492462
0.7477832436561584 0.8286752104759216 0.9909090995788574 0.4588235318660736 0.4431372582912445 0.40784314274787903
0.982758641242981 0.8256750106811523 0.5051383376121521 0.7490196228027344 0.7333333492279053 0.6901960968971252
0.9837438464164734 0.8392546772956848 0.8458498120307922 0.04313725605607033 0.04313725605607033 0.05098039284348488
0.8310344815254211 0.9043107628822327 0.005928853526711464 0.3960784375667572 0.38823530077934265 0.29019609093666077
0.9448275566101074 0.811147928237915 0.09644268453121185 0.19607843458652496 0.19607843458652496 0.22745098173618317
0.8660098314285278 0.8867835402488708 0.0063241105526685715 0.4588235318660736 0.4274509847164154 0.3843137323856354
0.7852216958999634 0.8026211857795715 0.006719367578625679 0.3607843220233917 0.3843137323856354 0.33725491166114807
0.8714285492897034 0.9163113832473755 0.9889327883720398 0.4274509847164154 0.3921568691730499 0.32549020648002625
0.931034505367279 0.9458392262458801 0.0071146246045827866 0.545098066329956 0.5176470875740051 0.40784314274787903
0.7465517520904541 0.8762040138244629 0.9893280863761902 0.43921568989753723 0.4274509847164154 0.3921568691730499
0.7889162302017212 0.9196273684501648 0.26403161883354187 0.14509804546833038 0.14509804546833038 0.13725490868091583
0.9490147829055786 0.8122532963752747 0.03438735008239746 0.30980393290519714 0.3294117748737335 0.3450980484485626
0.8019704222679138 0.8398863077163696 0.006719367578625679 0.33725491166114807 0.33725491166114807 0.2980392277240753
0.8448275923728943 0.941102147102356 0.006719367578625679 0.5098039507865906 0.4627451002597809 0.3686274588108063
0.7921182513237 0.8960998058319092 0.0063241105526685715 0.24705882370471954 0.2235294133424759 0.16862745583057404
0.7684729099273682 0.9455234408378601 0.05928853899240494 0.33725491166114807 0.27450981736183167 0.18431372940540314
0.7541871666908264 0.8957839608192444 0.17391304671764374 0.25882354378700256 0.27843138575553894 0.26274511218070984
0.75935959815979 0.9322596192359924 0.2853755056858063 0.21568627655506134 0.23137255012989044 0.23529411852359772
0.7975369691848755 0.9415758848190308 0.00830039568245411 0.32156863808631897 0.29411765933036804 0.2235294133424759
0.9403941035270691 0.7945681214332581 0.019367588683962822 0.2235294133424759 0.21176470816135406 0.14509804546833038
0.8012315034866333 0.8586767911911011 0.9889327883720398 0.2862745225429535 0.2705882489681244 0.23529411852359772
0.9830049276351929 0.8193588852882385 0.17826086282730103 0.8156862854957581 0.8078431487083435 0.7254902124404907
0.7822660207748413 0.8752565979957581 0.006719367578625679 0.3176470696926117 0.3019607961177826 0.2549019753932953
0.7741379141807556 0.8649929165840149 0.156521737575531 0.23137255012989044 0.23529411852359772 0.21568627655506134
0.9847290515899658 0.8372019529342651 0.6667984127998352 0.250980406999588 0.250980406999588 0.250980406999588
0.9435960650444031 0.9114164113998413 0.005928853526711464 0.5058823823928833 0.48627451062202454 0.4000000059604645
0.7839901447296143 0.8533080816268921 0.9893280863761902 0.2823529541492462 0.2705882489681244 0.24313725531101227
0.7652709484100342 0.9395231604576111 0.312648206949234 0.2549019753932953 0.2705882489681244 0.2666666805744171
0.8652709126472473 0.8675193190574646 0.9885375499725342 0.239215686917305 0.21176470816135406 0.1725490242242813
0.8837438225746155 0.9011526703834534 0.005928853526711464 0.5843137502670288 0.5529412031173706 0.47058823704719543
0.8837438225746155 0.9404705762863159 0.9885375499725342 0.41960784792900085 0.38823530077934265 0.30588236451148987
0.982758641242981 0.8258329629898071 0.48656126856803894 0.772549033164978 0.7411764860153198 0.6980392336845398
0.7743842601776123 0.8978367447853088 0.006719367578625679 0.30588236451148987 0.29019609093666077 0.24313725531101227
0.9832512140274048 0.821885347366333 0.45138341188430786 0.7803921699523926 0.7490196228027344 0.6980392336845398
0.8987684845924377 0.9264171719551086 0.9889327883720398 0.4313725531101227 0.3843137323856354 0.32156863808631897
0.7568965554237366 0.9287857413291931 0.26245060563087463 0.18039216101169586 0.1882352977991104 0.18431372940540314
0.9847290515899658 0.8244118094444275 0.7988142371177673 0.5215686559677124 0.501960813999176 0.42352941632270813
0.7679802775382996 0.8681509494781494 0.18102766573429108 0.27450981736183167 0.30980393290519714 0.2980392277240753
0.9837438464164734 0.8280435800552368 0.7458497881889343 0.5647059082984924 0.545098066329956 0.47058823704719543
0.8339901566505432 0.8248855471611023 0.9889327883720398 0.27450981736183167 0.27450981736183167 0.24313725531101227
0.8524630665779114 0.8201484084129333 0.006719367578625679 0.37254902720451355 0.3803921639919281 0.33725491166114807
0.9847290515899658 0.8184114694595337 0.9090909361839294 0.5098039507865906 0.48235294222831726 0.41960784792900085
0.929556667804718 0.8732038736343384 0.005928853526711464 0.545098066329956 0.5490196347236633 0.4941176474094391
0.9637930989265442 0.8285173177719116 0.9897233247756958 0.4274509847164154 0.3960784375667572 0.3529411852359772
0.7783251404762268 0.9180483222007751 0.21976284682750702 0.08627451211214066 0.07058823853731155 0.05882352963089943
0.7724137902259827 0.9474182724952698 0.3964426815509796 0.6196078658103943 0.4117647111415863 0.20000000298023224
0.757881760597229 0.8402020931243896 0.9901185631752014 0.3960784375667572 0.3764705955982208 0.3529411852359772
0.8948276042938232 0.8313595652580261 0.006719367578625679 0.4627451002597809 0.47058823704719543 0.41960784792900085
0.738916277885437 0.8594663143157959 0.9897233247756958 0.43529412150382996 0.41960784792900085 0.40784314274787903
0.923399031162262 0.8552029132843018 0.0063241105526685715 0.43921568989753723 0.45098039507865906 0.40784314274787903
0.8302955627441406 0.8612031936645508 0.006719367578625679 0.364705890417099 0.3529411852359772 0.29411765933036804
0.9746305346488953 0.8430444002151489 0.9865612387657166 0.3490196168422699 0.32549020648002625 0.26274511218070984
0.9798029661178589 0.8226748704910278 0.1762845814228058 0.8117647171020508 0.843137264251709 0.7529411911964417
0.9825122952461243 0.8280435800552368 0.5857707262039185 0.24313725531101227 0.250980406999588 0.239215686917305
0.9539408683776855 0.8132007122039795 0.02292490191757679 0.3294117748737335 0.3490196168422699 0.364705890417099
0.748275876045227 0.7947260141372681 0.006719367578625679 0.239215686917305 0.250980406999588 0.21568627655506134
0.9839901328086853 0.8198326230049133 0.5632411241531372 0.7843137383460999 0.8039215803146362 0.7882353067398071
0.9366995096206665 0.9305226802825928 0.9893280863761902 0.4000000059604645 0.3490196168422699 0.27450981736183167
0.7975369691848755 0.8127269744873047 0.006719367578625679 0.3450980484485626 0.3450980484485626 0.33725491166114807
0.9041872024536133 0.8591504693031311 0.0063241105526685715 0.40392157435417175 0.40392157435417175 0.37254902720451355
0.8753694295883179 0.8932575583457947 0.9893280863761902 0.250980406999588 0.22745098173618317 0.1725490242242813
0.7997536659240723 0.8880467414855957 0.9885375499725342 0.21960784494876862 0.20392157137393951 0.1568627506494522
0.8731527328491211 0.8725722432136536 0.0063241105526685715 0.5058823823928833 0.49803921580314636 0.43921568989753723
0.8768472671508789 0.8875730037689209 0.005928853526711464 0.5960784554481506 0.5882353186607361 0.529411792755127
0.8637930750846863 0.8608874082565308 0.9885375499725342 0.24313725531101227 0.22745098173618317 0.1921568661928177
0.7733989953994751 0.7923575043678284 0.006719367578625679 0.3921568691730499 0.3960784375667572 0.34117648005485535
0.9352216720581055 0.908100426197052 0.005533596966415644 0.7333333492279053 0.7254902124404907 0.6431372761726379
0.7807881832122803 0.9467867016792297 0.10000000149011612 0.3686274588108063 0.2705882489681244 0.14901961386203766
0.9746305346488953 0.8417811393737793 0.9865612387657166 0.3450980484485626 0.32156863808631897 0.2666666805744171
0.8889162540435791 0.8397284150123596 0.006719367578625679 0.33725491166114807 0.34117648005485535 0.3176470696926117
0.9844827651977539 0.854729175567627 0.005533596966415644 0.4588235318660736 0.501960813999176 0.48627451062202454
