0.2421182245016098 0.5308700203895569 0.9905138611793518 0.3960784375667572 0.3843137323856354 0.3490196168422699
0.004679802805185318 0.5236064791679382 0.5928853750228882 0.5843137502670288 0.5882353186607361 0.5254902243614197
0.09211822599172592 0.45539239048957825 0.9897233247756958 0.37254902720451355 0.364705890417099 0.3176470696926117
0.23251231014728546 0.4111795425415039 0.9897233247756958 0.3843137323856354 0.37254902720451355 0.3450980484485626
0.2381773442029953 0.45302385091781616 0.0071146246045827866 0.5137255191802979 0.5176470875740051 0.45490196347236633
0.004433497320860624 0.5441339015960693 0.7031620740890503 0.5803921818733215 0.5803921818733215 0.5333333611488342
0.004926108289510012 0.5070266723632812 0.4332015812397003 0.6078431606292725 0.615686297416687 0.5607843399047852
0.005911330226808786 0.494710236787796 0.12055335938930511 0.6745098233222961 0.6666666865348816 0.6196078658103943
0.014285714365541935 0.4446549713611603 0.9893280863761902 0.29411765933036804 0.2823529541492462 0.24705882370471954
0.003940886817872524 0.42428550124168396 0.4268774688243866 0.6392157077789307 0.6392157077789307 0.6000000238418579
0.0036945813335478306 0.4457603096961975 0.752964437007904 0.5764706134796143 0.5803921818733215 0.5176470875740051
0.005418719258159399 0.42918047308921814 0.1403162032365799 0.6705882549285889 0.6901960968971252 0.6117647290229797
0.005418719258159399 0.49897363781929016 0.2770751118659973 0.6549019813537598 0.6705882549285889 0.6039215922355652
0.08472906053066254 0.4108637273311615 0.008695651777088642 0.5960784554481506 0.5960784554481506 0.5490196347236633
0.004679802805185318 0.546028733253479 0.7225296497344971 0.5764706134796143 0.5764706134796143 0.5372549295425415
0.035960592329502106 0.5398705005645752 0.008695651777088642 0.4431372582912445 0.4470588266849518 0.3921568691730499
0.004926108289510012 0.43881258368492126 0.2130434811115265 0.6705882549285889 0.6823529601097107 0.6000000238418579
0.004926108289510012 0.5169745683670044 0.47233203053474426 0.6000000238418579 0.6078431606292725 0.5568627715110779
0.15000000596046448 0.44070741534233093 0.007509881630539894 0.6549019813537598 0.6509804129600525 0.5803921818733215
0.003448275849223137 0.43297016620635986 0.6403161883354187 0.6352941393852234 0.6352941393852234 0.6039215922355652
0.004433497320860624 0.5010263919830322 0.6075099110603333 0.5764706134796143 0.5803921818733215 0.5176470875740051
0.06305418908596039 0.4108637273311615 0.9893280863761902 0.3686274588108063 0.3607843220233917 0.30980393290519714
0.13399015367031097 0.49581557512283325 0.9901185631752014 0.3843137323856354 0.3764705955982208 0.3294117748737335
0.16921181976795197 0.4476551413536072 0.007509881630539894 0.529411792755127 0.5176470875740051 0.4588235318660736
0.1665024608373642 0.41481131315231323 0.0071146246045827866 0.5843137502670288 0.5843137502670288 0.545098066329956
0.19113300740718842 0.4331280589103699 0.0071146246045827866 0.615686297416687 0.615686297416687 0.5686274766921997
0.005911330226808786 0.4433917701244354 0.14189723134040833 0.6784313917160034 0.6823529601097107 0.6196078658103943
0.004679802805185318 0.5303963422775269 0.8335968255996704 0.5215686559677124 0.5098039507865906 0.45098039507865906
0.004433497320860624 0.43533870577812195 0.3328063189983368 0.6392157077789307 0.6509804129600525 0.5764706134796143
0.20024630427360535 0.42744356393814087 0.9897233247756958 0.38823530077934265 0.3843137323856354 0.364705890417099
0.1630541831254959 0.4737091362476349 0.007509881630539894 0.6313725709915161 0.6235294342041016 0.5411764979362488
0.004926108289510012 0.4255487024784088 0.17549407482147217 0.6705882549285889 0.6901960968971252 0.6117647290229797
0.1908867061138153 0.5202905535697937 0.0071146246045827866 0.6196078658103943 0.6352941393852234 0.529411792755127
0.005418719258159399 0.5133427977561951 0.34189721941947937 0.6039215922355652 0.6313725709915161 0.5686274766921997
0.019211823120713234 0.4479709565639496 0.9893280863761902 0.24705882370471954 0.239215686917305 0.1921568661928177
0.11551724374294281 0.43249645829200745 0.007509881630539894 0.5058823823928833 0.501960813999176 0.41960784792900085
0.006157635245472193 0.44370755553245544 0.13162055611610413 0.6784313917160034 0.686274528503418 0.6352941393852234
0.2187192142009735 0.48144638538360596 0.9901185631752014 0.4274509847164154 0.40784314274787903 0.3843137323856354
0.003448275849223137 0.4203379154205322 0.8478260636329651 0.5254902243614197 0.5137255191802979 0.43921568989753723
0.1189655140042305 0.529764711856842 0.007905138656497002 0.5058823823928833 0.5098039507865906 0.45490196347236633
0.004679802805185318 0.535133421421051 0.62687748670578 0.5960784554481506 0.6000000238418579 0.545098066329956
0.21330049633979797 0.5084478259086609 0.9901185631752014 0.4000000059604645 0.38823530077934265 0.3529411852359772
0.004187192302197218 0.448602557182312 0.9019762873649597 0.4431372582912445 0.4313725531101227 0.3960784375667572
0.1709359586238861 0.4604452848434448 0.9901185631752014 0.3686274588108063 0.35686275362968445 0.3294117748737335
0.08399014919996262 0.4114953279495239 0.9897233247756958 0.3843137323856354 0.3764705955982208 0.3294117748737335
0.004679802805185318 0.4508132040500641 0.3284584879875183 0.6392157077789307 0.6352941393852234 0.5568627715110779
0.004679802805185318 0.523764431476593 0.9280632138252258 0.40784314274787903 0.3960784375667572 0.3607843220233917
0.06280788034200668 0.5076583027839661 0.9901185631752014 0.33725491166114807 0.32549020648002625 0.29019609093666077
0.023152709007263184 0.4744986593723297 0.009881422854959965 0.5960784554481506 0.6039215922355652 0.5215686559677124
0.18546797335147858 0.47244590520858765 0.007509881630539894 0.6274510025978088 0.6352941393852234 0.5529412031173706
0.22118227183818817 0.4105479121208191 0.9897233247756958 0.37254902720451355 0.3607843220233917 0.3333333432674408
0.005172413773834705 0.49786829948425293 0.3241106867790222 0.6117647290229797 0.6431372761726379 0.5607843399047852
0.003940886817872524 0.42349597811698914 0.46086955070495605 0.6274510025978088 0.6509804129600525 0.6039215922355652
0.20812807977199554 0.48081478476524353 0.0071146246045827866 0.5098039507865906 0.49803921580314636 0.47058823704719543
0.060098521411418915 0.5026053786277771 0.00830039568245411 0.4588235318660736 0.46666666865348816 0.3843137323856354
0.004433497320860624 0.49613136053085327 0.8889328241348267 0.4588235318660736 0.43921568989753723 0.4156862795352936
0.004926108289510012 0.5341860055923462 0.5173913240432739 0.6078431606292725 0.615686297416687 0.572549045085907
0.005418719258159399 0.5232906937599182 0.35177865624427795 0.5960784554481506 0.6235294342041016 0.5607843399047852
0.005911330226808786 0.5035527944564819 0.134782612323761 0.6666666865348816 0.6705882549285889 0.615686297416687
0.005418719258159399 0.49786829948425293 0.2288537621498108 0.6666666865348816 0.6823529601097107 0.6274510025978088
0.0032019703648984432 0.39491552114486694 0.8743082880973816 0.5254902243614197 0.5137255191802979 0.4470588266849518
0.004433497320860624 0.4877625107765198 0.813043475151062 0.5215686559677124 0.5176470875740051 0.4470588266849518
0.02931034564971924 0.47023528814315796 0.9897233247756958 0.32549020648002625 0.3176470696926117 0.2705882489681244
0.006157635245472193 0.48128849267959595 0.11739130318164825 0.6705882549285889 0.6627451181411743 0.615686297416687
0.005172413773834705 0.5509237051010132 0.49644267559051514 0.6000000238418579 0.6117647290229797 0.5764706134796143
0.0032019703648984432 0.4220748543739319 0.6739130616188049 0.6470588445663452 0.6470588445663452 0.615686297416687
0.003940886817872524 0.43533870577812195 0.4573122560977936 0.6352941393852234 0.6313725709915161 0.6117647290229797
0.004187192302197218 0.4882362186908722 0.7588932514190674 0.5568627715110779 0.5490196347236633 0.4901960790157318
0.023152709007263184 0.5370282530784607 0.9901185631752014 0.29411765933036804 0.2823529541492462 0.2549019753932953
0.005665024742484093 0.534817636013031 0.28339922428131104 0.6470588445663452 0.6627451181411743 0.5960784554481506
0.11280788481235504 0.5360808372497559 0.007905138656497002 0.6235294342041016 0.6196078658103943 0.5372549295425415
0.005172413773834705 0.5079740881919861 0.34189721941947937 0.6000000238418579 0.6274510025978088 0.5647059082984924
0.004433497320860624 0.5171324610710144 0.6758893132209778 0.5568627715110779 0.5607843399047852 0.4901960790157318
0.004679802805185318 0.529764711856842 0.8577075004577637 0.5058823823928833 0.4941176474094391 0.4588235318660736
0.004679802805185318 0.4823938012123108 0.9660078883171082 0.32549020648002625 0.3137255012989044 0.27843138575553894
0.0032019703648984432 0.4029685854911804 0.6217391490936279 0.6313725709915161 0.6352941393852234 0.6117647290229797
0.004433497320860624 0.46107688546180725 0.926086962223053 0.3921568691730499 0.3921568691730499 0.3450980484485626
0.0071428571827709675 0.4937628209590912 0.03596837818622589 0.239215686917305 0.21568627655506134 0.16862745583057404
0.026354679837822914 0.48081478476524353 0.9897233247756958 0.32156863808631897 0.3137255012989044 0.26274511218070984
0.002955665113404393 0.40675824880599976 0.7494071125984192 0.6274510025978088 0.6352941393852234 0.5843137502670288
0.003940886817872524 0.448602557182312 0.5019763112068176 0.6117647290229797 0.6117647290229797 0.572549045085907
0.23472906649112701 0.4223906397819519 0.0071146246045827866 0.6705882549285889 0.6745098233222961 0.6117647290229797
0.13817733526229858 0.46155059337615967 0.9901185631752014 0.37254902720451355 0.37254902720451355 0.32549020648002625
0.015517241321504116 0.5356071591377258 0.00909090880304575 0.4901960790157318 0.49803921580314636 0.4156862795352936
0.005418719258159399 0.48681509494781494 0.21699604392051697 0.6666666865348816 0.6941176652908325 0.6313725709915161
0.04162561520934105 0.5084478259086609 0.9901185631752014 0.3294117748737335 0.3176470696926117 0.29019609093666077
0.005665024742484093 0.4858676791191101 0.1774703562259674 0.6666666865348816 0.6784313917160034 0.6039215922355652
0.005172413773834705 0.5152376294136047 0.4418972432613373 0.6039215922355652 0.6117647290229797 0.5568627715110779
0.21625615656375885 0.4198642075061798 0.0071146246045827866 0.6784313917160034 0.686274528503418 0.6431372761726379
0.08965517580509186 0.4339175820350647 0.9897233247756958 0.3490196168422699 0.34117648005485535 0.29411765933036804
0.16059114038944244 0.4051792323589325 0.9901185631752014 0.37254902720451355 0.3607843220233917 0.34117648005485535
0.20714285969734192 0.4418127238750458 0.0071146246045827866 0.5607843399047852 0.5529412031173706 0.501960813999176
0.0064039407297968864 0.5231328010559082 0.09683794528245926 0.6627451181411743 0.6627451181411743 0.615686297416687
0.004433497320860624 0.47860413789749146 0.9541501998901367 0.364705890417099 0.3490196168422699 0.3137255012989044
0.005418719258159399 0.5368703603744507 0.37747034430503845 0.6196078658103943 0.6274510025978088 0.5764706134796143
0.04802955687046051 0.43786513805389404 0.9893280863761902 0.3333333432674408 0.32156863808631897 0.2862745225429535
0.1472906470298767 0.4451286792755127 0.9901185631752014 0.3803921639919281 0.37254902720451355 0.32156863808631897
0.17142857611179352 0.4427601397037506 0.9901185631752014 0.4000000059604645 0.38823530077934265 0.3607843220233917
0.004679802805185318 0.483499139547348 0.9715415239334106 0.3176470696926117 0.30980393290519714 0.26274511218070984
0.004433497320860624 0.49013105034828186 0.8616600632667542 0.46666666865348816 0.46666666865348816 0.4274509847164154
0.004679802805185318 0.5057634711265564 0.9869565367698669 0.2705882489681244 0.25882354378700256 0.23137255012989044
0.20123152434825897 0.437549352645874 0.0071146246045827866 0.5764706134796143 0.5803921818733215 0.5254902243614197
0.08300492912530899 0.4103900194168091 0.008695651777088642 0.6941176652908325 0.6941176652908325 0.6470588445663452
0.1903940886259079 0.43202275037765503 0.0071146246045827866 0.6431372761726379 0.6431372761726379 0.6039215922355652
0.018965518102049828 0.4997631311416626 0.009486165829002857 0.3960784375667572 0.42352941632270813 0.3607843220233917
0.22438423335552216 0.39728406071662903 0.9897233247756958 0.3843137323856354 0.37254902720451355 0.3529411852359772
0.10591132938861847 0.546186625957489 0.007905138656497002 0.6000000238418579 0.5921568870544434 0.5411764979362488
0.11428571492433548 0.3994947075843811 0.007905138656497002 0.4941176474094391 0.5058823823928833 0.4627451002597809
0.1307881772518158 0.44607609510421753 0.9901185631752014 0.37254902720451355 0.364705890417099 0.3176470696926117
0.185960590839386 0.49344703555107117 0.9901185631752014 0.4117647111415863 0.40392157435417175 0.35686275362968445
0.20320196449756622 0.40596872568130493 0.0071146246045827866 0.5960784554481506 0.5960784554481506 0.5647059082984924
0.004926108289510012 0.5273962020874023 0.508695662021637 0.6000000238418579 0.6078431606292725 0.5647059082984924
0.004433497320860624 0.48460444808006287 0.9110671877861023 0.42352941632270813 0.40784314274787903 0.37254902720451355
0.006896551698446274 0.4315490424633026 0.07114624232053757 0.7098039388656616 0.7215686440467834 0.6470588445663452
0.07413793355226517 0.48713091015815735 0.00830039568245411 0.4745098054409027 0.4901960790157318 0.4000000059604645
0.03916256129741669 0.4073898494243622 0.009881422854959965 0.4901960790157318 0.48627451062202454 0.4156862795352936
0.20369458198547363 0.4795515537261963 0.9901185631752014 0.4156862795352936 0.4000000059604645 0.364705890417099
0.23472906649112701 0.4138638973236084 0.9897233247756958 0.4000000059604645 0.38823530077934265 0.3607843220233917
0.006157635245472193 0.4972366988658905 0.10039525479078293 0.6705882549285889 0.6705882549285889 0.6235294342041016
0.006157635245472193 0.5191852450370789 0.12055335938930511 0.6627451181411743 0.6666666865348816 0.6117647290229797
0.18201971054077148 0.4774988293647766 0.9901185631752014 0.40392157435417175 0.38823530077934265 0.3529411852359772
0.22684729099273682 0.48981526494026184 0.9901185631752014 0.3803921639919281 0.3686274588108063 0.34117648005485535
0.0064039407297968864 0.4508132040500641 0.12845849990844727 0.6745098233222961 0.6823529601097107 0.6274510025978088
0.08571428805589676 0.4621822237968445 0.9897233247756958 0.3764705955982208 0.3686274588108063 0.3176470696926117
0.2064039409160614 0.5310279726982117 0.006719367578625679 0.5960784554481506 0.6392157077789307 0.5843137502670288
0.004679802805185318 0.518237829208374 0.5877470374107361 0.5843137502670288 0.5882353186607361 0.5333333611488342
0.0071428571827709675 0.44970786571502686 0.09051383286714554 0.6313725709915161 0.6352941393852234 0.5803921818733215
0.004187192302197218 0.48460444808006287 0.6067193746566772 0.5960784554481506 0.5921568870544434 0.5215686559677124
0.004187192302197218 0.4910784661769867 0.604347825050354 0.5882353186607361 0.5803921818733215 0.5333333611488342
0.004433497320860624 0.4427601397037506 0.3810276687145233 0.6274510025978088 0.6352941393852234 0.5921568870544434
0.13226601481437683 0.47591978311538696 0.007905138656497002 0.7333333492279053 0.7450980544090271 0.6627451181411743
0.004926108289510012 0.5502921342849731 0.5984189510345459 0.6117647290229797 0.615686297416687 0.5921568870544434
0.23152709007263184 0.4626559317111969 0.9897233247756958 0.3960784375667572 0.3843137323856354 0.35686275362968445
0.003448275849223137 0.44102320075035095 0.7067193388938904 0.615686297416687 0.6117647290229797 0.5921568870544434
0.004926108289510012 0.4310753345489502 0.17272727191448212 0.6784313917160034 0.6901960968971252 0.6078431606292725
0.012807881459593773 0.5086057186126709 0.009486165829002857 0.5098039507865906 0.5215686559677124 0.4470588266849518
0.003940886817872524 0.465024471282959 0.5988142490386963 0.6078431606292725 0.615686297416687 0.5647059082984924
0.004187192302197218 0.4628138244152069 0.8940711617469788 0.4470588266849518 0.43529412150382996 0.4000000059604645
0.013793103396892548 0.46960365772247314 0.9893280863761902 0.2666666805744171 0.2666666805744171 0.22745098173618317
0.07093595713376999 0.4163903295993805 0.00909090880304575 0.501960813999176 0.5058823823928833 0.4431372582912445
0.004187192302197218 0.46644559502601624 0.5051383376121521 0.6039215922355652 0.6039215922355652 0.5568627715110779
0.22832512855529785 0.40660035610198975 0.006719367578625679 0.501960813999176 0.5058823823928833 0.4431372582912445
0.004187192302197218 0.41828516125679016 0.3758893311023712 0.6627451181411743 0.6627451181411743 0.6235294342041016
0.16477832198143005 0.5048160552978516 0.9901185631752014 0.3960784375667572 0.38823530077934265 0.34117648005485535
0.17733989655971527 0.49013105034828186 0.007509881630539894 0.5176470875740051 0.529411792755127 0.4470588266849518
0.004679802805185318 0.4893415570259094 0.9648221135139465 0.3294117748737335 0.32156863808631897 0.27450981736183167
0.2423645257949829 0.523922324180603 0.9905138611793518 0.4000000059604645 0.38823530077934265 0.3529411852359772
0.003448275849223137 0.419232577085495 0.8446640372276306 0.5254902243614197 0.5137255191802979 0.43921568989753723
0.004433497320860624 0.5139744281768799 0.7944663763046265 0.529411792755127 0.5254902243614197 0.45490196347236633
0.003448275849223137 0.3987051844596863 0.9158102869987488 0.4627451002597809 0.4588235318660736 0.38823530077934265
0.0032019703648984432 0.43249645829200745 0.709486186504364 0.6196078658103943 0.6235294342041016 0.6000000238418579
0.1110837459564209 0.4711827039718628 0.007905138656497002 0.46666666865348816 0.501960813999176 0.3960784375667572
0.12044335156679153 0.44939208030700684 0.007509881630539894 0.48235294222831726 0.49803921580314636 0.4431372582912445
0.027093596756458282 0.5501342415809631 0.008695651777088642 0.40784314274787903 0.4000000059604645 0.3176470696926117
0.005172413773834705 0.4917100965976715 0.2711462378501892 0.6470588445663452 0.6705882549285889 0.6235294342041016
0.17586207389831543 0.5340281128883362 0.9901185631752014 0.3686274588108063 0.35686275362968445 0.3294117748737335
0.004679802805185318 0.4252329170703888 0.1877470314502716 0.6627451181411743 0.6901960968971252 0.6196078658103943
0.005418719258159399 0.5060792565345764 0.2553359568119049 0.6470588445663452 0.6745098233222961 0.6117647290229797
0.21551723778247833 0.4249171018600464 0.9897233247756958 0.4000000059604645 0.38823530077934265 0.3607843220233917
0.005418719258159399 0.4748144745826721 0.17430830001831055 0.6549019813537598 0.6666666865348816 0.6000000238418579
0.004187192302197218 0.47876203060150146 0.603557288646698 0.5921568870544434 0.5960784554481506 0.5411764979362488
0.18448275327682495 0.5285015106201172 0.006719367578625679 0.658823549747467 0.658823549747467 0.5647059082984924
0.004187192302197218 0.4359703063964844 0.417786568403244 0.6431372761726379 0.6431372761726379 0.6117647290229797
0.003940886817872524 0.413390189409256 0.373913049697876 0.6627451181411743 0.6666666865348816 0.6352941393852234
0.06773398816585541 0.49865782260894775 0.00830039568245411 0.5960784554481506 0.6117647290229797 0.545098066329956
0.005665024742484093 0.5201326608657837 0.25296443700790405 0.6666666865348816 0.6823529601097107 0.615686297416687
0.18103447556495667 0.4396020770072937 0.0071146246045827866 0.6745098233222961 0.6666666865348816 0.615686297416687
0.004187192302197218 0.4481288492679596 0.9537549614906311 0.35686275362968445 0.34117648005485535 0.30588236451148987
0.04137931019067764 0.45791885256767273 0.009486165829002857 0.38823530077934265 0.3921568691730499 0.32156863808631897
0.111330047249794 0.44054949283599854 0.9897233247756958 0.40392157435417175 0.3960784375667572 0.3450980484485626
0.030295565724372864 0.4707089960575104 0.9897233247756958 0.32156863808631897 0.3137255012989044 0.2666666805744171
0.004187192302197218 0.45791885256767273 0.8790513873100281 0.4627451002597809 0.45098039507865906 0.42352941632270813
0.0032019703648984432 0.4187588691711426 0.7841897010803223 0.5647059082984924 0.5647059082984924 0.5176470875740051
0.004679802805185318 0.5303963422775269 0.5916996002197266 0.5921568870544434 0.6000000238418579 0.545098066329956
0.13793103396892548 0.5097110271453857 0.007905138656497002 0.5411764979362488 0.5607843399047852 0.47058823704719543
0.004679802805185318 0.5381335616111755 0.8403161764144897 0.5215686559677124 0.5137255191802979 0.45490196347236633
0.004679802805185318 0.5122374892234802 0.8711462616920471 0.46666666865348816 0.4588235318660736 0.4117647111415863
0.004679802805185318 0.4198642075061798 0.2233201563358307 0.6705882549285889 0.686274528503418 0.6274510025978088
0.14137931168079376 0.5005526542663574 0.007905138656497002 0.529411792755127 0.5372549295425415 0.4431372582912445
0.005665024742484093 0.44054949283599854 0.15691699087619781 0.6745098233222961 0.6941176652908325 0.615686297416687
0.0071428571827709675 0.44133901596069336 0.07509881258010864 0.6784313917160034 0.6941176652908325 0.6352941393852234
0.07364532351493835 0.43786513805389404 0.008695651777088642 0.48235294222831726 0.47058823704719543 0.43529412150382996
0.003448275849223137 0.4317069351673126 0.6671936511993408 0.6352941393852234 0.6392157077789307 0.615686297416687
0.13423645496368408 0.48665720224380493 0.007905138656497002 0.5176470875740051 0.5215686559677124 0.45098039507865906
0.12857143580913544 0.5215537548065186 0.007905138656497002 0.5058823823928833 0.5215686559677124 0.46666666865348816
0.1349753737449646 0.3964945375919342 0.9897233247756958 0.3803921639919281 0.37254902720451355 0.32549020648002625
0.003940886817872524 0.44418126344680786 0.5399209260940552 0.6235294342041016 0.6117647290229797 0.5843137502670288
0.14507389068603516 0.4538133442401886 0.9901185631752014 0.4000000059604645 0.3921568691730499 0.3450980484485626
0.1633004993200302 0.54066002368927 0.0071146246045827866 0.6352941393852234 0.6352941393852234 0.5333333611488342
0.005665024742484093 0.45823463797569275 0.17944663763046265 0.6745098233222961 0.6745098233222961 0.6274510025978088
0.18891625106334686 0.48681509494781494 0.007509881630539894 0.5529412031173706 0.529411792755127 0.46666666865348816
0.22807881236076355 0.48081478476524353 0.0071146246045827866 0.6352941393852234 0.6313725709915161 0.5490196347236633
0.13596059381961823 0.49849992990493774 0.9901185631752014 0.38823530077934265 0.3803921639919281 0.3333333432674408
0.0071428571827709675 0.4913942813873291 0.04110671952366829 0.25882354378700256 0.22745098173618317 0.18431372940540314
0.003940886817872524 0.4662877023220062 0.760869562625885 0.5647059082984924 0.5568627715110779 0.5058823823928833
0.005418719258159399 0.40012630820274353 0.07865612953901291 0.6745098233222961 0.7058823704719543 0.6235294342041016
0.006896551698446274 0.5453971028327942 0.03596837818622589 0.2549019753932953 0.239215686917305 0.1921568661928177
0.004926108289510012 0.49518394470214844 0.3691699504852295 0.5921568870544434 0.6078431606292725 0.5411764979362488
0.2108374387025833 0.44433918595314026 0.9897233247756958 0.3764705955982208 0.35686275362968445 0.34117648005485535
0.0032019703648984432 0.40423181653022766 0.866007924079895 0.5215686559677124 0.5058823823928833 0.4588235318660736
0.004187192302197218 0.4422864317893982 0.947826087474823 0.3686274588108063 0.3529411852359772 0.3176470696926117
0.004926108289510012 0.4912363886833191 0.3810276687145233 0.6000000238418579 0.6196078658103943 0.5411764979362488
0.004679802805185318 0.4538133442401886 0.29841896891593933 0.6470588445663452 0.6509804129600525 0.5882353186607361
0.004679802805185318 0.5139744281768799 0.5885375738143921 0.5843137502670288 0.5882353186607361 0.5333333611488342
0.20886699855327606 0.4334438741207123 0.9897233247756958 0.38823530077934265 0.3764705955982208 0.34117648005485535
0.08571428805589676 0.5051318407058716 0.00830039568245411 0.43921568989753723 0.46666666865348816 0.43529412150382996
0.006896551698446274 0.5278698801994324 0.02648221328854561 0.250980406999588 0.2235294133424759 0.16078431904315948
0.003448275849223137 0.40375807881355286 0.9138339757919312 0.46666666865348816 0.45490196347236633 0.3960784375667572
0.025615762919187546 0.43518081307411194 0.9893280863761902 0.30980393290519714 0.2980392277240753 0.2705882489681244
0.04433497413992882 0.45855045318603516 0.009486165829002857 0.5647059082984924 0.5568627715110779 0.4745098054409027
0.19384236633777618 0.5439760088920593 0.9905138611793518 0.364705890417099 0.364705890417099 0.32549020648002625
0.005172413773834705 0.5142902135848999 0.4162055253982544 0.6078431606292725 0.615686297416687 0.5607843399047852
0.007881773635745049 0.43549659848213196 0.012252964079380035 0.4588235318660736 0.45098039507865906 0.4000000059604645
0.05197044461965561 0.45507657527923584 0.9897233247756958 0.3450980484485626 0.3333333432674408 0.30588236451148987
0.05714285746216774 0.41496920585632324 0.9893280863761902 0.3764705955982208 0.3686274588108063 0.32156863808631897
0.005418719258159399 0.45523449778556824 0.20632411539554596 0.6784313917160034 0.6823529601097107 0.6117647290229797
0.14556650817394257 0.4771830141544342 0.007905138656497002 0.4627451002597809 0.4745098054409027 0.3529411852359772
0.23275862634181976 0.4174956679344177 0.0071146246045827866 0.615686297416687 0.6078431606292725 0.5490196347236633
0.005418719258159399 0.5125532746315002 0.34110671281814575 0.6000000238418579 0.6352941393852234 0.5686274766921997
0.004679802805185318 0.39554712176322937 0.13320158421993256 0.6666666865348816 0.6941176652908325 0.6313725709915161
0.004187192302197218 0.45586609840393066 0.8588932752609253 0.48627451062202454 0.48235294222831726 0.4627451002597809
0.21674877405166626 0.4114953279495239 0.9897233247756958 0.37254902720451355 0.3607843220233917 0.3333333432674408
0.08866994827985764 0.46423494815826416 0.9897233247756958 0.3529411852359772 0.3607843220233917 0.3176470696926117
0.004433497320860624 0.42618033289909363 0.28379446268081665 0.6627451181411743 0.6784313917160034 0.6196078658103943
0.028078816831111908 0.4457603096961975 0.010276679880917072 0.5686274766921997 0.5803921818733215 0.5137255191802979
0.13546797633171082 0.40675824880599976 0.9901185631752014 0.37254902720451355 0.3607843220233917 0.32549020648002625
0.0064039407297968864 0.5122374892234802 0.06403162330389023 0.6980392336845398 0.7058823704719543 0.6549019813537598
0.12019704282283783 0.46944576501846313 0.9901185631752014 0.3921568691730499 0.3803921639919281 0.32156863808631897
0.003940886817872524 0.4741828441619873 0.6173912882804871 0.6078431606292725 0.6000000238418579 0.5529412031173706
0.11034482717514038 0.5138165354728699 0.9901185631752014 0.3764705955982208 0.3764705955982208 0.3294117748737335
0.004679802805185318 0.4767093062400818 0.4055335819721222 0.6078431606292725 0.6117647290229797 0.5411764979362488
0.12586206197738647 0.5289751887321472 0.9901185631752014 0.3764705955982208 0.3686274588108063 0.3176470696926117
0.0036945813335478306 0.424601286649704 0.91660076379776 0.4470588266849518 0.43921568989753723 0.3921568691730499
0.20812807977199554 0.4047055244445801 0.0071146246045827866 0.6470588445663452 0.6392157077789307 0.5921568870544434
0.14975368976593018 0.4230222702026367 0.9901185631752014 0.35686275362968445 0.3450980484485626 0.30980393290519714
0.11379310488700867 0.5488709807395935 0.007509881630539894 0.5137255191802979 0.5411764979362488 0.47058823704719543
0.0032019703648984432 0.4132322669029236 0.760079026222229 0.6039215922355652 0.6078431606292725 0.5843137502670288
0.0064039407297968864 0.46991947293281555 0.12332015484571457 0.6470588445663452 0.658823549747467 0.5921568870544434
0.02536945790052414 0.4373914301395416 0.9893280863761902 0.3176470696926117 0.30588236451148987 0.2705882489681244
0.005911330226808786 0.5466603636741638 0.26166006922721863 0.6627451181411743 0.6784313917160034 0.6117647290229797
0.02660098485648632 0.47339335083961487 0.009881422854959965 0.40784314274787903 0.4117647111415863 0.34117648005485535
0.004926108289510012 0.49849992990493774 0.37786561250686646 0.5960784554481506 0.6039215922355652 0.5490196347236633
0.05591132864356041 0.4942365288734436 0.9901185631752014 0.3137255012989044 0.3019607961177826 0.2666666805744171
0.0064039407297968864 0.529606819152832 0.10237154364585876 0.6627451181411743 0.6627451181411743 0.615686297416687
0.22733990848064423 0.48649927973747253 0.0071146246045827866 0.5568627715110779 0.572549045085907 0.5058823823928833
0.09236453473567963 0.489025741815567 0.007905138656497002 0.3764705955982208 0.3921568691730499 0.32549020648002625
0.20911329984664917 0.40912678837776184 0.0071146246045827866 0.5098039507865906 0.5176470875740051 0.46666666865348816
0.09187192469835281 0.46755093336105347 0.9901185631752014 0.35686275362968445 0.3490196168422699 0.3019607961177826
0.0064039407297968864 0.5095531344413757 0.08260869234800339 0.686274528503418 0.6901960968971252 0.6196078658103943
0.19532020390033722 0.4366019368171692 0.9897233247756958 0.40784314274787903 0.3960784375667572 0.3686274588108063
0.005418719258159399 0.48065686225891113 0.2027667909860611 0.6666666865348816 0.6784313917160034 0.5960784554481506
0.217980295419693 0.4173377454280853 0.9897233247756958 0.364705890417099 0.3529411852359772 0.3176470696926117
0.16847290098667145 0.5269224643707275 0.0071146246045827866 0.5882353186607361 0.6470588445663452 0.5647059082984924
0.04211822524666786 0.4100742042064667 0.009881422854959965 0.5137255191802979 0.5176470875740051 0.4627451002597809
0.0278325118124485 0.5133427977561951 0.00909090880304575 0.4588235318660736 0.4745098054409027 0.41960784792900085
0.0032019703648984432 0.4193904995918274 0.7498023509979248 0.6000000238418579 0.6117647290229797 0.5686274766921997
0.005418719258159399 0.49834200739860535 0.23754940927028656 0.6666666865348816 0.6823529601097107 0.6235294342041016
0.004679802805185318 0.5051318407058716 0.5505928993225098 0.5882353186607361 0.6000000238418579 0.5333333611488342
0.004679802805185318 0.4744986593723297 0.4209486246109009 0.6117647290229797 0.6196078658103943 0.5372549295425415
0.004926108289510012 0.47307753562927246 0.35059288144111633 0.615686297416687 0.6117647290229797 0.5333333611488342
0.005911330226808786 0.5523448586463928 0.31422924995422363 0.6352941393852234 0.6509804129600525 0.5843137502670288
0.08891625702381134 0.5141323208808899 0.00830039568245411 0.46666666865348816 0.49803921580314636 0.4156862795352936
0.004679802805185318 0.5255013704299927 0.8608695864677429 0.49803921580314636 0.48627451062202454 0.45098039507865906
0.005665024742484093 0.45823463797569275 0.17944663763046265 0.6745098233222961 0.6745098233222961 0.6274510025978088
0.2334975302219391 0.40391600131988525 0.006719367578625679 0.6274510025978088 0.6196078658103943 0.5607843399047852
0.16403940320014954 0.49534186720848083 0.007509881630539894 0.6470588445663452 0.6784313917160034 0.5960784554481506
0.004433497320860624 0.5386072993278503 0.7422924637794495 0.5607843399047852 0.5607843399047852 0.5137255191802979
0.2463054209947586 0.4249171018600464 0.0071146246045827866 0.5568627715110779 0.5607843399047852 0.49803921580314636
0.005911330226808786 0.518711507320404 0.1715414971113205 0.658823549747467 0.6666666865348816 0.6117647290229797
0.13399015367031097 0.5315016508102417 0.007509881630539894 0.5529412031173706 0.5254902243614197 0.45490196347236633
0.08817733824253082 0.402810662984848 0.9897233247756958 0.3686274588108063 0.3607843220233917 0.30980393290519714
0.005172413773834705 0.42933839559555054 0.156521737575531 0.6745098233222961 0.6941176652908325 0.615686297416687
0.22931034862995148 0.5308700203895569 0.006719367578625679 0.6627451181411743 0.6705882549285889 0.5764706134796143
0.11403940618038177 0.4397599995136261 0.9901185631752014 0.3529411852359772 0.3450980484485626 0.29411765933036804
0.004187192302197218 0.49818411469459534 0.6517786383628845 0.5647059082984924 0.572549045085907 0.4901960790157318
0.0036945813335478306 0.40975841879844666 0.47035571932792664 0.6470588445663452 0.6549019813537598 0.6117647290229797
0.003448275849223137 0.4021790623664856 0.573913037776947 0.6274510025978088 0.6392157077789307 0.6117647290229797
0.007389162667095661 0.4345491826534271 0.04466403275728226 0.239215686917305 0.21176470816135406 0.1725490242242813
0.004679802805185318 0.5485551953315735 0.7909091114997864 0.5568627715110779 0.5490196347236633 0.501960813999176
0.003940886817872524 0.4572872221469879 0.7664031386375427 0.5607843399047852 0.5607843399047852 0.5137255191802979
0.004433497320860624 0.5022895932197571 0.8845849633216858 0.4588235318660736 0.4470588266849518 0.41960784792900085
0.003940886817872524 0.44149690866470337 0.49249011278152466 0.6235294342041016 0.6117647290229797 0.5764706134796143
0.004433497320860624 0.46739301085472107 0.8913043737411499 0.45098039507865906 0.43921568989753723 0.40392157435417175
0.004679802805185318 0.5195010304450989 0.9652174115180969 0.3333333432674408 0.32156863808631897 0.29411765933036804
0.1426108330488205 0.5425548553466797 0.9901185631752014 0.3137255012989044 0.30588236451148987 0.25882354378700256
0.0036945813335478306 0.4331280589103699 0.5592885613441467 0.6196078658103943 0.6235294342041016 0.5686274766921997
0.030295565724372864 0.43849676847457886 0.9893280863761902 0.32156863808631897 0.3137255012989044 0.2666666805744171
0.007881773635745049 0.45870834589004517 0.06324110925197601 0.615686297416687 0.615686297416687 0.5686274766921997
0.0258620698004961 0.4915521740913391 0.009486165829002857 0.42352941632270813 0.43529412150382996 0.3686274588108063
0.13374383747577667 0.402652770280838 0.9901185631752014 0.3843137323856354 0.37254902720451355 0.33725491166114807
0.21576355397701263 0.4342333674430847 0.0071146246045827866 0.7137255072593689 0.7137255072593689 0.6745098233222961
0.0036945813335478306 0.41860097646713257 0.5355731248855591 0.6274510025978088 0.6313725709915161 0.6000000238418579
0.005911330226808786 0.40612664818763733 0.059683796018362045 0.658823549747467 0.6745098233222961 0.6078431606292725
0.004926108289510012 0.4045476019382477 0.11739130318164825 0.6784313917160034 0.6980392336845398 0.6196078658103943
0.01945812813937664 0.47528818249702454 0.9897233247756958 0.30588236451148987 0.29411765933036804 0.25882354378700256
0.22142857313156128 0.4560239911079407 0.0071146246045827866 0.5921568870544434 0.5921568870544434 0.5529412031173706
0.15320196747779846 0.4858676791191101 0.9901185631752014 0.37254902720451355 0.364705890417099 0.3176470696926117
0.16133004426956177 0.4992894232273102 0.007509881630539894 0.6039215922355652 0.6117647290229797 0.5254902243614197
0.11798029392957687 0.5275540947914124 0.007905138656497002 0.4745098054409027 0.48627451062202454 0.45098039507865906
0.1985221654176712 0.5144481062889099 0.006719367578625679 0.5960784554481506 0.5882353186607361 0.5058823823928833
0.04334975406527519 0.45270803570747375 0.9893280863761902 0.30980393290519714 0.2980392277240753 0.26274511218070984
0.004433497320860624 0.5127111673355103 0.7126482129096985 0.5490196347236633 0.5529412031173706 0.48235294222831726
0.14113301038742065 0.448760449886322 0.9901185631752014 0.40392157435417175 0.3960784375667572 0.3490196168422699
0.004679802805185318 0.524238109588623 0.5936759114265442 0.5843137502670288 0.5882353186607361 0.5254902243614197
0.005665024742484093 0.5123953819274902 0.2023715376853943 0.6470588445663452 0.6627451181411743 0.6078431606292725
0.004679802805185318 0.5452392101287842 0.6466403007507324 0.6039215922355652 0.6117647290229797 0.5686274766921997
0.21724137663841248 0.4029685854911804 0.006719367578625679 0.5490196347236633 0.5411764979362488 0.48235294222831726
0.0032019703648984432 0.41544291377067566 0.7636363506317139 0.5921568870544434 0.5960784554481506 0.5647059082984924
0.003448275849223137 0.40344229340553284 0.8916996121406555 0.4901960790157318 0.48627451062202454 0.40392157435417175
0.08817733824253082 0.4220748543739319 0.9897233247756958 0.3490196168422699 0.34117648005485535 0.29019609093666077
0.0396551713347435 0.46170851588249207 0.009486165829002857 0.5411764979362488 0.5764706134796143 0.501960813999176
0.23522166907787323 0.5093952417373657 0.9901185631752014 0.3921568691730499 0.3803921639919281 0.3450980484485626
0.0032019703648984432 0.3999684154987335 0.8438735008239746 0.5254902243614197 0.5372549295425415 0.4627451002597809
0.0032019703648984432 0.42381179332733154 0.7276679873466492 0.6352941393852234 0.6235294342041016 0.5960784554481506
0.07980295270681381 0.3966524600982666 0.9897233247756958 0.4156862795352936 0.4156862795352936 0.3686274588108063
0.1231527104973793 0.4604452848434448 0.007509881630539894 0.5058823823928833 0.5098039507865906 0.4470588266849518
0.005418719258159399 0.5120795965194702 0.27351778745651245 0.6549019813537598 0.6705882549285889 0.6117647290229797
0.004187192302197218 0.4591820538043976 0.8596838116645813 0.48627451062202454 0.48235294222831726 0.4627451002597809
0.004433497320860624 0.48760461807250977 0.9422925114631653 0.40392157435417175 0.3764705955982208 0.3450980484485626
0.004679802805185318 0.5108163356781006 0.5916996002197266 0.5843137502670288 0.5882353186607361 0.5254902243614197
0.047044336795806885 0.3994947075843811 0.009486165829002857 0.4941176474094391 0.49803921580314636 0.43529412150382996
0.004187192302197218 0.4400757849216461 0.9430829882621765 0.3764705955982208 0.3607843220233917 0.3176470696926117
0.003940886817872524 0.42965418100357056 0.9675889611244202 0.34117648005485535 0.32549020648002625 0.29019609093666077
0.18842364847660065 0.5079740881919861 0.9901185631752014 0.37254902720451355 0.364705890417099 0.3176470696926117
0.11822660267353058 0.4601294696331024 0.9901185631752014 0.3843137323856354 0.3764705955982208 0.3294117748737335
0.00665024621412158 0.4680246412754059 0.11067193746566772 0.6392157077789307 0.6509804129600525 0.5843137502670288
0.004679802805185318 0.4921838045120239 0.47707509994506836 0.6039215922355652 0.615686297416687 0.5490196347236633
0.11403940618038177 0.5447655320167542 0.007509881630539894 0.4745098054409027 0.5098039507865906 0.43529412150382996
0.08596058934926987 0.42933839559555054 0.008695651777088642 0.5529412031173706 0.5647059082984924 0.49803921580314636
0.09655172377824783 0.529291033744812 0.007905138656497002 0.48627451062202454 0.4941176474094391 0.43921568989753723
0.0032019703648984432 0.4222327470779419 0.7189723253250122 0.6509804129600525 0.6392157077789307 0.6196078658103943
0.17339901626110077 0.42160114645957947 0.0071146246045827866 0.6078431606292725 0.6039215922355652 0.5333333611488342
0.143349751830101 0.45965576171875 0.007509881630539894 0.5686274766921997 0.5686274766921997 0.4745098054409027
0.23497536778450012 0.39823147654533386 0.9897233247756958 0.3843137323856354 0.37254902720451355 0.3450980484485626
0.11059113591909409 0.4168640375137329 0.007905138656497002 0.5215686559677124 0.5215686559677124 0.48235294222831726
0.006157635245472193 0.44702354073524475 0.1411067247390747 0.6823529601097107 0.686274528503418 0.6235294342041016
0.0036945813335478306 0.4424443244934082 0.6154150366783142 0.615686297416687 0.615686297416687 0.5843137502670288
0.13793103396892548 0.41765356063842773 0.9901185631752014 0.3803921639919281 0.37254902720451355 0.32549020648002625
0.004433497320860624 0.47323542833328247 0.896442711353302 0.43529412150382996 0.42352941632270813 0.38823530077934265
0.15763546526432037 0.5490288734436035 0.9905138611793518 0.33725491166114807 0.3333333432674408 0.3137255012989044
0.08571428805589676 0.3963366448879242 0.008695651777088642 0.42352941632270813 0.4274509847164154 0.35686275362968445
0.21108373999595642 0.5032370090484619 0.006719367578625679 0.6274510025978088 0.615686297416687 0.5411764979362488
0.004926108289510012 0.5180798768997192 0.5039525628089905 0.5921568870544434 0.6039215922355652 0.5607843399047852
0.005172413773834705 0.4948681592941284 0.28300395607948303 0.6509804129600525 0.6627451181411743 0.5882353186607361
0.00665024621412158 0.4768671989440918 0.09565217047929764 0.658823549747467 0.658823549747467 0.6117647290229797
0.06650245934724808 0.42902258038520813 0.00909090880304575 0.6235294342041016 0.6196078658103943 0.5372549295425415
0.004926108289510012 0.4277593493461609 0.17588932812213898 0.6784313917160034 0.6980392336845398 0.6117647290229797
0.0036945813335478306 0.4257066249847412 0.8588932752609253 0.5137255191802979 0.501960813999176 0.4431372582912445
0.0071428571827709675 0.49344703555107117 0.041897233575582504 0.25882354378700256 0.23529411852359772 0.1882352977991104
0.004679802805185318 0.4195483922958374 0.22252964973449707 0.6627451181411743 0.6901960968971252 0.6274510025978088
0.003448275849223137 0.43533870577812195 0.677470326423645 0.6352941393852234 0.6392157077789307 0.6196078658103943
0.004433497320860624 0.5155534744262695 0.6885375380516052 0.5490196347236633 0.5568627715110779 0.4745098054409027
0.2416256219148636 0.40628454089164734 0.006719367578625679 0.6313725709915161 0.6078431606292725 0.545098066329956
0.24532020092010498 0.5098689198493958 0.0071146246045827866 0.45490196347236633 0.5098039507865906 0.4117647111415863
0.007635468151420355 0.47560396790504456 0.04466403275728226 0.27450981736183167 0.250980406999588 0.20392157137393951
0.004679802805185318 0.40060004591941833 0.13675889372825623 0.6745098233222961 0.6901960968971252 0.6313725709915161
0.14532019197940826 0.5038686394691467 0.9901185631752014 0.3921568691730499 0.38823530077934265 0.3176470696926117
0.19236452877521515 0.44086530804634094 0.0071146246045827866 0.6313725709915161 0.6235294342041016 0.5647059082984924
0.01748768426477909 0.5093952417373657 0.9897233247756958 0.2823529541492462 0.2705882489681244 0.24313725531101227
0.004187192302197218 0.4342333674430847 0.9837944507598877 0.29411765933036804 0.27843138575553894 0.23529411852359772
0.21724137663841248 0.4765513837337494 0.0071146246045827866 0.5882353186607361 0.5921568870544434 0.5215686559677124
0.007881773635745049 0.47276172041893005 0.03122529573738575 0.26274511218070984 0.239215686917305 0.1764705926179886
0.004679802805185318 0.5255013704299927 0.9003952741622925 0.4588235318660736 0.4470588266849518 0.4274509847164154
0.004926108289510012 0.5345017910003662 0.5569170117378235 0.5960784554481506 0.6078431606292725 0.5647059082984924
0.0027093596290796995 0.39523133635520935 0.7237154245376587 0.6549019813537598 0.6431372761726379 0.6078431606292725
0.003448275849223137 0.4047055244445801 0.9098814129829407 0.4745098054409027 0.4627451002597809 0.3960784375667572
0.004679802805185318 0.5067108869552612 0.552173912525177 0.5843137502670288 0.5960784554481506 0.5215686559677124
0.0036945813335478306 0.4656561017036438 0.6802371740341187 0.5921568870544434 0.5843137502670288 0.5372549295425415
0.19950738549232483 0.4361282289028168 0.0071146246045827866 0.5215686559677124 0.5254902243614197 0.47058823704719543
0.21182265877723694 0.4748144745826721 0.9901185631752014 0.4117647111415863 0.3921568691730499 0.3686274588108063
0.23743842542171478 0.45491868257522583 0.0071146246045827866 0.5215686559677124 0.529411792755127 0.4745098054409027
0.0036945813335478306 0.4247592091560364 0.5047430992126465 0.6235294342041016 0.6274510025978088 0.5960784554481506
0.03300492465496063 0.3963366448879242 0.9893280863761902 0.364705890417099 0.3529411852359772 0.32549020648002625
0.008374384604394436 0.46360334753990173 0.020158102735877037 0.34117648005485535 0.3176470696926117 0.2549019753932953
0.004433497320860624 0.48965734243392944 0.5517786741256714 0.5882353186607361 0.5960784554481506 0.5411764979362488
0.19359606504440308 0.465182363986969 0.007509881630539894 0.615686297416687 0.6117647290229797 0.5411764979362488
0.004679802805185318 0.5258171558380127 0.820948600769043 0.5254902243614197 0.5176470875740051 0.4274509847164154
0.004926108289510012 0.5111321806907654 0.43517786264419556 0.6078431606292725 0.615686297416687 0.5607843399047852
0.004926108289510012 0.4921838045120239 0.3841897249221802 0.5960784554481506 0.6117647290229797 0.545098066329956
0.003448275849223137 0.43486499786376953 0.625296413898468 0.6313725709915161 0.6313725709915161 0.6000000238418579
0.14359605312347412 0.49313122034072876 0.9901185631752014 0.4000000059604645 0.3921568691730499 0.3450980484485626
0.005172413773834705 0.4051792323589325 0.10671936720609665 0.6705882549285889 0.686274528503418 0.6196078658103943
0.15640394389629364 0.5447655320167542 0.0071146246045827866 0.6078431606292725 0.6117647290229797 0.5568627715110779
0.004433497320860624 0.48649927973747253 0.5553359389305115 0.5882353186607361 0.5960784554481506 0.5411764979362488
0.1507389098405838 0.47828832268714905 0.9901185631752014 0.38823530077934265 0.3764705955982208 0.34117648005485535
0.2455665022134781 0.5275540947914124 0.006719367578625679 0.6039215922355652 0.5921568870544434 0.5176470875740051
0.004433497320860624 0.4688141345977783 0.4940711557865143 0.615686297416687 0.6196078658103943 0.5647059082984924
0.004679802805185318 0.529764711856842 0.5750988125801086 0.5921568870544434 0.6000000238418579 0.5490196347236633
0.004187192302197218 0.44418126344680786 0.4422924816608429 0.6352941393852234 0.6313725709915161 0.615686297416687
0.004926108289510012 0.5327649116516113 0.5351778864860535 0.5960784554481506 0.6117647290229797 0.5568627715110779
0.004187192302197218 0.48428863286972046 0.7782608866691589 0.5568627715110779 0.5529412031173706 0.4745098054409027
0.17586207389831543 0.5231328010559082 0.9901185631752014 0.37254902720451355 0.364705890417099 0.30588236451148987
0.18423645198345184 0.4512869119644165 0.9901185631752014 0.4117647111415863 0.4000000059604645 0.37254902720451355
0.04039409011602402 0.4451286792755127 0.9893280863761902 0.23529411852359772 0.22745098173618317 0.18039216101169586
0.0036945813335478306 0.45507657527923584 0.707905113697052 0.5882353186607361 0.5882353186607361 0.5568627715110779
0.006157635245472193 0.5315016508102417 0.13636364042758942 0.6705882549285889 0.6745098233222961 0.6039215922355652
0.004187192302197218 0.48128849267959595 0.7841897010803223 0.5568627715110779 0.545098066329956 0.47843137383461
0.1273398995399475 0.54034423828125 0.007509881630539894 0.5843137502670288 0.5882353186607361 0.5176470875740051
0.1544335037469864 0.5231328010559082 0.007509881630539894 0.5411764979362488 0.5490196347236633 0.4941176474094391
0.005665024742484093 0.5033949017524719 0.2193675935268402 0.6666666865348816 0.6823529601097107 0.6274510025978088
0.003448275849223137 0.4339175820350647 0.678260862827301 0.6352941393852234 0.6392157077789307 0.6196078658103943
0.003940886817872524 0.443075954914093 0.8498023748397827 0.5137255191802979 0.5058823823928833 0.45490196347236633
0.10049261152744293 0.5093952417373657 0.00830039568245411 0.4627451002597809 0.47058823704719543 0.4156862795352936
0.005665024742484093 0.43865466117858887 0.1561264842748642 0.6784313917160034 0.6941176652908325 0.6274510025978088
0.00665024621412158 0.5277119874954224 0.07035572826862335 0.6745098233222961 0.6901960968971252 0.6313725709915161
0.0795566514134407 0.48997315764427185 0.00830039568245411 0.45490196347236633 0.46666666865348816 0.3843137323856354
0.0064039407297968864 0.5191852450370789 0.10039525479078293 0.6745098233222961 0.6666666865348816 0.6196078658103943
