0.4598522186279297 0.2299068421125412 0.17905138432979584 0.4627451002597809 0.5058823823928833 0.4431372582912445
0.41921183466911316 0.21222169697284698 0.2509881556034088 0.11372549086809158 0.10980392247438431 0.0941176488995552
0.43374383449554443 0.11321648210287094 0.9897233247756958 0.38823530077934265 0.3607843220233917 0.32156863808631897
0.5901477932929993 0.14037580788135529 0.9905138611793518 0.3490196168422699 0.33725491166114807 0.3176470696926117
0.48669952154159546 0.08889941871166229 0.9897233247756958 0.40392157435417175 0.37254902720451355 0.32156863808631897
0.4197044372558594 0.13421759009361267 0.9901185631752014 0.3803921639919281 0.364705890417099 0.32156863808631897
0.3817734122276306 0.21711668372154236 0.2956521809101105 0.13333334028720856 0.1568627506494522 0.1568627506494522
0.46625617146492004 0.21995894610881805 0.29367589950561523 0.7450980544090271 0.8078431487083435 0.8039215803146362
0.4403941035270691 0.19201010465621948 0.9889327883720398 0.2980392277240753 0.2862745225429535 0.250980406999588
0.6022167205810547 0.21995894610881805 0.23201580345630646 0.10980392247438431 0.10588235408067703 0.09019608050584793
0.3933497667312622 0.15569239854812622 0.9897233247756958 0.3450980484485626 0.33725491166114807 0.29019609093666077
0.3697044253349304 0.2359071522951126 0.0063241105526685715 0.18039216101169586 0.16862745583057404 0.1411764770746231
0.5839901566505432 0.1547449827194214 0.9905138611793518 0.37254902720451355 0.3607843220233917 0.34117648005485535
0.4403941035270691 0.1525343507528305 0.005928853526711464 0.5882353186607361 0.5921568870544434 0.5372549295425415
0.492118239402771 0.22264330089092255 0.9885375499725342 0.3450980484485626 0.3450980484485626 0.3137255012989044
0.5403940677642822 0.15300805866718292 0.9901185631752014 0.3686274588108063 0.35686275362968445 0.32156863808631897
0.47906404733657837 0.2327490895986557 0.9885375499725342 0.30980393290519714 0.30980393290519714 0.27843138575553894
0.403940886259079 0.2128533124923706 0.2750988006591797 0.08627451211214066 0.09019608050584793 0.07058823853731155
0.5889162421226501 0.18032528460025787 0.9901185631752014 0.40784314274787903 0.40392157435417175 0.3960784375667572
0.4320197105407715 0.16153481602668762 0.005928853526711464 0.686274528503418 0.7176470756530762 0.658823549747467
0.5549260973930359 0.11858519166707993 0.005928853526711464 0.6274510025978088 0.6352941393852234 0.5411764979362488
0.4573891758918762 0.2270645797252655 0.0063241105526685715 0.23137255012989044 0.21568627655506134 0.16862745583057404
0.43029555678367615 0.13327017426490784 0.9897233247756958 0.3843137323856354 0.3607843220233917 0.3137255012989044
0.5002462863922119 0.2215379774570465 0.27430829405784607 0.04313725605607033 0.04313725605607033 0.04313725605607033
0.4564039409160614 0.1721143275499344 0.005928853526711464 0.5568627715110779 0.6078431606292725 0.529411792755127
0.5320196747779846 0.16453497111797333 0.0063241105526685715 0.615686297416687 0.6274510025978088 0.5529412031173706
0.5167487859725952 0.23622295260429382 0.005533596966415644 0.3764705955982208 0.364705890417099 0.2980392277240753
0.6098521947860718 0.2185378223657608 0.2446640282869339 0.10588235408067703 0.10196078568696976 0.0941176488995552
0.6064039468765259 0.2186957150697708 0.24268774688243866 0.10980392247438431 0.10588235408067703 0.09803921729326248
0.4844827651977539 0.23195958137512207 0.21185770630836487 0.501960813999176 0.529411792755127 0.4588235318660736
0.4756157696247101 0.13595452904701233 0.0063241105526685715 0.5764706134796143 0.5960784554481506 0.5058823823928833
0.5332512259483337 0.22943313419818878 0.005928853526711464 0.1921568661928177 0.19607843458652496 0.1411764770746231
0.4199507534503937 0.21648508310317993 0.13754940032958984 0.09019608050584793 0.10196078568696976 0.07450980693101883
0.4871921241283417 0.2183799147605896 0.269565224647522 0.10196078568696976 0.10588235408067703 0.08627451211214066
0.517241358757019 0.19611558318138123 0.9893280863761902 0.3529411852359772 0.3529411852359772 0.32156863808631897
0.6105911135673523 0.19358913600444794 0.991304337978363 1.0 1.0 0.9921568632125854
0.4135468006134033 0.16216643154621124 0.9897233247756958 0.3607843220233917 0.3450980484485626 0.2980392277240753
0.4650246202945709 0.17890414595603943 0.9889327883720398 0.3529411852359772 0.34117648005485535 0.30588236451148987
0.5194581151008606 0.18569397926330566 0.005928853526711464 0.6117647290229797 0.6196078658103943 0.5686274766921997
0.41551724076271057 0.1755881905555725 0.9893280863761902 0.30980393290519714 0.3019607961177826 0.2549019753932953
0.6039409041404724 0.22216959297657013 0.21185770630836487 0.10196078568696976 0.09803921729326248 0.08235294371843338
0.6100985407829285 0.1924838125705719 0.991304337978363 1.0 1.0 0.9921568632125854
0.5004926323890686 0.22485393285751343 0.005533596966415644 0.125490203499794 0.13333334028720856 0.12156862765550613
0.4012315273284912 0.1749565750360489 0.005928853526711464 0.6823529601097107 0.6705882549285889 0.6039215922355652
0.4482758641242981 0.21080057322978973 0.17430830001831055 0.12941177189350128 0.12941177189350128 0.12156862765550613
0.39605912566185 0.21632717549800873 0.22213438153266907 0.4431372582912445 0.43921568989753723 0.41960784792900085
0.5549260973930359 0.22532765567302704 0.2972331941127777 0.7215686440467834 0.7372549176216125 0.7333333492279053
0.3854679763317108 0.19911573827266693 0.005928853526711464 0.45098039507865906 0.45098039507865906 0.4117647111415863
0.496798038482666 0.12316437810659409 0.9897233247756958 0.3843137323856354 0.3686274588108063 0.32156863808631897
0.5278325080871582 0.1490604728460312 0.0063241105526685715 0.6392157077789307 0.6352941393852234 0.5647059082984924
0.5795566439628601 0.1956418752670288 0.9897233247756958 0.3803921639919281 0.3803921639919281 0.37254902720451355
0.4637930989265442 0.1321648508310318 0.9897233247756958 0.38823530077934265 0.3607843220233917 0.32156863808631897
0.3849753737449646 0.20037896931171417 0.9893280863761902 0.29019609093666077 0.2862745225429535 0.2666666805744171
0.6046798229217529 0.18916785717010498 0.9905138611793518 0.37254902720451355 0.3764705955982208 0.3921568691730499
0.4923645257949829 0.2215379774570465 0.14782609045505524 0.2549019753932953 0.2549019753932953 0.24705882370471954
0.6081280708312988 0.10863729566335678 0.005928853526711464 0.6745098233222961 0.686274528503418 0.6039215922355652
0.42733991146087646 0.15142902731895447 0.005928853526711464 0.7254902124404907 0.7490196228027344 0.6392157077789307
0.4837438464164734 0.21348491311073303 0.2976284623146057 0.09019608050584793 0.09019608050584793 0.08235294371843338
0.5238916277885437 0.15316595137119293 0.0063241105526685715 0.6117647290229797 0.615686297416687 0.545098066329956
0.5876847505569458 0.21364282071590424 0.29960474371910095 0.3960784375667572 0.41960784792900085 0.41960784792900085
0.5985221862792969 0.18553608655929565 0.005928853526711464 0.5333333611488342 0.5333333611488342 0.4941176474094391
0.4524630606174469 0.13658612966537476 0.005928853526711464 0.7137255072593689 0.729411780834198 0.6392157077789307
0.495320200920105 0.1495341807603836 0.0063241105526685715 0.5921568870544434 0.6000000238418579 0.5176470875740051
0.37536945939064026 0.13705985248088837 0.9905138611793518 0.34117648005485535 0.3294117748737335 0.29411765933036804
0.5857142806053162 0.1807989925146103 0.005928853526711464 0.47058823704719543 0.4745098054409027 0.41960784792900085
0.3854679763317108 0.21885362267494202 0.18379446864128113 0.06666667014360428 0.054901961237192154 0.03529411926865578
0.464778333902359 0.22074845433235168 0.0063241105526685715 0.24705882370471954 0.22745098173618317 0.20392157137393951
0.49014776945114136 0.2155376672744751 0.18300394713878632 0.30980393290519714 0.33725491166114807 0.30980393290519714
0.6034482717514038 0.08842570334672928 0.005533596966415644 0.5921568870544434 0.5843137502670288 0.5333333611488342
0.6142857074737549 0.11826938390731812 0.9905138611793518 0.3607843220233917 0.3450980484485626 0.30980393290519714
0.5246305465698242 0.22943313419818878 0.9885375499725342 0.33725491166114807 0.3333333432674408 0.3137255012989044
0.5778325200080872 0.10279488563537598 0.9897233247756958 0.37254902720451355 0.3490196168422699 0.3019607961177826
0.5536946058273315 0.21695879101753235 0.9889327883720398 0.3764705955982208 0.364705890417099 0.3450980484485626
0.5246305465698242 0.22943313419818878 0.9885375499725342 0.33725491166114807 0.3333333432674408 0.3137255012989044
0.5029556751251221 0.10216327011585236 0.9897233247756958 0.3843137323856354 0.37254902720451355 0.3137255012989044
0.6066502332687378 0.22801199555397034 0.9909090995788574 0.5529412031173706 0.572549045085907 0.5882353186607361
0.5251231789588928 0.11969050765037537 0.9897233247756958 0.3764705955982208 0.3607843220233917 0.3176470696926117
0.4807881712913513 0.18853624165058136 0.005928853526711464 0.5098039507865906 0.5137255191802979 0.48235294222831726
0.5849753618240356 0.1466919332742691 0.9905138611793518 0.364705890417099 0.3529411852359772 0.32549020648002625
0.6073891520500183 0.1290067881345749 0.005928853526711464 0.615686297416687 0.6313725709915161 0.572549045085907
0.5381773114204407 0.13674403727054596 0.0063241105526685715 0.7333333492279053 0.7372549176216125 0.6666666865348816
0.5403940677642822 0.11116374284029007 0.005928853526711464 0.7176470756530762 0.7215686440467834 0.6666666865348816
0.5418719053268433 0.17448286712169647 0.0063241105526685715 0.5764706134796143 0.5843137502670288 0.5333333611488342
0.5426108241081238 0.13184905052185059 0.9901185631752014 0.3803921639919281 0.364705890417099 0.32156863808631897
0.4753694534301758 0.22643296420574188 0.9885375499725342 0.29411765933036804 0.27450981736183167 0.25882354378700256
0.5785714387893677 0.22343280911445618 0.005928853526711464 0.24705882370471954 0.23137255012989044 0.1882352977991104
0.4729064106941223 0.21695879101753235 0.23201580345630646 0.125490203499794 0.12156862765550613 0.10588235408067703
0.3921182155609131 0.21222169697284698 0.005928853526711464 0.7137255072593689 0.6901960968971252 0.6431372761726379
0.5568965673446655 0.20195800065994263 0.0063241105526685715 0.4745098054409027 0.4745098054409027 0.4274509847164154
0.4608374238014221 0.21159008145332336 0.1723320186138153 0.13725490868091583 0.13725490868091583 0.12941177189350128
0.44236454367637634 0.21427443623542786 0.20632411539554596 0.0941176488995552 0.09019608050584793 0.07450980693101883
0.6041871905326843 0.19090478122234344 0.005928853526711464 0.5607843399047852 0.5647059082984924 0.501960813999176
0.46650245785713196 0.08700457960367203 0.9893280863761902 0.38823530077934265 0.3764705955982208 0.3176470696926117
0.43472906947135925 0.20906363427639008 0.9885375499725342 0.3137255012989044 0.3019607961177826 0.2666666805744171
0.37118226289749146 0.15048161149024963 0.9901185631752014 0.32549020648002625 0.3137255012989044 0.27843138575553894
0.4288177192211151 0.20258961617946625 0.005928853526711464 0.6431372761726379 0.6392157077789307 0.6196078658103943
0.40738916397094727 0.2125374972820282 0.15019762516021729 0.0941176488995552 0.09019608050584793 0.08235294371843338
0.38596057891845703 0.22185377776622772 0.2956521809101105 0.5803921818733215 0.6078431606292725 0.6313725709915161
0.3931034505367279 0.19153639674186707 0.005928853526711464 0.7098039388656616 0.7215686440467834 0.686274528503418
0.45763546228408813 0.08242539316415787 0.005533596966415644 0.658823549747467 0.6509804129600525 0.5921568870544434
0.5684729218482971 0.13595452904701233 0.006719367578625679 0.6039215922355652 0.6196078658103943 0.5607843399047852
0.43817734718322754 0.21174798905849457 0.24703557789325714 0.11372549086809158 0.10980392247438431 0.0941176488995552
0.4672413766384125 0.1236380860209465 0.9897233247756958 0.3803921639919281 0.35686275362968445 0.30980393290519714
0.5726600885391235 0.21459023654460907 0.1667984127998352 0.11764705926179886 0.11372549086809158 0.10588235408067703
0.5041871666908264 0.09111005812883377 0.9897233247756958 0.4000000059604645 0.3764705955982208 0.3294117748737335
0.4160098433494568 0.22627507150173187 0.29486167430877686 0.5960784554481506 0.6392157077789307 0.6549019813537598
0.5721675157546997 0.23132796585559845 0.9885375499725342 0.33725491166114807 0.3137255012989044 0.3294117748737335
0.46157634258270264 0.11100584268569946 0.9897233247756958 0.3921568691730499 0.3686274588108063 0.32156863808631897
0.45911329984664917 0.1495341807603836 0.9893280863761902 0.3607843220233917 0.3529411852359772 0.3019607961177826
0.4204433560371399 0.15316595137119293 0.9897233247756958 0.32156863808631897 0.3137255012989044 0.2666666805744171
0.40985220670700073 0.21332702040672302 0.14822134375572205 0.08235294371843338 0.07450980693101883 0.0784313753247261
0.4931034445762634 0.21395863592624664 0.15691699087619781 0.15294118225574493 0.1568627506494522 0.13725490868091583
0.49433496594429016 0.12979631125926971 0.9893280863761902 0.37254902720451355 0.3607843220233917 0.3019607961177826
0.5302955508232117 0.13358597457408905 0.9901185631752014 0.37254902720451355 0.35686275362968445 0.3137255012989044
0.4684728980064392 0.22785410284996033 0.22094862163066864 0.04313725605607033 0.062745101749897 0.07450980693101883
0.4194581210613251 0.206852987408638 0.9889327883720398 0.3176470696926117 0.30588236451148987 0.27843138575553894
0.44211822748184204 0.16153481602668762 0.005928853526711464 0.6000000238418579 0.6078431606292725 0.5568627715110779
0.4913793206214905 0.22532765567302704 0.20039525628089905 0.07450980693101883 0.07450980693101883 0.06666667014360428
0.40295565128326416 0.11953260749578476 0.0063241105526685715 0.6078431606292725 0.6117647290229797 0.5490196347236633
0.5790640115737915 0.21601137518882751 0.2822134494781494 0.08627451211214066 0.08235294371843338 0.07450980693101883
0.5894088745117188 0.15316595137119293 0.9905138611793518 0.3607843220233917 0.3450980484485626 0.3333333432674408
0.6100985407829285 0.1634296476840973 0.005533596966415644 0.6274510025978088 0.6431372761726379 0.5764706134796143
0.46650245785713196 0.13563871383666992 0.005928853526711464 0.6117647290229797 0.6313725709915161 0.5529412031173706
0.4642857015132904 0.09995263069868088 0.005533596966415644 0.6980392336845398 0.6941176652908325 0.6235294342041016
0.5963054299354553 0.09695246815681458 0.005928853526711464 0.5607843399047852 0.5686274766921997 0.5176470875740051
0.4674876928329468 0.15995578467845917 0.005928853526711464 0.5490196347236633 0.5411764979362488 0.48235294222831726
0.42660099267959595 0.1348492056131363 0.9897233247756958 0.3921568691730499 0.35686275362968445 0.32156863808631897
0.5475369691848755 0.20480024814605713 0.9893280863761902 0.3803921639919281 0.3764705955982208 0.3607843220233917
0.3773398995399475 0.21143217384815216 0.0063241105526685715 0.45098039507865906 0.4470588266849518 0.4274509847164154
0.37512314319610596 0.1724301278591156 0.9897233247756958 0.30588236451148987 0.29411765933036804 0.2666666805744171
0.546798050403595 0.2355913519859314 0.2964426875114441 0.6941176652908325 0.7176470756530762 0.7176470756530762
0.43768471479415894 0.10216327011585236 0.9893280863761902 0.3960784375667572 0.37254902720451355 0.3176470696926117
0.6019704341888428 0.21980103850364685 0.0063241105526685715 0.34117648005485535 0.3333333432674408 0.2823529541492462
0.4566502571105957 0.18885204195976257 0.9889327883720398 0.3450980484485626 0.33725491166114807 0.29019609093666077
0.4002462923526764 0.2153797596693039 0.9889327883720398 0.2823529541492462 0.2705882489681244 0.24313725531101227
0.4206896424293518 0.19753670692443848 0.005928853526711464 0.5137255191802979 0.5137255191802979 0.46666666865348816
0.39605912566185 0.21474814414978027 0.25296443700790405 0.054901961237192154 0.05098039284348488 0.04313725605607033
0.4201970398426056 0.08937312662601471 0.006719367578625679 0.6392157077789307 0.6431372761726379 0.5803921818733215
0.575123131275177 0.21916942298412323 0.27272728085517883 0.09803921729326248 0.0941176488995552 0.08627451211214066
0.5677340030670166 0.13863886892795563 0.9905138611793518 0.3764705955982208 0.35686275362968445 0.3333333432674408
0.5108374357223511 0.10247907787561417 0.005533596966415644 0.6980392336845398 0.7098039388656616 0.6666666865348816
0.5633004903793335 0.224380224943161 0.2075098752975464 0.07450980693101883 0.07450980693101883 0.06666667014360428
0.5221675038337708 0.23085425794124603 0.005533596966415644 0.32156863808631897 0.2980392277240753 0.24313725531101227
0.4527093470096588 0.21095846593379974 0.27747035026550293 0.10196078568696976 0.09803921729326248 0.09019608050584793
0.5330049395561218 0.22611716389656067 0.005928853526711464 0.239215686917305 0.24705882370471954 0.19607843458652496
0.3721674978733063 0.19769461452960968 0.0063241105526685715 0.5215686559677124 0.5137255191802979 0.45490196347236633
0.5581280589103699 0.22516974806785583 0.21501976251602173 0.12156862765550613 0.11764705926179886 0.10196078568696976
0.3935960531234741 0.2014842927455902 0.005928853526711464 0.5960784554481506 0.6000000238418579 0.5686274766921997
0.5985221862792969 0.1781146377325058 0.005928853526711464 0.5098039507865906 0.5137255191802979 0.4588235318660736
0.5465517044067383 0.2213800698518753 0.9889327883720398 0.3529411852359772 0.3490196168422699 0.3294117748737335
0.44605910778045654 0.15079741179943085 0.005928853526711464 0.6196078658103943 0.6352941393852234 0.5686274766921997
0.5889162421226501 0.15979787707328796 0.005928853526711464 0.6509804129600525 0.6549019813537598 0.5843137502670288
0.6022167205810547 0.08163587749004364 0.9897233247756958 0.3607843220233917 0.3490196168422699 0.29019609093666077
0.3997536897659302 0.1580609530210495 0.005928853526711464 0.6509804129600525 0.6392157077789307 0.572549045085907
0.5532019734382629 0.15979787707328796 0.0063241105526685715 0.5921568870544434 0.5960784554481506 0.5333333611488342
0.3815270960330963 0.09221538156270981 0.0071146246045827866 0.6039215922355652 0.6000000238418579 0.5215686559677124
0.3958128094673157 0.09600505232810974 0.9897233247756958 0.3686274588108063 0.33725491166114807 0.29411765933036804
0.5081281065940857 0.19437864422798157 0.9893280863761902 0.364705890417099 0.3529411852359772 0.3176470696926117
0.41551724076271057 0.1755881905555725 0.9893280863761902 0.30980393290519714 0.3019607961177826 0.2549019753932953
0.5263546705245972 0.17416706681251526 0.0063241105526685715 0.6705882549285889 0.686274528503418 0.6196078658103943
0.4729064106941223 0.15632401406764984 0.005928853526711464 0.5568627715110779 0.5921568870544434 0.5176470875740051
0.40714284777641296 0.20290541648864746 0.9889327883720398 0.2705882489681244 0.25882354378700256 0.23137255012989044
0.3721674978733063 0.21080057322978973 0.9889327883720398 0.2823529541492462 0.2666666805744171 0.2549019753932953
0.3891625702381134 0.17653560638427734 0.005928853526711464 0.686274528503418 0.686274528503418 0.6549019813537598
0.4613300561904907 0.21743249893188477 0.29407113790512085 0.6000000238418579 0.6823529601097107 0.6627451181411743
0.5940886735916138 0.16595610976219177 0.005928853526711464 0.6000000238418579 0.615686297416687 0.5607843399047852
0.4206896424293518 0.2126954048871994 0.23754940927028656 0.12156862765550613 0.11764705926179886 0.09803921729326248
0.5169950723648071 0.15648192167282104 0.0063241105526685715 0.6745098233222961 0.7058823704719543 0.615686297416687
0.3980295658111572 0.12869098782539368 0.9901185631752014 0.3803921639919281 0.3529411852359772 0.3137255012989044
0.42216747999191284 0.21885362267494202 0.9885375499725342 0.2980392277240753 0.2862745225429535 0.25882354378700256
0.5379310250282288 0.2150639444589615 0.005928853526711464 0.2823529541492462 0.2705882489681244 0.250980406999588
0.49778324365615845 0.21095846593379974 0.0063241105526685715 0.4627451002597809 0.45098039507865906 0.42352941632270813
0.4517241418361664 0.1635875552892685 0.9893280863761902 0.364705890417099 0.3490196168422699 0.30588236451148987
0.45369458198547363 0.15363965928554535 0.9893280863761902 0.35686275362968445 0.34117648005485535 0.2980392277240753
0.5862069129943848 0.10405810922384262 0.005928853526711464 0.5843137502670288 0.5882353186607361 0.5333333611488342
0.4236453175544739 0.12553292512893677 0.005533596966415644 0.6431372761726379 0.6470588445663452 0.5764706134796143
0.5817734003067017 0.10753197222948074 0.9901185631752014 0.35686275362968445 0.34117648005485535 0.29411765933036804
0.5812807679176331 0.23164376616477966 0.2960474193096161 0.6352941393852234 0.6470588445663452 0.6745098233222961
0.5729063749313354 0.21901153028011322 0.27430829405784607 0.09803921729326248 0.0941176488995552 0.08627451211214066
0.47389161586761475 0.21490605175495148 0.28458496928215027 0.08627451211214066 0.0941176488995552 0.09019608050584793
0.5714285969734192 0.22280119359493256 0.21620553731918335 0.10980392247438431 0.10588235408067703 0.09019608050584793
0.44950738549232483 0.10247907787561417 0.005533596966415644 0.6509804129600525 0.658823549747467 0.572549045085907
0.5238916277885437 0.13279646635055542 0.0063241105526685715 0.5372549295425415 0.5686274766921997 0.5098039507865906
0.45123153924942017 0.21964314579963684 0.9881423115730286 0.27843138575553894 0.2666666805744171 0.24705882370471954
0.435960590839386 0.1353229135274887 0.005928853526711464 0.6509804129600525 0.6666666865348816 0.5686274766921997
0.5524630546569824 0.09047844260931015 0.9893280863761902 0.3333333432674408 0.32156863808631897 0.2549019753932953
0.4000000059604645 0.11132165044546127 0.007509881630539894 0.6901960968971252 0.6784313917160034 0.6117647290229797
0.5822660326957703 0.21395863592624664 0.9889327883720398 0.4117647111415863 0.4117647111415863 0.40392157435417175
0.5295566320419312 0.10863729566335678 0.005533596966415644 0.6274510025978088 0.6196078658103943 0.5607843399047852
0.4729064106941223 0.22548554837703705 0.2335968315601349 0.11764705926179886 0.12156862765550613 0.13725490868091583
0.3970443308353424 0.21474814414978027 0.24664030969142914 0.05098039284348488 0.0470588244497776 0.03921568766236305
0.47364532947540283 0.21695879101753235 0.19011858105659485 0.0941176488995552 0.10196078568696976 0.09803921729326248
0.45369458198547363 0.13974419236183167 0.9897233247756958 0.3607843220233917 0.3529411852359772 0.29411765933036804
0.46206897497177124 0.17985157668590546 0.9889327883720398 0.30588236451148987 0.29411765933036804 0.25882354378700256
0.4869458079338074 0.11921679973602295 0.005928853526711464 0.7019608020782471 0.7137255072593689 0.6313725709915161
0.4209359586238861 0.17969366908073425 0.9893280863761902 0.3450980484485626 0.33725491166114807 0.29019609093666077
0.5800492763519287 0.22027474641799927 0.0063241105526685715 0.3294117748737335 0.3333333432674408 0.27843138575553894
0.5201970338821411 0.12205905467271805 0.9897233247756958 0.3803921639919281 0.364705890417099 0.32156863808631897
0.5618226528167725 0.22232748568058014 0.005928853526711464 0.20000000298023224 0.20000000298023224 0.15294118225574493
0.5261083841323853 0.12205905467271805 0.005928853526711464 0.5960784554481506 0.6274510025978088 0.545098066329956
0.5911329984664917 0.22359071671962738 0.1984189748764038 0.11764705926179886 0.12156862765550613 0.10196078568696976
0.400738924741745 0.1436917781829834 0.005928853526711464 0.7019608020782471 0.7215686440467834 0.6352941393852234
0.45394089818000793 0.2302226424217224 0.005928853526711464 0.23137255012989044 0.21960784494876862 0.18431372940540314
0.37438422441482544 0.21648508310317993 0.9889327883720398 0.29411765933036804 0.27843138575553894 0.2666666805744171
0.4125615656375885 0.14274436235427856 0.9897233247756958 0.364705890417099 0.3490196168422699 0.30588236451148987
0.584482729434967 0.22453813254833221 0.9889327883720398 0.364705890417099 0.34117648005485535 0.35686275362968445
0.42635467648506165 0.08984683454036713 0.0063241105526685715 0.5686274766921997 0.5568627715110779 0.48235294222831726
0.43497535586357117 0.21048475801944733 0.26719367504119873 0.10588235408067703 0.10196078568696976 0.08627451211214066
0.3842364549636841 0.1264803409576416 0.005928853526711464 0.5686274766921997 0.5686274766921997 0.529411792755127
0.43842363357543945 0.14258645474910736 0.9897233247756958 0.3490196168422699 0.3333333432674408 0.29019609093666077
0.5431034564971924 0.1924838125705719 0.9897233247756958 0.37254902720451355 0.3686274588108063 0.3490196168422699
0.47487685084342957 0.23338070511817932 0.29328063130378723 0.6470588445663452 0.6980392336845398 0.6705882549285889
0.45443350076675415 0.2210642695426941 0.9885375499725342 0.239215686917305 0.22745098173618317 0.2078431397676468
0.4096059203147888 0.178430438041687 0.005928853526711464 0.5254902243614197 0.5411764979362488 0.48235294222831726
0.5773398876190186 0.14511290192604065 0.9905138611793518 0.3686274588108063 0.35686275362968445 0.3294117748737335
0.42635467648506165 0.23148587346076965 0.9885375499725342 0.24313725531101227 0.23137255012989044 0.20392157137393951
0.48226600885391235 0.17985157668590546 0.9889327883720398 0.3686274588108063 0.3529411852359772 0.30980393290519714
0.41502463817596436 0.22911731898784637 0.29486167430877686 0.5960784554481506 0.6313725709915161 0.6509804129600525
0.6110837459564209 0.2100110501050949 0.28814229369163513 0.11372549086809158 0.11372549086809158 0.10588235408067703
0.506157636642456 0.19785252213478088 0.9893280863761902 0.3607843220233917 0.3490196168422699 0.32156863808631897
0.43497535586357117 0.08305700123310089 0.9893280863761902 0.40784314274787903 0.3686274588108063 0.32156863808631897
0.5160098671913147 0.1492183804512024 0.0063241105526685715 0.5960784554481506 0.6078431606292725 0.5333333611488342
0.4524630606174469 0.1354808211326599 0.9897233247756958 0.3686274588108063 0.35686275362968445 0.2980392277240753
0.44211822748184204 0.2302226424217224 0.17786560952663422 0.054901961237192154 0.07058823853731155 0.08235294371843338
0.5911329984664917 0.08195168524980545 0.9893280863761902 0.38823530077934265 0.364705890417099 0.3176470696926117
0.4135468006134033 0.09016264230012894 0.0071146246045827866 0.6352941393852234 0.6313725709915161 0.5607843399047852
0.4729064106941223 0.21427443623542786 0.1818181872367859 0.2666666805744171 0.2862745225429535 0.2705882489681244
0.5160098671913147 0.09063635021448135 0.005138339940458536 0.686274528503418 0.6784313917160034 0.6196078658103943
0.5970443487167358 0.15048161149024963 0.005928853526711464 0.6235294342041016 0.6313725709915161 0.5803921818733215
0.43817734718322754 0.20558977127075195 0.9885375499725342 0.3176470696926117 0.30588236451148987 0.2862745225429535
0.5150246024131775 0.09868940711021423 0.005533596966415644 0.7333333492279053 0.7372549176216125 0.6666666865348816
0.4524630606174469 0.2330649048089981 0.005928853526711464 0.24313725531101227 0.22745098173618317 0.18039216101169586
0.4283251166343689 0.143375962972641 0.9897233247756958 0.3607843220233917 0.3450980484485626 0.2980392277240753
0.5684729218482971 0.17021948099136353 0.9901185631752014 0.3843137323856354 0.3803921639919281 0.3607843220233917
0.43916255235671997 0.09000473469495773 0.005928853526711464 0.6509804129600525 0.6549019813537598 0.5921568870544434
0.4566502571105957 0.21143217384815216 0.17391304671764374 0.1411764770746231 0.1411764770746231 0.13333334028720856
0.49852216243743896 0.15442918241024017 0.0063241105526685715 0.615686297416687 0.6470588445663452 0.5647059082984924
0.42660099267959595 0.13927048444747925 0.9897233247756958 0.38823530077934265 0.35686275362968445 0.3137255012989044
0.5726600885391235 0.0862150639295578 0.9893280863761902 0.3921568691730499 0.3686274588108063 0.32156863808631897
0.44187191128730774 0.17385125160217285 0.9889327883720398 0.3490196168422699 0.34117648005485535 0.29411765933036804
0.5091133117675781 0.14874467253684998 0.9897233247756958 0.3686274588108063 0.3529411852359772 0.30980393290519714
0.615517258644104 0.21032686531543732 0.991304337978363 0.929411768913269 0.9647058844566345 0.9843137264251709
0.39113301038742065 0.07926733046770096 0.9893280863761902 0.3960784375667572 0.3607843220233917 0.32549020648002625
0.5199507474899292 0.17148271203041077 0.9897233247756958 0.3764705955982208 0.3607843220233917 0.3176470696926117
0.5842364430427551 0.2183799147605896 0.2976284623146057 0.23137255012989044 0.24313725531101227 0.26274511218070984
0.37487685680389404 0.19611558318138123 0.0063241105526685715 0.4941176474094391 0.48627451062202454 0.43529412150382996
0.38300493359565735 0.16232433915138245 0.9897233247756958 0.29019609093666077 0.27843138575553894 0.25882354378700256
0.5177339911460876 0.23101216554641724 0.29525691270828247 0.5176470875740051 0.5647059082984924 0.5647059082984924
0.44950738549232483 0.2128533124923706 0.22727273404598236 0.11372549086809158 0.10980392247438431 0.0941176488995552
0.4529556632041931 0.2100110501050949 0.9885375499725342 0.2823529541492462 0.2705882489681244 0.24313725531101227
0.5623152852058411 0.08937312662601471 0.005533596966415644 0.615686297416687 0.6039215922355652 0.5372549295425415
0.37906405329704285 0.11274277418851852 0.9901185631752014 0.364705890417099 0.3490196168422699 0.3019607961177826
0.5879310369491577 0.2183799147605896 0.2972331941127777 0.23529411852359772 0.250980406999588 0.26274511218070984
0.5918719172477722 0.07942523062229156 0.005533596966415644 0.5490196347236633 0.5529412031173706 0.49803921580314636
0.463300496339798 0.12032212316989899 0.005533596966415644 0.5529412031173706 0.5568627715110779 0.4941176474094391
0.4669950604438782 0.1869572103023529 0.005928853526711464 0.5843137502670288 0.5960784554481506 0.5529412031173706
0.5812807679176331 0.21932733058929443 0.0063241105526685715 0.3137255012989044 0.3176470696926117 0.2549019753932953
0.38349753618240356 0.12521710991859436 0.005928853526711464 0.4901960790157318 0.4901960790157318 0.4588235318660736
0.3970443308353424 0.10847939550876617 0.006719367578625679 0.6901960968971252 0.686274528503418 0.615686297416687
0.5778325200080872 0.2038528323173523 0.0063241105526685715 0.5490196347236633 0.5411764979362488 0.48235294222831726
0.48645320534706116 0.21664297580718994 0.9889327883720398 0.3137255012989044 0.3019607961177826 0.27450981736183167
0.5007389187812805 0.20622138679027557 0.005928853526711464 0.48627451062202454 0.4941176474094391 0.45098039507865906
0.5310344696044922 0.18869413435459137 0.9897233247756958 0.3607843220233917 0.3490196168422699 0.32156863808631897
0.4655172526836395 0.13721774518489838 0.9893280863761902 0.38823530077934265 0.37254902720451355 0.32549020648002625
0.5189655423164368 0.20480024814605713 0.005928853526711464 0.32549020648002625 0.3294117748737335 0.2980392277240753
0.46206897497177124 0.21474814414978027 0.9885375499725342 0.3333333432674408 0.32156863808631897 0.2862745225429535
0.46182265877723694 0.19358913600444794 0.005928853526711464 0.4941176474094391 0.501960813999176 0.4470588266849518
0.5187191963195801 0.15885046124458313 0.9897233247756958 0.37254902720451355 0.35686275362968445 0.3137255012989044
0.44950738549232483 0.10768987983465195 0.005533596966415644 0.686274528503418 0.6941176652908325 0.6000000238418579
0.4411329925060272 0.2096952497959137 0.15375493466854095 0.15294118225574493 0.1411764770746231 0.12156862765550613
0.40615764260292053 0.12805937230587006 0.9901185631752014 0.3921568691730499 0.3686274588108063 0.3137255012989044
0.4894088804721832 0.19895784556865692 0.9889327883720398 0.3686274588108063 0.3607843220233917 0.3137255012989044
0.39064040780067444 0.19674719870090485 0.005928853526711464 0.5372549295425415 0.545098066329956 0.4941176474094391
0.39507389068603516 0.22216959297657013 0.9885375499725342 0.27843138575553894 0.2666666805744171 0.239215686917305
0.39113301038742065 0.21980103850364685 0.2960474193096161 0.5921568870544434 0.6274510025978088 0.6470588445663452
0.5155172348022461 0.15427127480506897 0.9897233247756958 0.35686275362968445 0.34117648005485535 0.30588236451148987
0.48226600885391235 0.18016737699508667 0.9889327883720398 0.364705890417099 0.3490196168422699 0.30588236451148987
0.4724137783050537 0.21490605175495148 0.27984189987182617 0.09019608050584793 0.09019608050584793 0.09019608050584793
0.5029556751251221 0.09316279739141464 0.9897233247756958 0.3843137323856354 0.37254902720451355 0.3137255012989044
0.5549260973930359 0.2183799147605896 0.291304349899292 0.11764705926179886 0.11764705926179886 0.10980392247438431
0.6032019853591919 0.22311700880527496 0.9901185631752014 0.3960784375667572 0.3960784375667572 0.40392157435417175
0.6007389426231384 0.13737565279006958 0.005928853526711464 0.5764706134796143 0.5921568870544434 0.5372549295425415
0.4044334888458252 0.2128533124923706 0.27351778745651245 0.09803921729326248 0.0941176488995552 0.0784313753247261
0.5642856955528259 0.13848097622394562 0.9905138611793518 0.35686275362968445 0.3450980484485626 0.3176470696926117
0.46600985527038574 0.19216801226139069 0.005928853526711464 0.5529412031173706 0.5607843399047852 0.5058823823928833
0.6002463102340698 0.18774671852588654 0.005928853526711464 0.5098039507865906 0.5098039507865906 0.4627451002597809
0.3980295658111572 0.12237486243247986 0.005928853526711464 0.7098039388656616 0.7176470756530762 0.6313725709915161
0.4571428596973419 0.21948523819446564 0.0063241105526685715 0.3764705955982208 0.3686274588108063 0.3176470696926117
0.44950738549232483 0.10768987983465195 0.005533596966415644 0.686274528503418 0.6941176652908325 0.6000000238418579
0.576600968837738 0.20464235544204712 0.0063241105526685715 0.3960784375667572 0.38823530077934265 0.33725491166114807
0.42635467648506165 0.16264013946056366 0.005928853526711464 0.6039215922355652 0.6117647290229797 0.529411792755127
0.5275862216949463 0.11669035255908966 0.005928853526711464 0.5960784554481506 0.6352941393852234 0.5411764979362488
0.5002462863922119 0.21932733058929443 0.9889327883720398 0.3450980484485626 0.3450980484485626 0.3137255012989044
0.39014777541160583 0.22927522659301758 0.9885375499725342 0.30588236451148987 0.29411765933036804 0.27450981736183167
0.5630542039871216 0.19974735379219055 0.0063241105526685715 0.48235294222831726 0.47058823704719543 0.43529412150382996
0.3741379380226135 0.16595610976219177 0.005928853526711464 0.6509804129600525 0.6627451181411743 0.5882353186607361
0.5568965673446655 0.08495184034109116 0.9893280863761902 0.364705890417099 0.34117648005485535 0.2862745225429535
0.5586206912994385 0.2212221622467041 0.2707509994506836 0.10588235408067703 0.10196078568696976 0.0941176488995552
0.48128077387809753 0.21459023654460907 0.9889327883720398 0.32156863808631897 0.30980393290519714 0.2823529541492462
0.5758620500564575 0.18537817895412445 0.005928853526711464 0.43529412150382996 0.4431372582912445 0.3921568691730499
0.5945813059806824 0.19485236704349518 0.005928853526711464 0.4745098054409027 0.46666666865348816 0.40784314274787903
0.6083743572235107 0.13627032935619354 0.005928853526711464 0.6431372761726379 0.6509804129600525 0.6000000238418579
0.6059113144874573 0.21616926789283752 0.156521737575531 0.13725490868091583 0.13333334028720856 0.11764705926179886
0.4036945700645447 0.22564345598220825 0.0063241105526685715 0.3803921639919281 0.37254902720451355 0.3137255012989044
0.4891625642776489 0.11242696642875671 0.005533596966415644 0.5254902243614197 0.5372549295425415 0.47058823704719543
0.41083744168281555 0.14779725670814514 0.9897233247756958 0.3176470696926117 0.3019607961177826 0.25882354378700256
0.5487684607505798 0.2216958850622177 0.005928853526711464 0.07058823853731155 0.07058823853731155 0.07058823853731155
0.5310344696044922 0.13011211156845093 0.0063241105526685715 0.572549045085907 0.5843137502670288 0.501960813999176
0.4246305525302887 0.20795831084251404 0.16403162479400635 0.09803921729326248 0.0941176488995552 0.0784313753247261
0.4334975481033325 0.17637769877910614 0.9893280863761902 0.3607843220233917 0.3529411852359772 0.30588236451148987
0.440640389919281 0.16279804706573486 0.9893280863761902 0.35686275362968445 0.34117648005485535 0.2980392277240753
0.4411329925060272 0.08574135601520538 0.9893280863761902 0.3686274588108063 0.3294117748737335 0.2823529541492462
0.4041872024536133 0.22074845433235168 0.2956521809101105 0.5803921818733215 0.6235294342041016 0.6313725709915161
0.5682265758514404 0.10611084848642349 0.005928853526711464 0.5882353186607361 0.5960784554481506 0.5137255191802979
0.4554187059402466 0.13737565279006958 0.005928853526711464 0.6666666865348816 0.6823529601097107 0.5921568870544434
0.47044333815574646 0.21206378936767578 0.16877470910549164 0.1411764770746231 0.1411764770746231 0.1411764770746231
0.4692118167877197 0.2150639444589615 0.26363635063171387 0.10196078568696976 0.09803921729326248 0.09019608050584793
0.4177339971065521 0.20811621844768524 0.17075099050998688 0.09803921729326248 0.09803921729326248 0.09019608050584793
0.4371921122074127 0.2100110501050949 0.27826085686683655 0.09803921729326248 0.0941176488995552 0.08627451211214066
0.5975369215011597 0.18522027134895325 0.005928853526711464 0.5411764979362488 0.5411764979362488 0.501960813999176
0.5376847386360168 0.1640612632036209 0.0063241105526685715 0.5607843399047852 0.5647059082984924 0.4941176474094391
0.49753695726394653 0.19990526139736176 0.9889327883720398 0.3686274588108063 0.35686275362968445 0.32156863808631897
0.4881773293018341 0.23338070511817932 0.18142291903495789 0.4470588266849518 0.45490196347236633 0.40392157435417175
0.47783252596855164 0.10500552505254745 0.9893280863761902 0.3686274588108063 0.33725491166114807 0.2862745225429535
0.40615764260292053 0.19437864422798157 0.005928853526711464 0.6313725709915161 0.6313725709915161 0.5843137502670288
0.46576353907585144 0.08684667944908142 0.9893280863761902 0.3843137323856354 0.37254902720451355 0.3137255012989044
0.3761083781719208 0.13674403727054596 0.005928853526711464 0.6313725709915161 0.6431372761726379 0.6000000238418579
0.4894088804721832 0.22611716389656067 0.9885375499725342 0.30588236451148987 0.3019607961177826 0.2823529541492462
0.5406404137611389 0.09868940711021423 0.005533596966415644 0.5568627715110779 0.5607843399047852 0.4901960790157318
0.3958128094673157 0.1149534210562706 0.9897233247756958 0.3529411852359772 0.3176470696926117 0.2823529541492462
0.43054187297821045 0.11700616031885147 0.005533596966415644 0.6823529601097107 0.6745098233222961 0.6274510025978088
0.3763546943664551 0.16327175498008728 0.005928853526711464 0.6039215922355652 0.6196078658103943 0.5215686559677124
0.557881772518158 0.22059056162834167 0.2968379557132721 0.21176470816135406 0.21568627655506134 0.23137255012989044
0.46970441937446594 0.20874783396720886 0.005928853526711464 0.4431372582912445 0.43529412150382996 0.38823530077934265
0.4096059203147888 0.23180167376995087 0.0063241105526685715 0.26274511218070984 0.239215686917305 0.18431372940540314
0.5266009569168091 0.15300805866718292 0.9897233247756958 0.37254902720451355 0.3529411852359772 0.3294117748737335
0.5512315034866333 0.17132480442523956 0.0063241105526685715 0.5058823823928833 0.5137255191802979 0.4627451002597809
0.4241379201412201 0.2008526772260666 0.005928853526711464 0.5333333611488342 0.5333333611488342 0.501960813999176
0.45344826579093933 0.13058581948280334 0.9897233247756958 0.3764705955982208 0.3529411852359772 0.30588236451148987
0.46600985527038574 0.21174798905849457 0.17035573720932007 0.14509804546833038 0.14509804546833038 0.14509804546833038
0.5679802894592285 0.14716564118862152 0.006719367578625679 0.5764706134796143 0.5882353186607361 0.5137255191802979
0.615517258644104 0.16311384737491608 0.005533596966415644 0.5921568870544434 0.6078431606292725 0.5490196347236633
0.5913792848587036 0.16706141829490662 0.9905138611793518 0.40784314274787903 0.3921568691730499 0.3803921639919281
0.42290639877319336 0.1983262300491333 0.9889327883720398 0.30588236451148987 0.29411765933036804 0.2666666805744171
0.3975369334220886 0.09395231306552887 0.9893280863761902 0.3960784375667572 0.3686274588108063 0.3294117748737335
0.4408867061138153 0.16279804706573486 0.9893280863761902 0.35686275362968445 0.34117648005485535 0.2980392277240753
0.437438428401947 0.22848570346832275 0.29446640610694885 0.5529412031173706 0.6078431606292725 0.6078431606292725
0.4475369453430176 0.21143217384815216 0.1462450623512268 0.23529411852359772 0.21960784494876862 0.1764705926179886
0.45911329984664917 0.08510974049568176 0.9893280863761902 0.3803921639919281 0.3490196168422699 0.2980392277240753
0.4490147829055786 0.15869256854057312 0.005928853526711464 0.6705882549285889 0.6784313917160034 0.6235294342041016
0.4128078818321228 0.23464392125606537 0.9885375499725342 0.2980392277240753 0.2862745225429535 0.2666666805744171
0.5421182513237 0.1957997828722 0.9893280863761902 0.3686274588108063 0.364705890417099 0.3450980484485626
0.501477837562561 0.2014842927455902 0.005928853526711464 0.6313725709915161 0.6313725709915161 0.5921568870544434
0.4238916337490082 0.21601137518882751 0.19051383435726166 0.08627451211214066 0.08627451211214066 0.0784313753247261
0.45369458198547363 0.08747828751802444 0.9893280863761902 0.3960784375667572 0.37254902720451355 0.3176470696926117
0.4093596041202545 0.14448128640651703 0.005928853526711464 0.545098066329956 0.5529412031173706 0.501960813999176
0.5958127975463867 0.17685140669345856 0.9901185631752014 0.4156862795352936 0.4156862795352936 0.42352941632270813
0.5876847505569458 0.2098531574010849 0.29486167430877686 0.08235294371843338 0.08235294371843338 0.07450980693101883
0.5566502213478088 0.2270645797252655 0.2501976191997528 0.11764705926179886 0.11372549086809158 0.09803921729326248
0.5241379141807556 0.22611716389656067 0.9885375499725342 0.3490196168422699 0.3450980484485626 0.32549020648002625
0.5280787944793701 0.11542712897062302 0.005928853526711464 0.6274510025978088 0.6352941393852234 0.5529412031173706
0.42709359526634216 0.16595610976219177 0.9893280863761902 0.33725491166114807 0.3294117748737335 0.27843138575553894
0.38793104887008667 0.13832306861877441 0.005928853526711464 0.572549045085907 0.5607843399047852 0.4941176474094391
0.6036945581436157 0.11447971314191818 0.9901185631752014 0.34117648005485535 0.32549020648002625 0.2823529541492462
0.39482757449150085 0.08763618767261505 0.9893280863761902 0.3921568691730499 0.35686275362968445 0.32156863808631897
0.49334976077079773 0.1436917781829834 0.0063241105526685715 0.6078431606292725 0.615686297416687 0.5607843399047852
0.4332512319087982 0.14874467253684998 0.005928853526711464 0.529411792755127 0.5647059082984924 0.48235294222831726
0.5896551609039307 0.1841149479150772 0.005928853526711464 0.5215686559677124 0.5254902243614197 0.45490196347236633
0.6027093529701233 0.21790620684623718 0.14664031565189362 0.21176470816135406 0.20000000298023224 0.16470588743686676
0.5761083960533142 0.22516974806785583 0.005928853526711464 0.2862745225429535 0.27450981736183167 0.20000000298023224
0.5216748714447021 0.15458709001541138 0.9897233247756958 0.364705890417099 0.3490196168422699 0.3137255012989044
0.554679811000824 0.22232748568058014 0.19644269347190857 0.09019608050584793 0.09019608050584793 0.08235294371843338
0.45812806487083435 0.23132796585559845 0.17865613102912903 0.4627451002597809 0.4941176474094391 0.45098039507865906
0.4172413647174835 0.14006000757217407 0.9897233247756958 0.37254902720451355 0.35686275362968445 0.3137255012989044
0.5298029780387878 0.18300963938236237 0.9897233247756958 0.3686274588108063 0.35686275362968445 0.32156863808631897
0.403940886259079 0.2125374972820282 0.1826086938381195 0.2078431397676468 0.21568627655506134 0.20392157137393951
0.5738916397094727 0.13958629965782166 0.0063241105526685715 0.6470588445663452 0.6549019813537598 0.6000000238418579
0.408620685338974 0.13642823696136475 0.005533596966415644 0.5803921818733215 0.5960784554481506 0.5058823823928833
0.44975370168685913 0.1522185355424881 0.9893280863761902 0.3450980484485626 0.3294117748737335 0.2862745225429535
0.5953202247619629 0.17179851233959198 0.9901185631752014 0.41960784792900085 0.41960784792900085 0.4274509847164154
0.6083743572235107 0.22311700880527496 0.2035573124885559 0.08627451211214066 0.07058823853731155 0.05882352963089943
0.5921182036399841 0.2182220071554184 0.17470355331897736 0.1411764770746231 0.1411764770746231 0.1411764770746231
0.5487684607505798 0.2216958850622177 0.005928853526711464 0.07058823853731155 0.07058823853731155 0.07058823853731155
0.4290640354156494 0.12395389378070831 0.9901185631752014 0.3764705955982208 0.3529411852359772 0.30588236451148987
0.4238916337490082 0.22516974806785583 0.29486167430877686 0.5960784554481506 0.6392157077789307 0.6470588445663452
0.6068965792655945 0.12821727991104126 0.9905138611793518 0.3176470696926117 0.30588236451148987 0.27843138575553894
0.5950738787651062 0.1839570552110672 0.005928853526711464 0.658823549747467 0.658823549747467 0.6117647290229797
0.41403940320014954 0.10153166204690933 0.9897233247756958 0.3843137323856354 0.3529411852359772 0.30980393290519714
0.47857141494750977 0.21395863592624664 0.17984189093112946 0.26274511218070984 0.2823529541492462 0.2666666805744171
0.4475369453430176 0.21885362267494202 0.0063241105526685715 0.24705882370471954 0.23529411852359772 0.16862745583057404
0.39064040780067444 0.2011684775352478 0.9893280863761902 0.3333333432674408 0.32156863808631897 0.3019607961177826
0.492118239402771 0.11116374284029007 0.005533596966415644 0.5607843399047852 0.5960784554481506 0.529411792755127
0.4209359586238861 0.2128533124923706 0.9885375499725342 0.2980392277240753 0.2862745225429535 0.25882354378700256
0.614039421081543 0.2098531574010849 0.29169961810112 0.11372549086809158 0.12156862765550613 0.10980392247438431
0.5810344815254211 0.1582188606262207 0.0063241105526685715 0.5568627715110779 0.572549045085907 0.5176470875740051
0.6027093529701233 0.11574293673038483 0.9901185631752014 0.35686275362968445 0.34117648005485535 0.2980392277240753
0.47389161586761475 0.11147955060005188 0.9897233247756958 0.3960784375667572 0.37254902720451355 0.3176470696926117
0.41502463817596436 0.09868940711021423 0.9893280863761902 0.3921568691730499 0.3529411852359772 0.3137255012989044
0.5487684607505798 0.07989893853664398 0.005138339940458536 0.5568627715110779 0.572549045085907 0.5137255191802979
0.47512316703796387 0.09695246815681458 0.9897233247756958 0.3921568691730499 0.3607843220233917 0.30980393290519714
0.5995073914527893 0.1293226033449173 0.9905138611793518 0.364705890417099 0.3529411852359772 0.32549020648002625
0.5645320415496826 0.23069635033607483 0.005928853526711464 0.21176470816135406 0.20000000298023224 0.1725490242242813
0.615517258644104 0.22264330089092255 0.208695650100708 0.08235294371843338 0.0784313753247261 0.062745101749897
0.4613300561904907 0.20290541648864746 0.9885375499725342 0.3490196168422699 0.3333333432674408 0.2980392277240753
0.47315269708633423 0.20527395606040955 0.005928853526711464 0.4627451002597809 0.4627451002597809 0.42352941632270813
0.5091133117675781 0.15600821375846863 0.0063241105526685715 0.6431372761726379 0.658823549747467 0.5921568870544434
0.4770936071872711 0.21095846593379974 0.14703556895256042 0.2078431397676468 0.20000000298023224 0.15294118225574493
