0.12536945939064026 0.49818411469459534 0.007905138656497002 0.529411792755127 0.5215686559677124 0.42352941632270813
0.30738916993141174 0.6249802708625793 0.9916995763778687 0.26274511218070984 0.250980406999588 0.23137255012989044
0.2689655125141144 0.49028897285461426 0.9901185631752014 0.364705890417099 0.3686274588108063 0.3137255012989044
0.31847289204597473 0.535291314125061 0.007905138656497002 0.48235294222831726 0.4588235318660736 0.35686275362968445
0.222660094499588 0.6264013648033142 0.9940711259841919 0.3529411852359772 0.3529411852359772 0.3529411852359772
0.3568965494632721 0.4893415570259094 0.3122529685497284 0.18039216101169586 0.18431372940540314 0.1921568661928177
0.31625616550445557 0.5247118473052979 0.9905138611793518 0.4000000059604645 0.4000000059604645 0.3529411852359772
0.12832511961460114 0.5026053786277771 0.9901185631752014 0.3921568691730499 0.3764705955982208 0.3333333432674408
0.3463054299354553 0.5523448586463928 0.27351778745651245 0.10588235408067703 0.10588235408067703 0.09803921729326248
0.2100985199213028 0.5946629047393799 0.991304337978363 0.35686275362968445 0.35686275362968445 0.3176470696926117
0.2935960590839386 0.5594505071640015 0.9909090995788574 0.3843137323856354 0.37254902720451355 0.33725491166114807
0.35172414779663086 0.5427127480506897 0.00830039568245411 0.615686297416687 0.6274510025978088 0.5529412031173706
0.3251231610774994 0.5662403106689453 0.007509881630539894 0.43529412150382996 0.4117647111415863 0.364705890417099
0.24827586114406586 0.6257697939872742 0.9936758875846863 0.3490196168422699 0.35686275362968445 0.3529411852359772
0.33596059679985046 0.4882362186908722 0.00909090880304575 0.5647059082984924 0.5568627715110779 0.46666666865348816
0.2219211757183075 0.5067108869552612 0.006719367578625679 0.6352941393852234 0.6392157077789307 0.5764706134796143
0.27192118763923645 0.5847150087356567 0.0071146246045827866 0.5764706134796143 0.5921568870544434 0.48627451062202454
0.14433497190475464 0.6316121816635132 0.991304337978363 0.35686275362968445 0.3450980484485626 0.30980393290519714
0.35960590839385986 0.610137403011322 0.9916995763778687 0.3333333432674408 0.3333333432674408 0.32549020648002625
0.2140394151210785 0.4793936610221863 0.9901185631752014 0.40392157435417175 0.38823530077934265 0.3529411852359772
0.14852216839790344 0.5968735218048096 0.991304337978363 0.3294117748737335 0.3294117748737335 0.29019609093666077
0.3103448152542114 0.4800252616405487 0.9901185631752014 0.42352941632270813 0.4117647111415863 0.3764705955982208
0.28374382853507996 0.5657666325569153 0.9909090995788574 0.35686275362968445 0.3450980484485626 0.30980393290519714
0.2337438464164734 0.610453188419342 0.007509881630539894 0.658823549747467 0.6352941393852234 0.572549045085907
0.31477832794189453 0.4882362186908722 0.9901185631752014 0.38823530077934265 0.3764705955982208 0.34117648005485535
0.28004926443099976 0.4966050982475281 0.007509881630539894 0.545098066329956 0.529411792755127 0.48235294222831726
0.35862070322036743 0.5026053786277771 0.036758892238140106 0.3333333432674408 0.32549020648002625 0.27843138575553894
0.35467979311943054 0.5423969626426697 0.2181818187236786 0.13725490868091583 0.13725490868091583 0.12941177189350128
0.19236452877521515 0.6136112213134766 0.007905138656497002 0.5254902243614197 0.5215686559677124 0.45098039507865906
0.34704434871673584 0.5657666325569153 0.1612648218870163 0.10980392247438431 0.11764705926179886 0.10588235408067703
0.36748769879341125 0.6142428517341614 0.9916995763778687 0.3333333432674408 0.3176470696926117 0.3137255012989044
0.33128079771995544 0.5673456788063049 0.991304337978363 0.364705890417099 0.3529411852359772 0.3333333432674408
0.35837438702583313 0.5360808372497559 0.20079050958156586 0.10588235408067703 0.125490203499794 0.10980392247438431
0.22881773114204407 0.49028897285461426 0.9901185631752014 0.4274509847164154 0.4156862795352936 0.38823530077934265
0.35123151540756226 0.5416074395179749 0.00830039568245411 0.49803921580314636 0.5098039507865906 0.43529412150382996
0.33891624212265015 0.4740249514579773 0.008695651777088642 0.6352941393852234 0.6313725709915161 0.5607843399047852
0.16945812106132507 0.5706616044044495 0.9909090995788574 0.3490196168422699 0.34117648005485535 0.29411765933036804
0.13620689511299133 0.5749250054359436 0.9909090995788574 0.29411765933036804 0.29411765933036804 0.24705882370471954
0.28719210624694824 0.5057634711265564 0.9905138611793518 0.4117647111415863 0.4000000059604645 0.364705890417099
0.15665024518966675 0.5730301737785339 0.007509881630539894 0.5333333611488342 0.5490196347236633 0.48235294222831726
0.2830049395561218 0.6218221783638 0.007509881630539894 0.501960813999176 0.49803921580314636 0.41960784792900085
0.31871920824050903 0.5543975830078125 0.9909090995788574 0.3843137323856354 0.37254902720451355 0.3450980484485626
0.2822660207748413 0.5932417511940002 0.991304337978363 0.38823530077934265 0.3843137323856354 0.364705890417099
0.18423645198345184 0.556766152381897 0.9905138611793518 0.3764705955982208 0.3686274588108063 0.3176470696926117
0.2770935893058777 0.5518711805343628 0.9909090995788574 0.37254902720451355 0.37254902720451355 0.3333333432674408
0.23275862634181976 0.5555028915405273 0.006719367578625679 0.6196078658103943 0.6352941393852234 0.545098066329956
0.17758621275424957 0.5190272927284241 0.0071146246045827866 0.6196078658103943 0.6313725709915161 0.5490196347236633
0.3495073914527893 0.6042949557304382 0.007905138656497002 0.5529412031173706 0.5333333611488342 0.4588235318660736
0.3379310369491577 0.556924045085907 0.9909090995788574 0.4431372582912445 0.43921568989753723 0.42352941632270813
0.21650245785713196 0.529291033744812 0.006719367578625679 0.5607843399047852 0.5843137502670288 0.48235294222831726
0.14753694832324982 0.5330806970596313 0.9901185631752014 0.3450980484485626 0.3450980484485626 0.2980392277240753
0.19261083006858826 0.562134861946106 0.0071146246045827866 0.529411792755127 0.5411764979362488 0.4745098054409027
0.20812807977199554 0.5741354823112488 0.0071146246045827866 0.48627451062202454 0.4941176474094391 0.45098039507865906
0.19753694534301758 0.4883941113948822 0.0071146246045827866 0.4901960790157318 0.4941176474094391 0.4313725531101227
0.35443350672721863 0.5561345219612122 0.14703556895256042 0.054901961237192154 0.054901961237192154 0.0470588244497776
0.1669950783252716 0.48413074016571045 0.007905138656497002 0.7450980544090271 0.7411764860153198 0.6627451181411743
0.15738916397094727 0.5382915139198303 0.9901185631752014 0.3529411852359772 0.34117648005485535 0.30588236451148987
0.20517241954803467 0.6001895070075989 0.007509881630539894 0.5254902243614197 0.529411792755127 0.49803921580314636
0.18029557168483734 0.4743407666683197 0.9901185631752014 0.41960784792900085 0.40392157435417175 0.3607843220233917
0.13275861740112305 0.5708194971084595 0.9905138611793518 0.3607843220233917 0.3450980484485626 0.2980392277240753
0.3534482717514038 0.5436601638793945 0.1462450623512268 0.05882352963089943 0.05882352963089943 0.05098039284348488
0.36379310488700867 0.5305542349815369 0.19644269347190857 0.10980392247438431 0.11764705926179886 0.11372549086809158
0.2938423752784729 0.6287699341773987 0.007509881630539894 0.5960784554481506 0.5921568870544434 0.5098039507865906
0.33596059679985046 0.5962418913841248 0.991304337978363 0.3450980484485626 0.34117648005485535 0.3333333432674408
0.2812807857990265 0.5862939953804016 0.991304337978363 0.38823530077934265 0.3764705955982208 0.3490196168422699
0.34433498978614807 0.5070266723632812 0.9905138611793518 0.3490196168422699 0.33725491166114807 0.3019607961177826
0.1544335037469864 0.5231328010559082 0.007509881630539894 0.5411764979362488 0.5490196347236633 0.4941176474094391
0.14581280946731567 0.6175588369369507 0.00830039568245411 0.5372549295425415 0.5803921818733215 0.5176470875740051
0.2975369393825531 0.5562924146652222 0.0071146246045827866 0.5215686559677124 0.5137255191802979 0.4156862795352936
0.26379311084747314 0.5089215040206909 0.9901185631752014 0.42352941632270813 0.40784314274787903 0.364705890417099
0.34778323769569397 0.546344518661499 0.007905138656497002 0.6235294342041016 0.6117647290229797 0.545098066329956
0.3214285671710968 0.4792357385158539 0.008695651777088642 0.5921568870544434 0.5803921818733215 0.5137255191802979
0.23275862634181976 0.5867677330970764 0.0071146246045827866 0.7019608020782471 0.6980392336845398 0.615686297416687
0.12906403839588165 0.5757145285606384 0.9909090995788574 0.3294117748737335 0.3176470696926117 0.2823529541492462
0.12463054060935974 0.5615032315254211 0.007905138656497002 0.5176470875740051 0.5568627715110779 0.5137255191802979
0.2421182245016098 0.6230854392051697 0.007509881630539894 0.5764706134796143 0.572549045085907 0.501960813999176
0.34310343861579895 0.5262908339500427 0.00909090880304575 0.46666666865348816 0.4588235318660736 0.4000000059604645
0.2985221743583679 0.5248697400093079 0.9905138611793518 0.41960784792900085 0.40392157435417175 0.3686274588108063
0.2573891580104828 0.627032995223999 0.9940711259841919 0.364705890417099 0.3686274588108063 0.3490196168422699
0.15344826877117157 0.5101847648620605 0.9901185631752014 0.3686274588108063 0.35686275362968445 0.32156863808631897
0.1901477873325348 0.5381335616111755 0.006719367578625679 0.5254902243614197 0.5490196347236633 0.4941176474094391
0.25270935893058777 0.5528185963630676 0.006719367578625679 0.5215686559677124 0.545098066329956 0.4901960790157318
0.309359610080719 0.5345017910003662 0.007905138656497002 0.501960813999176 0.5098039507865906 0.4274509847164154
0.17906403541564941 0.5368703603744507 0.006719367578625679 0.6666666865348816 0.6941176652908325 0.6235294342041016
0.14458128809928894 0.5144481062889099 0.9901185631752014 0.3803921639919281 0.3803921639919281 0.34117648005485535
0.30295565724372864 0.5160271525382996 0.9905138611793518 0.38823530077934265 0.3764705955982208 0.3490196168422699
0.20911329984664917 0.5049739480018616 0.006719367578625679 0.615686297416687 0.5960784554481506 0.5215686559677124
0.23226600885391235 0.5750828981399536 0.9909090995788574 0.35686275362968445 0.35686275362968445 0.3176470696926117
0.3258620798587799 0.5611874461174011 0.991304337978363 0.3764705955982208 0.37254902720451355 0.3529411852359772
0.3694581389427185 0.5308700203895569 0.1513833999633789 0.062745101749897 0.062745101749897 0.062745101749897
0.18497537076473236 0.6235591173171997 0.007905138656497002 0.5764706134796143 0.5568627715110779 0.47843137383461
0.19507388770580292 0.49897363781929016 0.0071146246045827866 0.6470588445663452 0.6509804129600525 0.5960784554481506
0.35886698961257935 0.626717209815979 0.29486167430877686 0.572549045085907 0.6117647290229797 0.6470588445663452
0.35517242550849915 0.5777672529220581 0.20553359389305115 0.0784313753247261 0.0941176488995552 0.09803921729326248
0.1268472969532013 0.5802937150001526 0.9909090995788574 0.2549019753932953 0.24313725531101227 0.2078431397676468
0.158620685338974 0.494552344083786 0.9901185631752014 0.38823530077934265 0.3764705955982208 0.34117648005485535
0.17586207389831543 0.615821897983551 0.007905138656497002 0.6549019813537598 0.6352941393852234 0.5607843399047852
0.3014778196811676 0.5363966226577759 0.9909090995788574 0.38823530077934265 0.3764705955982208 0.3490196168422699
0.3534482717514038 0.494710236787796 0.26166006922721863 0.10588235408067703 0.11372549086809158 0.10980392247438431
0.35172414779663086 0.546186625957489 0.19169960916042328 0.09019608050584793 0.09019608050584793 0.09019608050584793
0.15665024518966675 0.5092373490333557 0.9901185631752014 0.35686275362968445 0.3450980484485626 0.3176470696926117
0.2608374357223511 0.5971893072128296 0.991304337978363 0.35686275362968445 0.3450980484485626 0.3176470696926117
0.1990147829055786 0.5089215040206909 0.9901185631752014 0.3921568691730499 0.3843137323856354 0.3333333432674408
0.2608374357223511 0.6147165894508362 0.9916995763778687 0.3803921639919281 0.3764705955982208 0.3686274588108063
0.21921181678771973 0.5117637515068054 0.006719367578625679 0.5058823823928833 0.5215686559677124 0.45490196347236633
0.3056650161743164 0.567977249622345 0.0071146246045827866 0.4901960790157318 0.48235294222831726 0.42352941632270813
0.2344827651977539 0.5843991637229919 0.9909090995788574 0.37254902720451355 0.37254902720451355 0.3333333432674408
0.2701970338821411 0.4912363886833191 0.9901185631752014 0.3333333432674408 0.3333333432674408 0.2862745225429535
0.230049267411232 0.5081319808959961 0.9901185631752014 0.40392157435417175 0.3921568691730499 0.35686275362968445
0.13669951260089874 0.5616611242294312 0.007509881630539894 0.6117647290229797 0.6196078658103943 0.5254902243614197
0.2862069010734558 0.5529764890670776 0.0071146246045827866 0.6235294342041016 0.6313725709915161 0.5490196347236633
0.3502463102340698 0.6150323748588562 0.00830039568245411 0.501960813999176 0.48235294222831726 0.40784314274787903
0.3285714387893677 0.5823464393615723 0.991304337978363 0.37254902720451355 0.35686275362968445 0.3450980484485626
0.314039409160614 0.546186625957489 0.9909090995788574 0.4000000059604645 0.38823530077934265 0.3607843220233917
0.34729063510894775 0.523922324180603 0.9909090995788574 0.35686275362968445 0.3490196168422699 0.3019607961177826
0.26773399114608765 0.5588188767433167 0.006719367578625679 0.4901960790157318 0.501960813999176 0.4588235318660736
0.22019705176353455 0.62134850025177 0.9928853511810303 0.3686274588108063 0.364705890417099 0.3490196168422699
0.2689655125141144 0.6054002642631531 0.991304337978363 0.3921568691730499 0.3960784375667572 0.3764705955982208
0.3490147888660431 0.5523448586463928 0.2494071125984192 0.11372549086809158 0.11372549086809158 0.10588235408067703
0.25591132044792175 0.5986104607582092 0.007509881630539894 0.48627451062202454 0.49803921580314636 0.4313725531101227
0.23546798527240753 0.5117637515068054 0.006719367578625679 0.5411764979362488 0.5372549295425415 0.45490196347236633
0.3376847207546234 0.6191378235816956 0.00830039568245411 0.37254902720451355 0.364705890417099 0.3137255012989044
0.3694581389427185 0.5217116475105286 0.16521738469600677 0.5764706134796143 0.5960784554481506 0.5686274766921997
0.2581280767917633 0.4852360785007477 0.9901185631752014 0.4000000059604645 0.4000000059604645 0.3607843220233917
0.22364531457424164 0.4830254316329956 0.0071146246045827866 0.501960813999176 0.5137255191802979 0.43921568989753723
0.23251231014728546 0.5176061987876892 0.9901185631752014 0.40784314274787903 0.40784314274787903 0.3607843220233917
0.2733990252017975 0.5641875863075256 0.9909090995788574 0.4156862795352936 0.4000000059604645 0.364705890417099
0.15197044610977173 0.5213958621025085 0.007509881630539894 0.545098066329956 0.5647059082984924 0.47843137383461
0.13251231610774994 0.5264487862586975 0.007509881630539894 0.49803921580314636 0.529411792755127 0.43529412150382996
0.1945812851190567 0.5605558156967163 0.0071146246045827866 0.5176470875740051 0.5176470875740051 0.47058823704719543
0.22463053464889526 0.5256592631340027 0.006719367578625679 0.5607843399047852 0.5568627715110779 0.4745098054409027
0.1783251166343689 0.518237829208374 0.9901185631752014 0.4000000059604645 0.3921568691730499 0.34117648005485535
0.30812808871269226 0.5711353421211243 0.991304337978363 0.33725491166114807 0.32549020648002625 0.2980392277240753
0.1507389098405838 0.54081791639328 0.9901185631752014 0.3686274588108063 0.37254902720451355 0.30980393290519714
0.1633004993200302 0.48981526494026184 0.007905138656497002 0.6039215922355652 0.6078431606292725 0.5372549295425415
0.3610837459564209 0.513027012348175 0.00909090880304575 0.5411764979362488 0.5176470875740051 0.4627451002597809
0.24926108121871948 0.5804516077041626 0.9909090995788574 0.35686275362968445 0.35686275362968445 0.30980393290519714
0.27931034564971924 0.5518711805343628 0.9909090995788574 0.40784314274787903 0.40784314274787903 0.3686274588108063
0.17266009747982025 0.5943470597267151 0.007509881630539894 0.5647059082984924 0.5803921818733215 0.5215686559677124
0.1665024608373642 0.5877151489257812 0.9909090995788574 0.3294117748737335 0.3176470696926117 0.29019609093666077
0.3327586352825165 0.6008210778236389 0.991304337978363 0.29019609093666077 0.27450981736183167 0.2705882489681244
0.3684729039669037 0.5766619443893433 0.991304337978363 0.33725491166114807 0.3333333432674408 0.3176470696926117
0.35985222458839417 0.5856624245643616 0.20118577778339386 0.10588235408067703 0.12156862765550613 0.125490203499794
0.36403942108154297 0.5324490666389465 0.9909090995788574 0.3921568691730499 0.3921568691730499 0.3529411852359772
0.33940887451171875 0.6292436718940735 0.991304337978363 0.32156863808631897 0.3176470696926117 0.3019607961177826
0.3568965494632721 0.4893415570259094 0.3122529685497284 0.18039216101169586 0.18431372940540314 0.1921568661928177
0.36650246381759644 0.5395547151565552 0.29367589950561523 0.46666666865348816 0.5058823823928833 0.501960813999176
0.34802955389022827 0.5218695998191833 0.1557312309741974 0.16862745583057404 0.1764705926179886 0.13333334028720856
0.2573891580104828 0.6134533286094666 0.007509881630539894 0.6313725709915161 0.6274510025978088 0.5490196347236633
0.2972906529903412 0.5597662925720215 0.9909090995788574 0.40784314274787903 0.3960784375667572 0.3607843220233917
0.14753694832324982 0.5310279726982117 0.007509881630539894 0.5882353186607361 0.5647059082984924 0.47058823704719543
0.32413792610168457 0.599399983882904 0.991304337978363 0.3450980484485626 0.3294117748737335 0.3176470696926117
0.336699515581131 0.5316595435142517 0.9909090995788574 0.3686274588108063 0.3686274588108063 0.33725491166114807
0.1827586144208908 0.5065529942512512 0.9901185631752014 0.40784314274787903 0.3960784375667572 0.3607843220233917
0.3522167503833771 0.5414495468139648 0.26798418164253235 0.09803921729326248 0.09803921729326248 0.09019608050584793
0.31896552443504333 0.5531343817710876 0.9909090995788574 0.3960784375667572 0.3843137323856354 0.35686275362968445
0.32413792610168457 0.5746091604232788 0.007509881630539894 0.6039215922355652 0.5921568870544434 0.5333333611488342
0.20492610335350037 0.551397442817688 0.9905138611793518 0.3960784375667572 0.3803921639919281 0.33725491166114807
0.24039408564567566 0.4793936610221863 0.9901185631752014 0.37254902720451355 0.3607843220233917 0.3333333432674408
0.2692118287086487 0.5709774494171143 0.9909090995788574 0.4000000059604645 0.38823530077934265 0.3529411852359772
0.2935960590839386 0.5504500269889832 0.0071146246045827866 0.47843137383461 0.47058823704719543 0.4117647111415863
0.35443350672721863 0.5204484462738037 0.16007904708385468 0.05882352963089943 0.05882352963089943 0.05882352963089943
0.3497537076473236 0.6238749623298645 0.991304337978363 0.3019607961177826 0.29411765933036804 0.2980392277240753
0.2862069010734558 0.4880783259868622 0.007905138656497002 0.6392157077789307 0.6313725709915161 0.5490196347236633
0.24901477992534637 0.5318174362182617 0.006719367578625679 0.48235294222831726 0.47843137383461 0.40784314274787903
0.36330050230026245 0.5907152891159058 0.23833991587162018 0.09803921729326248 0.09803921729326248 0.09019608050584793
0.2655172348022461 0.5465024709701538 0.0071146246045827866 0.5058823823928833 0.5215686559677124 0.4313725531101227
0.2376847267150879 0.573661744594574 0.0071146246045827866 0.545098066329956 0.5333333611488342 0.4745098054409027
0.32684728503227234 0.4997631311416626 0.9905138611793518 0.38823530077934265 0.3803921639919281 0.3333333432674408
0.2975369393825531 0.6006631851196289 0.0071146246045827866 0.5529412031173706 0.5568627715110779 0.4941176474094391
0.25 0.5708194971084595 0.9909090995788574 0.4000000059604645 0.3921568691730499 0.34117648005485535
0.3603448271751404 0.5390809774398804 0.9909090995788574 0.4000000059604645 0.38823530077934265 0.3607843220233917
0.14088669419288635 0.626559317111969 0.00830039568245411 0.5568627715110779 0.5882353186607361 0.5372549295425415
0.3499999940395355 0.5927680134773254 0.991304337978363 0.34117648005485535 0.32549020648002625 0.32156863808631897
0.3337438404560089 0.4918679893016815 0.00909090880304575 0.5921568870544434 0.5843137502670288 0.5333333611488342
0.16034482419490814 0.47591978311538696 0.9901185631752014 0.40784314274787903 0.3960784375667572 0.3607843220233917
0.3142857253551483 0.6012948155403137 0.007509881630539894 0.5647059082984924 0.5568627715110779 0.49803921580314636
0.138669952750206 0.5761882066726685 0.9909090995788574 0.35686275362968445 0.3490196168422699 0.3019607961177826
0.21674877405166626 0.5256592631340027 0.006719367578625679 0.572549045085907 0.5882353186607361 0.5333333611488342
0.15985222160816193 0.5011842846870422 0.007509881630539894 0.6274510025978088 0.6274510025978088 0.5333333611488342
0.2266009896993637 0.6151902675628662 0.9916995763778687 0.34117648005485535 0.33725491166114807 0.3294117748737335
0.3485221564769745 0.5498183965682983 0.9909090995788574 0.3490196168422699 0.3294117748737335 0.30588236451148987
0.17980295419692993 0.5802937150001526 0.9909090995788574 0.35686275362968445 0.3450980484485626 0.3176470696926117
0.2465517222881317 0.4797094464302063 0.9901185631752014 0.3843137323856354 0.3843137323856354 0.3529411852359772
0.2938423752784729 0.6014527082443237 0.991304337978363 0.3764705955982208 0.3686274588108063 0.37254902720451355
0.29975369572639465 0.48365703225135803 0.00830039568245411 0.5764706134796143 0.572549045085907 0.4941176474094391
0.23177340626716614 0.5487130880355835 0.9905138611793518 0.40784314274787903 0.4117647111415863 0.35686275362968445
0.12635467946529388 0.5280277729034424 0.007509881630539894 0.5803921818733215 0.5803921818733215 0.48627451062202454
0.34433498978614807 0.5851886868476868 0.16758893430233002 0.1882352977991104 0.19607843458652496 0.18431372940540314
0.22955664992332458 0.5359229445457458 0.9905138611793518 0.41960784792900085 0.4274509847164154 0.37254902720451355
0.24014778435230255 0.5373440980911255 0.9905138611793518 0.40784314274787903 0.3960784375667572 0.3686274588108063
0.21674877405166626 0.5431864857673645 0.006719367578625679 0.5529412031173706 0.5607843399047852 0.47843137383461
0.19113300740718842 0.5223432779312134 0.9901185631752014 0.3607843220233917 0.3529411852359772 0.29411765933036804
0.3615763485431671 0.5889783501625061 0.25177866220474243 0.10980392247438431 0.10980392247438431 0.10196078568696976
0.18522167205810547 0.6295594573020935 0.007905138656497002 0.45098039507865906 0.48235294222831726 0.43921568989753723
0.3610837459564209 0.49865782260894775 0.15889328718185425 0.38823530077934265 0.3803921639919281 0.32156863808631897
0.14162561297416687 0.5861361026763916 0.9909090995788574 0.32156863808631897 0.30980393290519714 0.2823529541492462
0.2145320177078247 0.5313437581062317 0.006719367578625679 0.5764706134796143 0.5882353186607361 0.5137255191802979
0.15221674740314484 0.494710236787796 0.9901185631752014 0.3764705955982208 0.3686274588108063 0.3176470696926117
0.27635467052459717 0.6068214178085327 0.0071146246045827866 0.5921568870544434 0.5960784554481506 0.5254902243614197
0.2103448212146759 0.529448926448822 0.006719367578625679 0.5921568870544434 0.5882353186607361 0.5176470875740051
0.24901477992534637 0.48997315764427185 0.9901185631752014 0.3921568691730499 0.3843137323856354 0.33725491166114807
0.3495073914527893 0.4937628209590912 0.3023715317249298 0.09019608050584793 0.08235294371843338 0.08627451211214066
0.16798029839992523 0.5201326608657837 0.9901185631752014 0.3960784375667572 0.38823530077934265 0.33725491166114807
0.1426108330488205 0.5231328010559082 0.007509881630539894 0.4745098054409027 0.49803921580314636 0.4431372582912445
0.29655173420906067 0.54034423828125 0.9909090995788574 0.3764705955982208 0.3764705955982208 0.3294117748737335
0.3283251225948334 0.5171324610710144 0.008695651777088642 0.5215686559677124 0.5137255191802979 0.4313725531101227
0.1352216750383377 0.5757145285606384 0.007905138656497002 0.5843137502670288 0.5411764979362488 0.45490196347236633
0.24482758343219757 0.49597346782684326 0.0071146246045827866 0.6000000238418579 0.6039215922355652 0.5411764979362488
0.3541871905326843 0.5439760088920593 0.22015810012817383 0.12941177189350128 0.12941177189350128 0.12156862765550613
0.3482758700847626 0.4825517237186432 0.00909090880304575 0.4627451002597809 0.4588235318660736 0.3803921639919281
0.34384235739707947 0.5539239048957825 0.2814229130744934 0.10196078568696976 0.10196078568696976 0.0941176488995552
0.2221674919128418 0.616137683391571 0.007905138656497002 0.6039215922355652 0.6078431606292725 0.5529412031173706
0.18743842840194702 0.4992894232273102 0.0071146246045827866 0.6823529601097107 0.7019608020782471 0.6235294342041016
0.30320197343826294 0.5411337614059448 0.9909090995788574 0.37254902720451355 0.3607843220233917 0.3333333432674408
0.3261083662509918 0.5168166756629944 0.9905138611793518 0.3764705955982208 0.364705890417099 0.3294117748737335
0.2187192142009735 0.4880783259868622 0.9901185631752014 0.37254902720451355 0.3607843220233917 0.3333333432674408
0.14482758939266205 0.5090793967247009 0.007509881630539894 0.6274510025978088 0.6470588445663452 0.5686274766921997
0.19187192618846893 0.6194536685943604 0.9928853511810303 0.3333333432674408 0.33725491166114807 0.3137255012989044
0.3463054299354553 0.47497236728668213 0.28498023748397827 0.08627451211214066 0.08627451211214066 0.0784313753247261
0.29137930274009705 0.6148744821548462 0.9916995763778687 0.38823530077934265 0.3843137323856354 0.3764705955982208
0.18866994976997375 0.5823464393615723 0.007509881630539894 0.5686274766921997 0.5529412031173706 0.5176470875740051
0.3534482717514038 0.5742933750152588 0.14822134375572205 0.12156862765550613 0.12156862765550613 0.12156862765550613
0.349261075258255 0.4882362186908722 0.291304349899292 0.08627451211214066 0.08627451211214066 0.08627451211214066
0.3615763485431671 0.49534186720848083 0.19683794677257538 0.13725490868091583 0.14509804546833038 0.1411764770746231
0.126600980758667 0.5981367230415344 0.00830039568245411 0.5490196347236633 0.5607843399047852 0.4941176474094391
0.3561576306819916 0.5785567760467529 0.19130434095859528 0.05098039284348488 0.05098039284348488 0.05098039284348488
0.1704433560371399 0.6066635251045227 0.007905138656497002 0.5803921818733215 0.5921568870544434 0.5098039507865906
0.36256158351898193 0.5892941951751709 0.23754940927028656 0.125490203499794 0.125490203499794 0.11764705926179886
0.2066502422094345 0.5032370090484619 0.9901185631752014 0.40784314274787903 0.3960784375667572 0.3607843220233917
0.23497536778450012 0.49913153052330017 0.9901185631752014 0.3960784375667572 0.3960784375667572 0.35686275362968445
0.19113300740718842 0.5065529942512512 0.0071146246045827866 0.6627451181411743 0.6705882549285889 0.5764706134796143
0.27142858505249023 0.6303489804267883 0.9952569007873535 0.7960784435272217 0.8117647171020508 0.8470588326454163
0.2847290635108948 0.5738196969032288 0.0071146246045827866 0.529411792755127 0.5372549295425415 0.45098039507865906
0.2219211757183075 0.48713091015815735 0.9901185631752014 0.40392157435417175 0.3921568691730499 0.364705890417099
0.3105911314487457 0.5057634711265564 0.00830039568245411 0.47843137383461 0.48235294222831726 0.41960784792900085
0.17315271496772766 0.6114006042480469 0.991304337978363 0.3450980484485626 0.3333333432674408 0.30588236451148987
0.3536945879459381 0.5907152891159058 0.16324110329151154 0.11764705926179886 0.125490203499794 0.11372549086809158
0.25172412395477295 0.5924522280693054 0.991304337978363 0.3803921639919281 0.3803921639919281 0.3490196168422699
0.1899014711380005 0.523764431476593 0.9901185631752014 0.364705890417099 0.3490196168422699 0.3019607961177826
0.2807881832122803 0.4850781559944153 0.007509881630539894 0.5647059082984924 0.5686274766921997 0.49803921580314636
0.13694581389427185 0.5594505071640015 0.9905138611793518 0.37254902720451355 0.364705890417099 0.3176470696926117
0.1948275864124298 0.5495026111602783 0.006719367578625679 0.6392157077789307 0.5960784554481506 0.5254902243614197
0.26009851694107056 0.5225011706352234 0.0071146246045827866 0.6196078658103943 0.6000000238418579 0.5215686559677124
0.36354678869247437 0.5633980631828308 0.1505928784608841 0.05098039284348488 0.05098039284348488 0.04313725605607033
0.22931034862995148 0.610611081123352 0.991304337978363 0.3529411852359772 0.3529411852359772 0.3450980484485626
0.3529556691646576 0.557239830493927 0.1462450623512268 0.054901961237192154 0.054901961237192154 0.0470588244497776
0.3534482717514038 0.5206063389778137 0.16956521570682526 0.5372549295425415 0.5372549295425415 0.529411792755127
0.3615763485431671 0.5504500269889832 0.9909090995788574 0.35686275362968445 0.3529411852359772 0.3333333432674408
0.2975369393825531 0.5131849050521851 0.007905138656497002 0.529411792755127 0.5215686559677124 0.47058823704719543
0.2854679822921753 0.49202588200569153 0.007509881630539894 0.5372549295425415 0.529411792755127 0.4470588266849518
0.15665024518966675 0.5730301737785339 0.007509881630539894 0.5333333611488342 0.5490196347236633 0.48235294222831726
0.28054186701774597 0.48113059997558594 0.007509881630539894 0.6078431606292725 0.6000000238418579 0.5098039507865906
0.36231526732444763 0.5215537548065186 0.16916996240615845 0.6117647290229797 0.6313725709915161 0.615686297416687
0.3568965494632721 0.5889783501625061 0.0071146246045827866 0.6235294342041016 0.615686297416687 0.5568627715110779
0.29950737953186035 0.6110848188400269 0.9916995763778687 0.37254902720451355 0.3686274588108063 0.3607843220233917
0.3642857074737549 0.5313437581062317 0.1928853690624237 0.10980392247438431 0.11764705926179886 0.11372549086809158
0.2460591197013855 0.4741828441619873 0.9901185631752014 0.4313725531101227 0.4156862795352936 0.3803921639919281
0.3421182334423065 0.5695562958717346 0.991304337978363 0.3960784375667572 0.3803921639919281 0.3764705955982208
0.3096058964729309 0.6275067329406738 0.9916995763778687 0.27843138575553894 0.27843138575553894 0.24705882370471954
0.3450738787651062 0.5206063389778137 0.00909090880304575 0.43529412150382996 0.43921568989753723 0.40784314274787903
0.35541871190071106 0.5483973026275635 0.20592884719371796 0.1882352977991104 0.1921568661928177 0.20000000298023224
0.15221674740314484 0.5008684396743774 0.9901185631752014 0.3803921639919281 0.37254902720451355 0.32549020648002625
0.19753694534301758 0.5973471999168396 0.007509881630539894 0.5529412031173706 0.5176470875740051 0.3960784375667572
0.3322660028934479 0.5382915139198303 0.00830039568245411 0.572549045085907 0.5764706134796143 0.5137255191802979
0.33940887451171875 0.5081319808959961 0.9905138611793518 0.40392157435417175 0.3960784375667572 0.3490196168422699
0.3573891520500183 0.5899257659912109 0.2660079002380371 0.04313725605607033 0.04313725605607033 0.04313725605607033
0.1748768538236618 0.5826622247695923 0.9909090995788574 0.27450981736183167 0.2666666805744171 0.21960784494876862
0.28719210624694824 0.4849202632904053 0.007905138656497002 0.5882353186607361 0.5921568870544434 0.5215686559677124
0.282019704580307 0.4823938012123108 0.9901185631752014 0.3921568691730499 0.3843137323856354 0.33725491166114807
0.35049259662628174 0.483499139547348 0.260869562625885 0.09019608050584793 0.09019608050584793 0.09019608050584793
0.16600985825061798 0.5709774494171143 0.9909090995788574 0.3294117748737335 0.3294117748737335 0.2823529541492462
0.36625614762306213 0.49297332763671875 0.2296442687511444 0.11372549086809158 0.12156862765550613 0.11764705926179886
0.35517242550849915 0.4910784661769867 0.21146245300769806 0.12941177189350128 0.13725490868091583 0.13333334028720856
0.14581280946731567 0.4803410768508911 0.007905138656497002 0.686274528503418 0.7019608020782471 0.6352941393852234
0.257881760597229 0.615979790687561 0.007509881630539894 0.43921568989753723 0.4470588266849518 0.3921568691730499
0.1943349689245224 0.5924522280693054 0.007509881630539894 0.6235294342041016 0.6274510025978088 0.572549045085907
0.3216748833656311 0.5425548553466797 0.007905138656497002 0.6000000238418579 0.6039215922355652 0.5411764979362488
0.2305418699979782 0.5228170156478882 0.9901185631752014 0.4117647111415863 0.4117647111415863 0.37254902720451355
0.1866995096206665 0.5864519476890564 0.007509881630539894 0.45490196347236633 0.47058823704719543 0.3803921639919281
0.2896551787853241 0.557239830493927 0.9909090995788574 0.40392157435417175 0.3921568691730499 0.364705890417099
0.36748769879341125 0.4980262219905853 0.009486165829002857 0.16862745583057404 0.1764705926179886 0.16470588743686676
0.2302955687046051 0.5553449988365173 0.006719367578625679 0.6117647290229797 0.6196078658103943 0.5333333611488342
0.36650246381759644 0.4771830141544342 0.9901185631752014 0.3686274588108063 0.3607843220233917 0.3137255012989044
0.3455665111541748 0.4767093062400818 0.9901185631752014 0.41960784792900085 0.4117647111415863 0.364705890417099
0.346059113740921 0.5795041918754578 0.2976284623146057 0.08235294371843338 0.08235294371843338 0.07450980693101883
0.22413793206214905 0.5831359624862671 0.9909090995788574 0.3686274588108063 0.35686275362968445 0.3294117748737335
0.30418717861175537 0.6316121816635132 0.007905138656497002 0.6235294342041016 0.6352941393852234 0.5607843399047852
0.3086206912994385 0.5821885466575623 0.0071146246045827866 0.48235294222831726 0.4745098054409027 0.4156862795352936
0.18891625106334686 0.54050213098526 0.9905138611793518 0.3921568691730499 0.3843137323856354 0.3333333432674408
0.3527093529701233 0.6039791703224182 0.007905138656497002 0.529411792755127 0.5215686559677124 0.47058823704719543
0.2465517222881317 0.627190887928009 0.9940711259841919 0.3294117748737335 0.3450980484485626 0.35686275362968445
0.2022167444229126 0.5698720812797546 0.9909090995788574 0.37254902720451355 0.37254902720451355 0.3333333432674408
0.13645319640636444 0.5616611242294312 0.9905138611793518 0.35686275362968445 0.3490196168422699 0.3019607961177826
0.2263546735048294 0.6169272065162659 0.007509881630539894 0.5137255191802979 0.5372549295425415 0.48235294222831726
0.16034482419490814 0.5855044722557068 0.007509881630539894 0.615686297416687 0.6352941393852234 0.5490196347236633
0.14064039289951324 0.6292436718940735 0.991304337978363 0.3176470696926117 0.30588236451148987 0.2705882489681244
0.12561576068401337 0.5640296936035156 0.9905138611793518 0.3490196168422699 0.34117648005485535 0.29411765933036804
0.346059113740921 0.5665561556816101 0.18102766573429108 0.24705882370471954 0.27843138575553894 0.2862745225429535
0.35492610931396484 0.49849992990493774 0.9905138611793518 0.3921568691730499 0.3803921639919281 0.3450980484485626
0.2583743929862976 0.48128849267959595 0.9901185631752014 0.40392157435417175 0.3921568691730499 0.35686275362968445
0.3660098612308502 0.5277119874954224 0.1509881466627121 0.062745101749897 0.062745101749897 0.062745101749897
0.31896552443504333 0.494394451379776 0.008695651777088642 0.5647059082984924 0.5372549295425415 0.46666666865348816
0.16354680061340332 0.573503851890564 0.007509881630539894 0.5764706134796143 0.6078431606292725 0.5176470875740051
0.21502463519573212 0.6257697939872742 0.007905138656497002 0.6078431606292725 0.6039215922355652 0.5333333611488342
0.3295566439628601 0.48160430788993835 0.9901185631752014 0.43529412150382996 0.41960784792900085 0.3764705955982208
0.28399014472961426 0.6074530482292175 0.9916995763778687 0.35686275362968445 0.3529411852359772 0.3450980484485626
0.15246304869651794 0.5373440980911255 0.0071146246045827866 0.7176470756530762 0.6941176652908325 0.6470588445663452
0.2901477813720703 0.5215537548065186 0.007509881630539894 0.545098066329956 0.5372549295425415 0.45490196347236633
0.32364532351493835 0.5419232845306396 0.00830039568245411 0.5137255191802979 0.5137255191802979 0.4745098054409027
0.2608374357223511 0.5785567760467529 0.9909090995788574 0.3803921639919281 0.3803921639919281 0.3490196168422699
0.18940886855125427 0.573188066482544 0.9909090995788574 0.32549020648002625 0.3176470696926117 0.2705882489681244
0.3519704341888428 0.557239830493927 0.007509881630539894 0.5490196347236633 0.529411792755127 0.45098039507865906
0.16600985825061798 0.5011842846870422 0.007509881630539894 0.5333333611488342 0.5490196347236633 0.4941176474094391
0.1709359586238861 0.5174483060836792 0.0071146246045827866 0.6470588445663452 0.6431372761726379 0.5647059082984924
0.1862068921327591 0.5659245252609253 0.0071146246045827866 0.6352941393852234 0.6392157077789307 0.5686274766921997
0.16379310190677643 0.627032995223999 0.9944664239883423 0.32156863808631897 0.3137255012989044 0.2666666805744171
0.27931034564971924 0.5892941951751709 0.0071146246045827866 0.5254902243614197 0.5176470875740051 0.43529412150382996
0.30344828963279724 0.6303489804267883 0.9916995763778687 0.772549033164978 0.7921568751335144 0.7686274647712708
0.19605910778045654 0.5774514675140381 0.9909090995788574 0.3686274588108063 0.37254902720451355 0.34117648005485535
0.3652709424495697 0.49344703555107117 0.2079051434993744 0.12941177189350128 0.13725490868091583 0.13333334028720856
0.20837438106536865 0.5777672529220581 0.9909090995788574 0.3803921639919281 0.3803921639919281 0.34117648005485535
0.32709360122680664 0.5646613240242004 0.007509881630539894 0.5411764979362488 0.529411792755127 0.47058823704719543
0.34433498978614807 0.568135142326355 0.30355730652809143 0.7529411911964417 0.7843137383460999 0.7921568751335144
0.36403942108154297 0.4857097864151001 0.15256917476654053 0.38823530077934265 0.3843137323856354 0.3137255012989044
0.2418719232082367 0.5359229445457458 0.006719367578625679 0.5568627715110779 0.5490196347236633 0.4588235318660736
0.18349753320217133 0.6095057725906372 0.007905138656497002 0.49803921580314636 0.5058823823928833 0.41960784792900085
0.20369458198547363 0.49581557512283325 0.9901185631752014 0.4117647111415863 0.4000000059604645 0.364705890417099
0.32315272092819214 0.5098689198493958 0.008695651777088642 0.5960784554481506 0.572549045085907 0.5098039507865906
0.23103448748588562 0.5657666325569153 0.9909090995788574 0.3803921639919281 0.364705890417099 0.3294117748737335
0.1625615805387497 0.5078161954879761 0.007509881630539894 0.5568627715110779 0.5647059082984924 0.47843137383461
0.35172414779663086 0.5378177762031555 0.2920948565006256 0.0784313753247261 0.0784313753247261 0.07058823853731155
0.2775862216949463 0.5207642316818237 0.9905138611793518 0.41960784792900085 0.40392157435417175 0.3607843220233917
0.3605911433696747 0.627190887928009 0.991304337978363 0.3019607961177826 0.2980392277240753 0.29019609093666077
0.33472907543182373 0.5332385897636414 0.008695651777088642 0.4313725531101227 0.43529412150382996 0.364705890417099
0.34359607100486755 0.5502921342849731 0.2873517870903015 0.0941176488995552 0.0941176488995552 0.08627451211214066
0.1866995096206665 0.5907152891159058 0.9909090995788574 0.37254902720451355 0.3607843220233917 0.3333333432674408
0.3608374297618866 0.6123480200767517 0.00830039568245411 0.43529412150382996 0.4000000059604645 0.3333333432674408
0.3083743751049042 0.5891362428665161 0.0071146246045827866 0.6039215922355652 0.6039215922355652 0.5568627715110779
0.2778325080871582 0.6151902675628662 0.9916995763778687 0.3450980484485626 0.34117648005485535 0.3333333432674408
0.33596059679985046 0.5635559558868408 0.991304337978363 0.32549020648002625 0.30980393290519714 0.27450981736183167
0.16009852290153503 0.5370282530784607 0.9901185631752014 0.4000000059604645 0.3921568691730499 0.3450980484485626
0.36625614762306213 0.4913942813873291 0.14426878094673157 0.3607843220233917 0.364705890417099 0.3019607961177826
0.13300491869449615 0.5225011706352234 0.9901185631752014 0.40392157435417175 0.38823530077934265 0.34117648005485535
0.3561576306819916 0.5757145285606384 0.14822134375572205 0.05882352963089943 0.054901961237192154 0.0470588244497776
0.15689654648303986 0.529922604560852 0.9901185631752014 0.35686275362968445 0.35686275362968445 0.3176470696926117
0.29901477694511414 0.5011842846870422 0.007905138656497002 0.6274510025978088 0.6352941393852234 0.5490196347236633
0.3660098612308502 0.573661744594574 0.15217390656471252 0.05098039284348488 0.05098039284348488 0.05098039284348488
0.33571428060531616 0.5236064791679382 0.9909090995788574 0.40784314274787903 0.3960784375667572 0.3607843220233917
0.26354679465293884 0.4942365288734436 0.0071146246045827866 0.5411764979362488 0.545098066329956 0.4745098054409027
0.3490147888660431 0.5215537548065186 0.00909090880304575 0.15294118225574493 0.15294118225574493 0.12156862765550613
0.12807881832122803 0.573188066482544 0.9905138611793518 0.3294117748737335 0.3176470696926117 0.2823529541492462
0.28349754214286804 0.5438181161880493 0.0071146246045827866 0.5333333611488342 0.545098066329956 0.47843137383461
0.3618226647377014 0.6276646256446838 0.29525691270828247 0.6039215922355652 0.6431372761726379 0.6823529601097107
0.34236451983451843 0.5663982033729553 0.2857707440853119 0.11372549086809158 0.11372549086809158 0.10588235408067703
0.24088670313358307 0.49834200739860535 0.0071146246045827866 0.6627451181411743 0.6705882549285889 0.5882353186607361
0.3327586352825165 0.6090320348739624 0.9916995763778687 0.3176470696926117 0.3019607961177826 0.30588236451148987
0.34704434871673584 0.5602400302886963 0.18142291903495789 0.26274511218070984 0.2823529541492462 0.29411765933036804
0.24679802358150482 0.5109742879867554 0.9901185631752014 0.3960784375667572 0.3843137323856354 0.3490196168422699
0.1389162540435791 0.5813990235328674 0.007905138656497002 0.6274510025978088 0.6117647290229797 0.5137255191802979
0.1785714328289032 0.4857097864151001 0.007509881630539894 0.7490196228027344 0.7529411911964417 0.6823529601097107
0.12807881832122803 0.4910784661769867 0.9901185631752014 0.3921568691730499 0.3764705955982208 0.3294117748737335
0.2736453115940094 0.5945049524307251 0.0071146246045827866 0.545098066329956 0.5411764979362488 0.47058823704719543
0.36206895112991333 0.5071845650672913 0.9905138611793518 0.41960784792900085 0.40784314274787903 0.3803921639919281
0.28817734122276306 0.5712932348251343 0.0071146246045827866 0.4941176474094391 0.501960813999176 0.41960784792900085
0.22315271198749542 0.6009789705276489 0.991304337978363 0.35686275362968445 0.3607843220233917 0.33725491166114807
0.2827586233615875 0.5103426575660706 0.007509881630539894 0.501960813999176 0.501960813999176 0.4627451002597809
0.35541871190071106 0.5332385897636414 0.2802371680736542 0.09019608050584793 0.09019608050584793 0.08235294371843338
0.34802955389022827 0.5714511275291443 0.15968379378318787 0.12941177189350128 0.12941177189350128 0.12941177189350128
0.29655173420906067 0.5605558156967163 0.9909090995788574 0.40392157435417175 0.3921568691730499 0.35686275362968445
0.35886698961257935 0.6188220381736755 0.9916995763778687 0.3333333432674408 0.32549020648002625 0.3294117748737335
0.22709359228610992 0.49028897285461426 0.006719367578625679 0.615686297416687 0.6196078658103943 0.5490196347236633
0.2985221743583679 0.5633980631828308 0.9909090995788574 0.3921568691730499 0.3843137323856354 0.33725491166114807
0.20123152434825897 0.6237170100212097 0.9936758875846863 0.34117648005485535 0.3607843220233917 0.33725491166114807
0.3487684726715088 0.4738670587539673 0.2509881556034088 0.0941176488995552 0.0941176488995552 0.0941176488995552
0.29581281542778015 0.488867849111557 0.007905138656497002 0.545098066329956 0.5254902243614197 0.45098039507865906
0.3603448271751404 0.4768671989440918 0.14940711855888367 0.38823530077934265 0.3803921639919281 0.3294117748737335
0.28325122594833374 0.545870840549469 0.0071146246045827866 0.5098039507865906 0.5215686559677124 0.4470588266849518
0.3657635450363159 0.5787146687507629 0.991304337978363 0.3019607961177826 0.2980392277240753 0.27843138575553894
0.3564039468765259 0.5008684396743774 0.05059288442134857 0.23137255012989044 0.22745098173618317 0.2078431397676468
0.14014779031276703 0.5285015106201172 0.9901185631752014 0.3843137323856354 0.3686274588108063 0.32156863808631897
0.3495073914527893 0.5483973026275635 0.007905138656497002 0.5058823823928833 0.49803921580314636 0.43921568989753723
0.1426108330488205 0.4823938012123108 0.007905138656497002 0.5058823823928833 0.501960813999176 0.41960784792900085
0.36256158351898193 0.494710236787796 0.21106719970703125 0.13333334028720856 0.1411764770746231 0.12941177189350128
0.21699507534503937 0.5651350021362305 0.9909090995788574 0.3803921639919281 0.3803921639919281 0.34117648005485535
0.19261083006858826 0.5589767694473267 0.0071146246045827866 0.7137255072593689 0.7176470756530762 0.6627451181411743
0.23620688915252686 0.5711353421211243 0.0071146246045827866 0.43529412150382996 0.45098039507865906 0.3843137323856354
0.13990147411823273 0.5668719410896301 0.9905138611793518 0.3294117748737335 0.3294117748737335 0.2823529541492462
0.18891625106334686 0.535449206829071 0.006719367578625679 0.5372549295425415 0.5607843399047852 0.5137255191802979
0.19704432785511017 0.6057161092758179 0.007905138656497002 0.4588235318660736 0.4588235318660736 0.41960784792900085
0.13275861740112305 0.562292754650116 0.9905138611793518 0.3333333432674408 0.32549020648002625 0.27843138575553894
0.34433498978614807 0.551397442817688 0.16916996240615845 0.125490203499794 0.13333334028720856 0.12156862765550613
0.16083744168281555 0.6169272065162659 0.00830039568245411 0.6352941393852234 0.6431372761726379 0.5921568870544434
0.20443350076675415 0.5206063389778137 0.9901185631752014 0.3921568691730499 0.3843137323856354 0.33725491166114807
0.20123152434825897 0.6077688336372375 0.991304337978363 0.3294117748737335 0.3176470696926117 0.29019609093666077
0.31945812702178955 0.6175588369369507 0.007905138656497002 0.47843137383461 0.46666666865348816 0.3921568691730499
0.32413792610168457 0.5179219841957092 0.9905138611793518 0.40784314274787903 0.3960784375667572 0.3607843220233917
0.35517242550849915 0.4819200932979584 0.1671936810016632 0.38823530077934265 0.3921568691730499 0.32156863808631897
0.34802955389022827 0.5742933750152588 0.29920947551727295 0.4313725531101227 0.45098039507865906 0.4627451002597809
0.2886699438095093 0.47891995310783386 0.007905138656497002 0.5960784554481506 0.6039215922355652 0.5176470875740051
0.18817734718322754 0.4857097864151001 0.007509881630539894 0.6784313917160034 0.6549019813537598 0.5921568870544434
0.349261075258255 0.551239550113678 0.24743083119392395 0.11372549086809158 0.11372549086809158 0.10588235408067703
0.1465517282485962 0.5213958621025085 0.007509881630539894 0.5333333611488342 0.5843137502670288 0.5176470875740051
0.3100985288619995 0.5150797367095947 0.00830039568245411 0.5215686559677124 0.5372549295425415 0.47843137383461
0.21133005619049072 0.6208747625350952 0.007905138656497002 0.6000000238418579 0.5921568870544434 0.5333333611488342
0.2778325080871582 0.5207642316818237 0.9905138611793518 0.41960784792900085 0.40392157435417175 0.3607843220233917
0.30763545632362366 0.49518394470214844 0.9901185631752014 0.40784314274787903 0.3960784375667572 0.3607843220233917
0.30369457602500916 0.6241907477378845 0.007509881630539894 0.5647059082984924 0.5607843399047852 0.48235294222831726
0.18201971054077148 0.5886625647544861 0.9909090995788574 0.33725491166114807 0.32549020648002625 0.2980392277240753
0.3403940796852112 0.5632401704788208 0.29011857509613037 0.10980392247438431 0.10980392247438431 0.10196078568696976
