0.3694581389427185 0.8773093223571777 0.9901185631752014 0.40784314274787903 0.40784314274787903 0.3764705955982208
0.3884236514568329 0.9965261220932007 0.1090909093618393 0.7490196228027344 0.7411764860153198 0.6823529601097107
0.26773399114608765 0.8836254477500916 0.9901185631752014 0.4000000059604645 0.3960784375667572 0.3764705955982208
0.26699507236480713 0.9969998598098755 0.07470355927944183 0.6941176652908325 0.7058823704719543 0.6313725709915161
0.3103448152542114 0.9966840147972107 0.019367588683962822 0.25882354378700256 0.21960784494876862 0.18039216101169586
0.460098534822464 0.9685772657394409 0.00830039568245411 0.48235294222831726 0.47843137383461 0.4588235318660736
0.47758620977401733 0.9962103366851807 0.7928853631019592 0.5490196347236633 0.5607843399047852 0.5803921818733215
0.4837438464164734 0.9879993796348572 0.9501976370811462 0.364705890417099 0.3607843220233917 0.34117648005485535
0.4869458079338074 0.9960524439811707 0.9320158362388611 0.4627451002597809 0.4588235318660736 0.43921568989753723
0.47783252596855164 0.8869414329528809 0.9893280863761902 0.38823530077934265 0.38823530077934265 0.35686275362968445
0.25640395283699036 0.9985788464546204 0.8418972492218018 0.5607843399047852 0.5411764979362488 0.45490196347236633
0.2985221743583679 0.9955787062644958 0.5616600513458252 0.6823529601097107 0.7098039388656616 0.7411764860153198
0.3142857253551483 0.9960524439811707 0.7762845754623413 0.5764706134796143 0.6117647290229797 0.6000000238418579
0.47906404733657837 0.8702036738395691 0.008695651777088642 0.49803921580314636 0.4941176474094391 0.4117647111415863
0.48965516686439514 0.8739933967590332 0.9893280863761902 0.3764705955982208 0.3843137323856354 0.34117648005485535
0.338177353143692 0.9958944916725159 0.7498023509979248 0.5921568870544434 0.615686297416687 0.615686297416687
0.4135468006134033 0.9805779457092285 0.007509881630539894 0.4745098054409027 0.46666666865348816 0.4156862795352936
0.4894088804721832 0.8984683156013489 0.9893280863761902 0.3921568691730499 0.3921568691730499 0.3607843220233917
0.2583743929862976 0.9815253615379333 0.008695651777088642 0.43529412150382996 0.43529412150382996 0.38823530077934265
0.4598522186279297 0.9971577525138855 0.2193675935268402 0.7372549176216125 0.7450980544090271 0.6901960968971252
0.3935960531234741 0.9954208135604858 0.38853755593299866 0.6235294342041016 0.6784313917160034 0.6901960968971252
0.41428571939468384 0.9038370251655579 0.9897233247756958 0.4274509847164154 0.4274509847164154 0.3960784375667572
0.3608374297618866 0.9969998598098755 0.14901185035705566 0.7254902124404907 0.729411780834198 0.6745098233222961
0.3211822807788849 0.9853150248527527 0.00830039568245411 0.6313725709915161 0.6039215922355652 0.5411764979362488
0.48226600885391235 0.9958944916725159 0.7090908885002136 0.5921568870544434 0.6235294342041016 0.6313725709915161
0.31477832794189453 0.9973156452178955 0.16047431528568268 0.7176470756530762 0.7254902124404907 0.6705882549285889
0.3130541741847992 0.9974735379219055 0.24387352168560028 0.7058823704719543 0.7215686440467834 0.6666666865348816
0.4399014711380005 0.9014685153961182 0.008695651777088642 0.4470588266849518 0.47843137383461 0.41960784792900085
0.3997536897659302 0.8886783719062805 0.007905138656497002 0.5333333611488342 0.5254902243614197 0.46666666865348816
0.31206896901130676 0.972524881362915 0.9893280863761902 0.3450980484485626 0.3333333432674408 0.30588236451148987
0.34679803252220154 0.9954208135604858 0.5011857748031616 0.6784313917160034 0.7215686440467834 0.7372549176216125
0.3975369334220886 0.9963682293891907 0.8454545736312866 0.4000000059604645 0.4156862795352936 0.4117647111415863
0.2463054209947586 0.9969998598098755 0.1719367653131485 0.6078431606292725 0.615686297416687 0.5607843399047852
0.3519704341888428 0.994315505027771 0.9881423115730286 0.3960784375667572 0.38823530077934265 0.34117648005485535
0.2970443367958069 0.8926259279251099 0.9901185631752014 0.4156862795352936 0.41960784792900085 0.3960784375667572
0.38325121998786926 0.9968419671058655 0.1296442747116089 0.7333333492279053 0.7372549176216125 0.6823529601097107
0.4682266116142273 0.9199431538581848 0.9893280863761902 0.4117647111415863 0.40784314274787903 0.38823530077934265
0.43768471479415894 0.9955787062644958 0.699999988079071 0.5921568870544434 0.6117647290229797 0.6235294342041016
0.32413792610168457 0.9974735379219055 0.26245060563087463 0.7019608020782471 0.7137255072593689 0.6705882549285889
0.49064040184020996 0.9954208135604858 0.49802371859550476 0.6784313917160034 0.7058823704719543 0.7372549176216125
0.27610838413238525 0.9969998598098755 0.09011857956647873 0.6980392336845398 0.7098039388656616 0.6352941393852234
0.48965516686439514 0.9843676090240479 0.9881423115730286 0.3529411852359772 0.3529411852359772 0.3137255012989044
0.32364532351493835 0.9971577525138855 0.35059288144111633 0.501960813999176 0.4941176474094391 0.4431372582912445
0.31847289204597473 0.9971577525138855 0.1146245077252388 0.7333333492279053 0.7372549176216125 0.6823529601097107
0.40541872382164 0.9974735379219055 0.25296443700790405 0.7019608020782471 0.7058823704719543 0.6509804129600525
0.26798030734062195 0.8994157314300537 0.9901185631752014 0.43921568989753723 0.4274509847164154 0.40784314274787903
0.4283251166343689 0.9957365989685059 0.7367588877677917 0.5960784554481506 0.6117647290229797 0.6235294342041016
0.3174876868724823 0.8965734839439392 0.00909090880304575 0.5647059082984924 0.5686274766921997 0.5058823823928833
0.3369458019733429 0.896731436252594 0.9901185631752014 0.43921568989753723 0.43529412150382996 0.4156862795352936
0.4568965435028076 0.9952629208564758 0.00909090880304575 0.4000000059604645 0.3764705955982208 0.3137255012989044
0.41527092456817627 0.9952629208564758 0.6011857986450195 0.6352941393852234 0.6627451181411743 0.686274528503418
0.38300493359565735 0.9900521039962769 0.9881423115730286 0.364705890417099 0.3490196168422699 0.3137255012989044
0.39556649327278137 0.9954208135604858 0.41304346919059753 0.7098039388656616 0.7450980544090271 0.7803921699523926
0.4881773293018341 0.9965261220932007 0.0675889328122139 0.686274528503418 0.7019608020782471 0.6431372761726379
0.45911329984664917 0.9963682293891907 0.8379446864128113 0.5137255191802979 0.5372549295425415 0.529411792755127
0.2807881832122803 0.9169430136680603 0.00909090880304575 0.5960784554481506 0.572549045085907 0.5254902243614197
0.3339901566505432 0.9973156452178955 0.2747035622596741 0.7176470756530762 0.7254902124404907 0.6823529601097107
0.44285714626312256 0.9973156452178955 0.3276679813861847 0.7098039388656616 0.7176470756530762 0.6666666865348816
0.3926108479499817 0.9955787062644958 0.679051399230957 0.5607843399047852 0.5921568870544434 0.6039215922355652
0.41083744168281555 0.9973156452178955 0.3059288561344147 0.7176470756530762 0.7254902124404907 0.6823529601097107
0.3448275923728943 0.9984209537506104 0.8865612745285034 0.501960813999176 0.47843137383461 0.4313725531101227
0.39556649327278137 0.9952629208564758 0.5332015752792358 0.658823549747467 0.686274528503418 0.7098039388656616
0.3371921181678772 0.9218379855155945 0.9897233247756958 0.47843137383461 0.4627451002597809 0.45098039507865906
0.403940886259079 0.9969998598098755 0.134782612323761 0.7333333492279053 0.7254902124404907 0.6666666865348816
0.33497536182403564 0.9693667888641357 0.9154150485992432 0.48627451062202454 0.4941176474094391 0.4901960790157318
0.4248768389225006 0.9952629208564758 0.6166008114814758 0.6235294342041016 0.6549019813537598 0.6666666865348816
0.26403939723968506 0.9257855415344238 0.00909090880304575 0.7686274647712708 0.7607843279838562 0.7098039388656616
0.35172414779663086 0.9974735379219055 0.23794466257095337 0.7333333492279053 0.7411764860153198 0.6980392336845398
0.2571428716182709 0.8877309560775757 0.9901185631752014 0.37254902720451355 0.3607843220233917 0.3333333432674408
0.48990148305892944 0.9456813335418701 0.9889327883720398 0.3843137323856354 0.3803921639919281 0.3607843220233917
0.4852216839790344 0.9952629208564758 0.5612648129463196 0.6509804129600525 0.6823529601097107 0.6941176652908325
0.3133004903793335 0.9141007661819458 0.9897233247756958 0.4313725531101227 0.4156862795352936 0.40392157435417175
0.36354678869247437 0.9968419671058655 0.14426878094673157 0.7333333492279053 0.7372549176216125 0.6823529601097107
0.4137931168079376 0.9954208135604858 0.45059287548065186 0.6823529601097107 0.7098039388656616 0.7411764860153198
0.4165024757385254 0.989420473575592 0.007905138656497002 0.5921568870544434 0.5803921818733215 0.5137255191802979
0.4692118167877197 0.9913153052330017 0.9533596634864807 0.3686274588108063 0.3686274588108063 0.33725491166114807
0.46256157755851746 0.8852044939994812 0.9893280863761902 0.3490196168422699 0.3607843220233917 0.32549020648002625
0.4687192142009735 0.9971577525138855 0.856521725654602 0.5411764979362488 0.5215686559677124 0.5098039507865906
0.3295566439628601 0.9966840147972107 0.03320158272981644 0.25882354378700256 0.21960784494876862 0.18431372940540314
0.39926108717918396 0.9090478420257568 0.007905138656497002 0.5333333611488342 0.5215686559677124 0.4627451002597809
0.41157636046409607 0.9957365989685059 0.03241106867790222 0.22745098173618317 0.1921568661928177 0.1568627506494522
0.4169950783252716 0.994315505027771 0.007905138656497002 0.45098039507865906 0.4274509847164154 0.3803921639919281
0.3263546824455261 0.9477341175079346 0.008695651777088642 0.5411764979362488 0.545098066329956 0.4745098054409027
0.4009852111339569 0.9952629208564758 0.5316205620765686 0.6549019813537598 0.6823529601097107 0.7137255072593689
0.3455665111541748 0.9966840147972107 0.939130425453186 0.41960784792900085 0.42352941632270813 0.3921568691730499
0.4687192142009735 0.9813674688339233 0.9407114386558533 0.4117647111415863 0.4117647111415863 0.3803921639919281
0.31231528520584106 0.9973156452178955 0.2861660122871399 0.7019608020782471 0.729411780834198 0.6666666865348816
0.24753694236278534 0.9704721570014954 0.3541502058506012 0.1921568661928177 0.1921568661928177 0.1921568661928177
0.34655171632766724 0.9407863616943359 0.007905138656497002 0.45098039507865906 0.4431372582912445 0.3843137323856354
0.3536945879459381 0.9556292295455933 0.9889327883720398 0.45098039507865906 0.43921568989753723 0.41960784792900085
0.4088670015335083 0.9788410067558289 0.007509881630539894 0.6039215922355652 0.5921568870544434 0.5333333611488342
0.3453201949596405 0.9971577525138855 0.3446640372276306 0.5921568870544434 0.5960784554481506 0.5333333611488342
0.338177353143692 0.9234170317649841 0.9897233247756958 0.47843137383461 0.4627451002597809 0.45098039507865906
0.47807881236076355 0.880625307559967 0.9893280863761902 0.3960784375667572 0.3960784375667572 0.364705890417099
0.37044334411621094 0.9955787062644958 0.6498023867607117 0.6117647290229797 0.6313725709915161 0.6470588445663452
0.39137929677963257 0.9546818137168884 0.007509881630539894 0.6549019813537598 0.6470588445663452 0.5882353186607361
0.35098522901535034 0.9974735379219055 0.22490118443965912 0.7450980544090271 0.7450980544090271 0.7058823704719543
0.41428571939468384 0.9968419671058655 0.12134387344121933 0.7333333492279053 0.7254902124404907 0.6745098233222961
0.25172412395477295 0.966998279094696 0.3588932752609253 0.18039216101169586 0.18431372940540314 0.1921568661928177
0.4322659969329834 0.8738354444503784 0.008695651777088642 0.5686274766921997 0.5490196347236633 0.47058823704719543
0.25517240166664124 0.9193115234375 0.3588932752609253 0.10196078568696976 0.10196078568696976 0.10196078568696976
0.45492610335350037 0.9988946914672852 0.8909090757369995 0.48235294222831726 0.46666666865348816 0.41960784792900085
0.3103448152542114 0.9932101964950562 0.3632411062717438 0.3607843220233917 0.3607843220233917 0.3294117748737335
0.2463054209947586 0.9966840147972107 0.019367588683962822 0.21176470816135406 0.18039216101169586 0.13725490868091583
0.31847289204597473 0.9973156452178955 0.15019762516021729 0.7176470756530762 0.729411780834198 0.6627451181411743
0.4721674919128418 0.9971577525138855 0.17272727191448212 0.7411764860153198 0.7529411911964417 0.7176470756530762
0.2588669955730438 0.9971577525138855 0.22529643774032593 0.6666666865348816 0.6705882549285889 0.615686297416687
0.48128077387809753 0.9523133039474487 0.9889327883720398 0.3960784375667572 0.3843137323856354 0.35686275362968445
0.41847291588783264 0.9954208135604858 0.4545454680919647 0.686274528503418 0.7137255072593689 0.7450980544090271
0.2588669955730438 0.9707879424095154 0.00909090880304575 0.6274510025978088 0.6235294342041016 0.5411764979362488
0.4687192142009735 0.9463129639625549 0.9889327883720398 0.3921568691730499 0.3960784375667572 0.37254902720451355
0.2733990252017975 0.994315505027771 0.9830039739608765 0.37254902720451355 0.37254902720451355 0.32549020648002625
0.26798030734062195 0.9971577525138855 0.24110671877861023 0.6549019813537598 0.6627451181411743 0.5803921818733215
0.27266010642051697 0.9984209537506104 0.8837944865226746 0.5176470875740051 0.49803921580314636 0.41960784792900085
0.27142858505249023 0.8856781721115112 0.00909090880304575 0.6784313917160034 0.6823529601097107 0.6274510025978088
0.39088669419288635 0.9955787062644958 0.695652186870575 0.5568627715110779 0.5960784554481506 0.6039215922355652
0.31970444321632385 0.9954208135604858 0.4948616623878479 0.6901960968971252 0.7254902124404907 0.7529411911964417
0.25541871786117554 0.9336807131767273 0.35770750045776367 0.18431372940540314 0.18431372940540314 0.18431372940540314
0.45935961604118347 0.9962103366851807 0.8047431111335754 0.5490196347236633 0.5529412031173706 0.5686274766921997
0.46305418014526367 0.8956260681152344 0.00909090880304575 0.572549045085907 0.5803921818733215 0.4941176474094391
0.3261083662509918 0.9930522441864014 0.3636363744735718 0.4117647111415863 0.4000000059604645 0.37254902720451355
0.3103448152542114 0.9957365989685059 0.6241106986999512 0.7176470756530762 0.7529411911964417 0.7882353067398071
0.3655172288417816 0.9973156452178955 0.8628458380699158 0.5176470875740051 0.501960813999176 0.46666666865348816
0.3926108479499817 0.9955787062644958 0.679051399230957 0.5607843399047852 0.5921568870544434 0.6039215922355652
0.47881773114204407 0.9955787062644958 0.4047430753707886 0.7215686440467834 0.7568627595901489 0.7764706015586853
0.38275861740112305 0.9973156452178955 0.32094863057136536 0.6784313917160034 0.6901960968971252 0.6470588445663452
0.274137943983078 0.9071530103683472 0.9897233247756958 0.45490196347236633 0.43921568989753723 0.4274509847164154
0.4371921122074127 0.9954208135604858 0.5083004236221313 0.658823549747467 0.686274528503418 0.7176470756530762
0.3100985288619995 0.994157612323761 0.3897233307361603 0.6980392336845398 0.7490196228027344 0.7215686440467834
0.43916255235671997 0.9973156452178955 0.24822133779525757 0.729411780834198 0.729411780834198 0.6901960968971252
0.3997536897659302 0.8907310962677002 0.007905138656497002 0.5568627715110779 0.5607843399047852 0.5058823823928833
0.3849753737449646 0.9954208135604858 0.5996047258377075 0.6431372761726379 0.6705882549285889 0.6941176652908325
0.31921181082725525 0.9816832542419434 0.9889327883720398 0.40784314274787903 0.3960784375667572 0.3607843220233917
0.3613300621509552 0.9598926305770874 0.9889327883720398 0.4274509847164154 0.4156862795352936 0.3960784375667572
0.3322660028934479 0.935417652130127 0.9893280863761902 0.43529412150382996 0.43529412150382996 0.4274509847164154
0.35812807083129883 0.9549976587295532 0.007509881630539894 0.4431372582912445 0.41960784792900085 0.35686275362968445
0.3371921181678772 0.9237328171730042 0.008695651777088642 0.5882353186607361 0.5960784554481506 0.5411764979362488
0.44655171036720276 0.8945207595825195 0.008695651777088642 0.5921568870544434 0.5803921818733215 0.5137255191802979
0.39408865571022034 0.9960524439811707 0.9521738886833191 0.3803921639919281 0.4000000059604645 0.37254902720451355
0.3290640413761139 0.9439443945884705 0.008695651777088642 0.4941176474094391 0.46666666865348816 0.40392157435417175
0.3657635450363159 0.9141007661819458 0.9897233247756958 0.43529412150382996 0.4313725531101227 0.4156862795352936
0.4879310429096222 0.9963682293891907 0.06205533444881439 0.6823529601097107 0.6980392336845398 0.6392157077789307
0.4834975302219391 0.9774198532104492 0.9059288501739502 0.32549020648002625 0.32156863808631897 0.3137255012989044
0.3374384343624115 0.9955787062644958 0.6304348111152649 0.6549019813537598 0.6705882549285889 0.7058823704719543
0.24802955985069275 0.9985788464546204 0.8023715615272522 0.5921568870544434 0.5803921818733215 0.5058823823928833
0.3886699378490448 0.9973156452178955 0.16798418760299683 0.7215686440467834 0.7176470756530762 0.6470588445663452
0.41527092456817627 0.9690510034561157 0.9885375499725342 0.4117647111415863 0.4000000059604645 0.37254902720451355
0.4081280827522278 0.9062055945396423 0.9897233247756958 0.4274509847164154 0.42352941632270813 0.40392157435417175
0.30024629831314087 0.9382598996162415 0.00909090880304575 0.6117647290229797 0.6039215922355652 0.5529412031173706
0.29950737953186035 0.972366988658905 0.9422925114631653 0.364705890417099 0.34117648005485535 0.2862745225429535
0.25541871786117554 0.9343123435974121 0.35770750045776367 0.10196078568696976 0.10196078568696976 0.10196078568696976
0.46157634258270264 0.9971577525138855 0.1407114565372467 0.5215686559677124 0.501960813999176 0.4274509847164154
0.45886698365211487 0.9771040678024292 0.9885375499725342 0.4000000059604645 0.38823530077934265 0.3607843220233917
0.379802942276001 0.8923101425170898 0.007905138656497002 0.6000000238418579 0.5960784554481506 0.5254902243614197
0.3933497667312622 0.9969998598098755 0.13754940032958984 0.7372549176216125 0.729411780834198 0.6784313917160034
0.30295565724372864 0.9973156452178955 0.3114624619483948 0.7215686440467834 0.7372549176216125 0.6784313917160034
0.40344828367233276 0.9952629208564758 0.5703557133674622 0.6431372761726379 0.6627451181411743 0.686274528503418
0.4881773293018341 0.9965261220932007 0.06561265140771866 0.686274528503418 0.7019608020782471 0.6431372761726379
0.4174876809120178 0.9954208135604858 0.3968379497528076 0.7450980544090271 0.7803921699523926 0.8156862854957581
0.3448275923728943 0.9954208135604858 0.5561264753341675 0.6627451181411743 0.6980392336845398 0.7176470756530762
0.26699507236480713 0.8760461211204529 0.00909090880304575 0.4745098054409027 0.47843137383461 0.4156862795352936
0.40566501021385193 0.9429969787597656 0.9893280863761902 0.40392157435417175 0.4000000059604645 0.3843137323856354
0.2945812940597534 0.9973156452178955 0.1770751029253006 0.7568627595901489 0.7607843279838562 0.729411780834198
0.3009852170944214 0.9819990396499634 0.008695651777088642 0.658823549747467 0.6509804129600525 0.5686274766921997
0.346059113740921 0.9958944916725159 0.7671936750411987 0.572549045085907 0.6039215922355652 0.6117647290229797
0.4674876928329468 0.9966840147972107 0.0885375514626503 0.7058823704719543 0.7137255072593689 0.6627451181411743
0.3561576306819916 0.9954208135604858 0.5624505877494812 0.6666666865348816 0.6980392336845398 0.7098039388656616
0.25615763664245605 0.9987367987632751 0.8845849633216858 0.5254902243614197 0.5098039507865906 0.40392157435417175
0.40738916397094727 0.9966840147972107 0.11264821887016296 0.7254902124404907 0.729411780834198 0.658823549747467
0.378078818321228 0.9954208135604858 0.4541501998901367 0.686274528503418 0.7215686440467834 0.7490196228027344
0.4650246202945709 0.9957365989685059 0.708695650100708 0.5647059082984924 0.5843137502670288 0.6078431606292725
0.39556649327278137 0.9399968385696411 0.007509881630539894 0.5607843399047852 0.5647059082984924 0.4941176474094391
0.2662561535835266 0.9984209537506104 0.7699604630470276 0.5960784554481506 0.5921568870544434 0.5137255191802979
0.3773398995399475 0.9974735379219055 0.23083004355430603 0.6941176652908325 0.6980392336845398 0.6352941393852234
0.28325122594833374 0.9965261220932007 0.36284583806991577 0.6823529601097107 0.6980392336845398 0.7333333492279053
0.41847291588783264 0.9952629208564758 0.6059288382530212 0.6392157077789307 0.658823549747467 0.6745098233222961
0.46674877405166626 0.941102147102356 0.9889327883720398 0.3960784375667572 0.3921568691730499 0.37254902720451355
0.2830049395561218 0.9973156452178955 0.32134386897087097 0.729411780834198 0.7372549176216125 0.6941176652908325
0.2864531874656677 0.9958944916725159 0.968774676322937 0.3529411852359772 0.3294117748737335 0.2823529541492462
0.40344828367233276 0.9957365989685059 0.04110671952366829 0.23137255012989044 0.19607843458652496 0.16078431904315948
0.3411329984664917 0.9688931107521057 0.9229248762130737 0.5529412031173706 0.5568627715110779 0.5372549295425415
0.317241370677948 0.9971577525138855 0.09249012172222137 0.7333333492279053 0.7450980544090271 0.6784313917160034
0.2647783160209656 0.9985788464546204 0.8715415000915527 0.5254902243614197 0.5176470875740051 0.4274509847164154
0.2657635509967804 0.9971577525138855 0.28774702548980713 0.658823549747467 0.6509804129600525 0.6000000238418579
0.2889162600040436 0.9444181323051453 0.9893280863761902 0.4431372582912445 0.4431372582912445 0.4117647111415863
0.35837438702583313 0.9971577525138855 0.3442687690258026 0.5882353186607361 0.6000000238418579 0.5333333611488342
0.274137943983078 0.9711037278175354 0.00909090880304575 0.501960813999176 0.4901960790157318 0.42352941632270813
0.4876847267150879 0.907784640789032 0.009486165829002857 0.5254902243614197 0.545098066329956 0.45490196347236633
0.4911330044269562 0.9954208135604858 0.4430830180644989 0.6980392336845398 0.7333333492279053 0.7607843279838562
0.40591132640838623 0.9965261220932007 0.10632411390542984 0.7372549176216125 0.7333333492279053 0.6627451181411743
0.4687192142009735 0.9234170317649841 0.00909090880304575 0.45098039507865906 0.4588235318660736 0.40392157435417175
0.4635468125343323 0.9952629208564758 0.5221343636512756 0.6627451181411743 0.6901960968971252 0.7215686440467834
0.31206896901130676 0.9969998598098755 0.05454545468091965 0.7843137383460999 0.7764706015586853 0.7176470756530762
0.4800492525100708 0.9954208135604858 0.6225296258926392 0.6078431606292725 0.6470588445663452 0.6549019813537598
0.36699506640434265 0.9144165515899658 0.9897233247756958 0.4431372582912445 0.43921568989753723 0.42352941632270813
0.40738916397094727 0.9952629208564758 0.5984189510345459 0.6470588445663452 0.6666666865348816 0.6901960968971252
0.2630541920661926 0.9976314306259155 0.54347825050354 0.658823549747467 0.6666666865348816 0.6117647290229797
0.36773398518562317 0.891678512096405 0.9901185631752014 0.4313725531101227 0.43529412150382996 0.3803921639919281
0.3403940796852112 0.9766303300857544 0.007905138656497002 0.4745098054409027 0.46666666865348816 0.40784314274787903
0.2608374357223511 0.9971577525138855 0.22173912823200226 0.6745098233222961 0.6784313917160034 0.615686297416687
0.4608374238014221 0.9973156452178955 0.34505927562713623 0.6627451181411743 0.6745098233222961 0.6078431606292725
0.2536945939064026 0.9745776057243347 0.9893280863761902 0.42352941632270813 0.4156862795352936 0.35686275362968445
0.29064038395881653 0.9763145446777344 0.008695651777088642 0.5843137502670288 0.5882353186607361 0.5254902243614197
0.2630541920661926 0.9572082757949829 0.00909090880304575 0.5058823823928833 0.4941176474094391 0.41960784792900085
0.24852216243743896 0.9696826338768005 0.9889327883720398 0.45490196347236633 0.4313725531101227 0.3764705955982208
0.44261083006858826 0.9958944916725159 0.04584980383515358 0.21176470816135406 0.1764705926179886 0.14901961386203766
0.492118239402771 0.924680233001709 0.9889327883720398 0.3764705955982208 0.3843137323856354 0.3294117748737335
0.2568965554237366 0.8837833404541016 0.009486165829002857 0.6196078658103943 0.6117647290229797 0.5529412031173706
0.4004926085472107 0.9954208135604858 0.6498023867607117 0.772549033164978 0.800000011920929 0.8235294222831726
0.3502463102340698 0.9349439740180969 0.007905138656497002 0.42352941632270813 0.41960784792900085 0.3490196168422699
0.24802955985069275 0.880625307559967 0.009486165829002857 0.4941176474094391 0.5058823823928833 0.43921568989753723
0.3502463102340698 0.9818411469459534 0.9885375499725342 0.4156862795352936 0.40392157435417175 0.3843137323856354
0.3647783398628235 0.9954208135604858 0.5940711498260498 0.6470588445663452 0.6627451181411743 0.7058823704719543
0.3896551728248596 0.9954208135604858 0.6517786383628845 0.6196078658103943 0.6509804129600525 0.6627451181411743
0.36650246381759644 0.8976788520812988 0.9901185631752014 0.4431372582912445 0.43921568989753723 0.42352941632270813
0.32290640473365784 0.924206554889679 0.008695651777088642 0.6431372761726379 0.6196078658103943 0.5647059082984924
0.3083743751049042 0.9712616205215454 0.008695651777088642 0.572549045085907 0.5647059082984924 0.5137255191802979
0.4233990013599396 0.9587873220443726 0.9889327883720398 0.4000000059604645 0.38823530077934265 0.3686274588108063
0.47044333815574646 0.9163113832473755 0.9893280863761902 0.40392157435417175 0.40392157435417175 0.364705890417099
0.33177340030670166 0.9971577525138855 0.1407114565372467 0.7176470756530762 0.729411780834198 0.6627451181411743
0.4613300561904907 0.9314700961112976 0.9889327883720398 0.4117647111415863 0.40784314274787903 0.38823530077934265
0.48226600885391235 0.91899573802948 0.9893280863761902 0.4117647111415863 0.4117647111415863 0.3803921639919281
0.341379314661026 0.929891049861908 0.00830039568245411 0.6274510025978088 0.615686297416687 0.5568627715110779
0.32266008853912354 0.9265750646591187 0.9897233247756958 0.45490196347236633 0.45098039507865906 0.43529412150382996
0.25172412395477295 0.9861045479774475 0.008695651777088642 0.6196078658103943 0.615686297416687 0.5058823823928833
0.45369458198547363 0.9939996600151062 0.9707509875297546 0.5098039507865906 0.5098039507865906 0.5098039507865906
0.33916255831718445 0.9973156452178955 0.34110671281814575 0.6392157077789307 0.6431372761726379 0.5882353186607361
0.40665024518966675 0.9973156452178955 0.34031620621681213 0.6784313917160034 0.6784313917160034 0.6313725709915161
0.2729063928127289 0.9966840147972107 0.5229249000549316 0.615686297416687 0.6431372761726379 0.6666666865348816
0.4598522186279297 0.9692088961601257 0.9158102869987488 0.41960784792900085 0.43529412150382996 0.4470588266849518
0.24901477992534637 0.9911574125289917 0.9849802255630493 0.3686274588108063 0.35686275362968445 0.29019609093666077
0.3738916218280792 0.9965261220932007 0.9438735246658325 0.4117647111415863 0.40784314274787903 0.38823530077934265
0.33965516090393066 0.9963682293891907 0.3537549376487732 0.4588235318660736 0.46666666865348816 0.4156862795352936
0.3022167384624481 0.9960524439811707 0.7537549138069153 0.5960784554481506 0.6274510025978088 0.6352941393852234
0.4918719232082367 0.9988946914672852 0.8928853869438171 0.4745098054409027 0.4588235318660736 0.4117647111415863
0.317241370677948 0.8724143505096436 0.9905138611793518 0.40784314274787903 0.40392157435417175 0.3843137323856354
0.2738916277885437 0.891994297504425 0.00909090880304575 0.6352941393852234 0.6274510025978088 0.5686274766921997
0.4137931168079376 0.9969998598098755 0.12687747180461884 0.7372549176216125 0.729411780834198 0.6784313917160034
0.47068965435028076 0.9954208135604858 0.42450591921806335 0.7019608020782471 0.729411780834198 0.7607843279838562
0.32364532351493835 0.9267329573631287 0.9897233247756958 0.3450980484485626 0.34117648005485535 0.32549020648002625
0.2662561535835266 0.9638401865959167 0.9889327883720398 0.3960784375667572 0.3803921639919281 0.3333333432674408
0.2775862216949463 0.8889941573143005 0.00909090880304575 0.5607843399047852 0.5647059082984924 0.501960813999176
0.3044334948062897 0.9568924903869629 0.9893280863761902 0.42352941632270813 0.4117647111415863 0.3843137323856354
0.2967980206012726 0.8844149708747864 0.00909090880304575 0.49803921580314636 0.48235294222831726 0.43529412150382996
0.48128077387809753 0.9954208135604858 0.46679842472076416 0.6901960968971252 0.7176470756530762 0.7490196228027344
0.41551724076271057 0.8698878884315491 0.9897233247756958 0.3764705955982208 0.3921568691730499 0.33725491166114807
0.3014778196811676 0.9477341175079346 0.9893280863761902 0.4431372582912445 0.4274509847164154 0.4156862795352936
0.3142857253551483 0.9954208135604858 0.47549405694007874 0.6901960968971252 0.7254902124404907 0.7607843279838562
0.30344828963279724 0.9973156452178955 0.1664031594991684 0.7058823704719543 0.7372549176216125 0.6470588445663452
0.34729063510894775 0.9958944916725159 0.7727272510528564 0.5647059082984924 0.5960784554481506 0.6039215922355652
0.467980295419693 0.9589452147483826 0.008695651777088642 0.37254902720451355 0.3764705955982208 0.3137255012989044
0.411822646856308 0.8698878884315491 0.9901185631752014 0.3843137323856354 0.3921568691730499 0.34117648005485535
0.29113301634788513 0.9955787062644958 0.5422924757003784 0.686274528503418 0.7137255072593689 0.7450980544090271
0.3881773352622986 0.9616295695304871 0.9889327883720398 0.4117647111415863 0.4000000059604645 0.37254902720451355
0.379802942276001 0.9958944916725159 0.013833992183208466 0.7333333492279053 0.7019608020782471 0.6901960968971252
0.4362069070339203 0.9256276488304138 0.9893280863761902 0.41960784792900085 0.42352941632270813 0.40392157435417175
0.2630541920661926 0.9976314306259155 0.5458498001098633 0.6549019813537598 0.6627451181411743 0.6078431606292725
0.4399014711380005 0.9973156452178955 0.21225295960903168 0.7372549176216125 0.729411780834198 0.6823529601097107
0.34261083602905273 0.8752565979957581 0.008695651777088642 0.6274510025978088 0.6509804129600525 0.6039215922355652
0.34458127617836 0.9971577525138855 0.343082994222641 0.6117647290229797 0.615686297416687 0.5529412031173706
0.46157634258270264 0.9971577525138855 0.12924900650978088 0.24313725531101227 0.23529411852359772 0.1882352977991104
0.4842364490032196 0.9087320566177368 0.009486165829002857 0.4313725531101227 0.45098039507865906 0.3607843220233917
0.31502464413642883 0.8687825798988342 0.00909090880304575 0.6392157077789307 0.6392157077789307 0.6000000238418579
0.3406403958797455 0.9973156452178955 0.8656126260757446 0.5215686559677124 0.5058823823928833 0.4588235318660736
0.36280786991119385 0.9954208135604858 0.39920949935913086 0.7176470756530762 0.7568627595901489 0.8039215803146362
0.39852216839790344 0.9976314306259155 0.9177865386009216 0.3294117748737335 0.3137255012989044 0.2705882489681244
0.3450738787651062 0.9605242609977722 0.007509881630539894 0.6666666865348816 0.658823549747467 0.6000000238418579
0.3325123190879822 0.9974735379219055 0.9241106510162354 0.5254902243614197 0.5254902243614197 0.48627451062202454
0.44704434275627136 0.9939996600151062 0.37667983770370483 0.4156862795352936 0.43529412150382996 0.41960784792900085
0.47044333815574646 0.941260039806366 0.9889327883720398 0.3529411852359772 0.3490196168422699 0.3294117748737335
0.4241379201412201 0.9939996600151062 0.37747034430503845 0.5137255191802979 0.5372549295425415 0.529411792755127
0.4125615656375885 0.9346281290054321 0.007905138656497002 0.5882353186607361 0.5764706134796143 0.5176470875740051
0.39064040780067444 0.9973156452178955 0.2960474193096161 0.7215686440467834 0.729411780834198 0.6784313917160034
0.38596057891845703 0.9147323369979858 0.007509881630539894 0.6941176652908325 0.6705882549285889 0.6078431606292725
0.3214285671710968 0.994947075843811 0.9802371263504028 0.3176470696926117 0.3176470696926117 0.2705882489681244
0.48596060276031494 0.9000473618507385 0.9893280863761902 0.3921568691730499 0.4000000059604645 0.35686275362968445
0.47364532947540283 0.9161534905433655 0.9893280863761902 0.4000000059604645 0.4000000059604645 0.3607843220233917
0.3209359645843506 0.9974735379219055 0.2501976191997528 0.7058823704719543 0.7215686440467834 0.6627451181411743
0.4573891758918762 0.9692088961601257 0.9885375499725342 0.38823530077934265 0.3764705955982208 0.3490196168422699
0.2731527090072632 0.9103110432624817 0.00909090880304575 0.5372549295425415 0.529411792755127 0.47843137383461
0.36256158351898193 0.9954208135604858 0.35652172565460205 0.4588235318660736 0.4588235318660736 0.41960784792900085
0.30369457602500916 0.9955787062644958 0.5482213497161865 0.6784313917160034 0.7137255072593689 0.7411764860153198
0.4492610692977905 0.9922627210617065 0.007905138656497002 0.47058823704719543 0.47843137383461 0.4274509847164154
0.3248768448829651 0.9739459753036499 0.9482213258743286 0.3960784375667572 0.3960784375667572 0.364705890417099
0.3578817844390869 0.9974735379219055 0.19604742527008057 0.729411780834198 0.7215686440467834 0.6745098233222961
0.289901465177536 0.9966840147972107 0.8399209380149841 0.5411764979362488 0.5607843399047852 0.545098066329956
0.46576353907585144 0.9789988994598389 0.9885375499725342 0.3686274588108063 0.3686274588108063 0.32156863808631897
0.4169950783252716 0.9464708566665649 0.9893280863761902 0.43529412150382996 0.4313725531101227 0.4117647111415863
0.26871922612190247 0.9459971785545349 0.00909090880304575 0.572549045085907 0.5647059082984924 0.5058823823928833
0.3933497667312622 0.9973156452178955 0.18023715913295746 0.7137255072593689 0.7215686440467834 0.6392157077789307
0.4682266116142273 0.9957365989685059 0.7249011993408203 0.5686274766921997 0.5803921818733215 0.6000000238418579
0.38793104887008667 0.9954208135604858 0.6541501879692078 0.615686297416687 0.6470588445663452 0.658823549747467
0.3142857253551483 0.9960524439811707 0.7762845754623413 0.5764706134796143 0.6117647290229797 0.6000000238418579
0.3463054299354553 0.9963682293891907 0.036758892238140106 0.2549019753932953 0.21568627655506134 0.18039216101169586
0.36748769879341125 0.9916311502456665 0.9881423115730286 0.32156863808631897 0.30588236451148987 0.25882354378700256
0.4847290515899658 0.9755250215530396 0.007905138656497002 0.6235294342041016 0.6313725709915161 0.5803921818733215
0.3921182155609131 0.9935259819030762 0.3754940629005432 0.7529411911964417 0.772549033164978 0.7960784435272217
0.40615764260292053 0.9954208135604858 0.44980236887931824 0.6823529601097107 0.7098039388656616 0.7490196228027344
0.2497536987066269 0.9987367987632751 0.8561264872550964 0.5568627715110779 0.5333333611488342 0.4313725531101227
0.47389161586761475 0.9960524439811707 0.041897233575582504 0.2078431397676468 0.1725490242242813 0.14509804546833038
0.411822646856308 0.8796778917312622 0.9897233247756958 0.42352941632270813 0.42352941632270813 0.3921568691730499
0.39507389068603516 0.9796305298805237 0.9885375499725342 0.4156862795352936 0.3960784375667572 0.37254902720451355
0.45911329984664917 0.8785725831985474 0.9897233247756958 0.3607843220233917 0.364705890417099 0.3333333432674408
0.3261083662509918 0.9829464554786682 0.9885375499725342 0.4156862795352936 0.3960784375667572 0.37254902720451355
0.33596059679985046 0.8743091821670532 0.9905138611793518 0.364705890417099 0.364705890417099 0.3333333432674408
0.25123152136802673 0.9202589392662048 0.00909090880304575 0.5960784554481506 0.5803921818733215 0.5333333611488342
0.48645320534706116 0.9952629208564758 0.573913037776947 0.6431372761726379 0.6705882549285889 0.6941176652908325
0.43004927039146423 0.9973156452178955 0.1723320186138153 0.7333333492279053 0.7254902124404907 0.6745098233222961
0.48965516686439514 0.9600505232810974 0.00830039568245411 0.5254902243614197 0.529411792755127 0.46666666865348816
0.4194581210613251 0.9591031074523926 0.007905138656497002 0.45490196347236633 0.47058823704719543 0.4117647111415863
0.37438422441482544 0.9971577525138855 0.8592885136604309 0.5176470875740051 0.5058823823928833 0.47058823704719543
0.36206895112991333 0.9196273684501648 0.007905138656497002 0.5764706134796143 0.572549045085907 0.501960813999176
0.44261083006858826 0.9963682293891907 0.8454545736312866 0.40784314274787903 0.40392157435417175 0.42352941632270813
0.37044334411621094 0.9796305298805237 0.9885375499725342 0.42352941632270813 0.40784314274787903 0.3960784375667572
0.41502463817596436 0.9417337775230408 0.9893280863761902 0.43921568989753723 0.4274509847164154 0.40784314274787903
0.336699515581131 0.9963682293891907 0.8391304612159729 0.5137255191802979 0.5137255191802979 0.5058823823928833
0.4157635569572449 0.9984209537506104 0.8814229369163513 0.4941176474094391 0.48627451062202454 0.43921568989753723
0.45073890686035156 0.9988946914672852 0.8897233009338379 0.48627451062202454 0.47058823704719543 0.4274509847164154
0.32364532351493835 0.9973156452178955 0.13992094993591309 0.729411780834198 0.7372549176216125 0.6549019813537598
0.2613300383090973 0.978051483631134 0.9893280863761902 0.43921568989753723 0.4274509847164154 0.3686274588108063
0.27561575174331665 0.9969998598098755 0.06363636255264282 0.6980392336845398 0.7019608020782471 0.6392157077789307
0.3421182334423065 0.9954208135604858 0.47114625573158264 0.7098039388656616 0.7529411911964417 0.7686274647712708
0.4766009747982025 0.9698405265808105 0.00830039568245411 0.48627451062202454 0.48235294222831726 0.4000000059604645
0.35591134428977966 0.9431549310684204 0.0071146246045827866 0.5254902243614197 0.5098039507865906 0.46666666865348816
0.4320197105407715 0.9954208135604858 0.014229249209165573 0.48627451062202454 0.45098039507865906 0.3843137323856354
0.38300493359565735 0.9379441142082214 0.007509881630539894 0.5372549295425415 0.5215686559677124 0.4745098054409027
0.2591133117675781 0.930364727973938 0.00909090880304575 0.6000000238418579 0.5843137502670288 0.5372549295425415
0.3411329984664917 0.9974735379219055 0.22055335342884064 0.729411780834198 0.7372549176216125 0.686274528503418
0.3980295658111572 0.8894678950309753 0.9897233247756958 0.3803921639919281 0.3803921639919281 0.34117648005485535
0.42635467648506165 0.9952629208564758 0.5620553493499756 0.6352941393852234 0.6627451181411743 0.686274528503418
0.3305418789386749 0.994789183139801 0.3901185691356659 0.658823549747467 0.7019608020782471 0.686274528503418
0.3605911433696747 0.9368388056755066 0.9893280863761902 0.4431372582912445 0.4274509847164154 0.42352941632270813
0.3697044253349304 0.9741039276123047 0.9462450742721558 0.4156862795352936 0.40392157435417175 0.3843137323856354
0.3253694474697113 0.9958944916725159 0.3802371621131897 0.6941176652908325 0.729411780834198 0.7254902124404907
0.2605911195278168 0.9483656883239746 0.9893280863761902 0.45098039507865906 0.43921568989753723 0.40392157435417175
0.2665024697780609 0.9936838746070862 0.008695651777088642 0.4313725531101227 0.4274509847164154 0.3450980484485626
0.33842363953590393 0.9976314306259155 0.9197628498077393 0.4901960790157318 0.49803921580314636 0.47843137383461
0.4874384105205536 0.9608400464057922 0.9885375499725342 0.38823530077934265 0.3921568691730499 0.3607843220233917
0.28423646092414856 0.9351018667221069 0.00909090880304575 0.529411792755127 0.5215686559677124 0.4745098054409027
0.3605911433696747 0.9962103366851807 0.02924901247024536 0.24705882370471954 0.21568627655506134 0.1725490242242813
0.42561575770378113 0.9973156452178955 0.1972332000732422 0.7215686440467834 0.7137255072593689 0.6627451181411743
0.4135468006134033 0.9092057347297668 0.9893280863761902 0.41960784792900085 0.41960784792900085 0.38823530077934265
0.4798029661178589 0.9971577525138855 0.1561264842748642 0.7215686440467834 0.7372549176216125 0.6823529601097107
0.26822659373283386 0.9444181323051453 0.9893280863761902 0.4627451002597809 0.4627451002597809 0.4313725531101227
0.2541871964931488 0.9865782260894775 0.9865612387657166 0.4117647111415863 0.4000000059604645 0.34117648005485535
0.35123151540756226 0.9960524439811707 0.8067193627357483 0.5568627715110779 0.5803921818733215 0.5803921818733215
0.34310343861579895 0.9879993796348572 0.00830039568245411 0.6196078658103943 0.6078431606292725 0.5333333611488342
0.3339901566505432 0.9981051683425903 0.9083003997802734 0.5215686559677124 0.5215686559677124 0.48235294222831726
0.4798029661178589 0.9971577525138855 0.1770751029253006 0.7333333492279053 0.7450980544090271 0.7098039388656616
0.39532020688056946 0.9981051683425903 0.9098814129829407 0.37254902720451355 0.3450980484485626 0.2823529541492462
0.33448275923728943 0.9965261220932007 0.03438735008239746 0.25882354378700256 0.21960784494876862 0.18431372940540314
0.2825123071670532 0.9936838746070862 0.008695651777088642 0.5411764979362488 0.529411792755127 0.4627451002597809
0.33497536182403564 0.9957365989685059 0.664426863193512 0.6274510025978088 0.6549019813537598 0.6784313917160034
0.47389161586761475 0.9622611999511719 0.00830039568245411 0.615686297416687 0.6196078658103943 0.5490196347236633
0.39014777541160583 0.9957365989685059 0.739920973777771 0.5686274766921997 0.6000000238418579 0.6078431606292725
0.4564039409160614 0.935417652130127 0.9889327883720398 0.40392157435417175 0.40392157435417175 0.37254902720451355
0.36674878001213074 0.9973156452178955 0.8608695864677429 0.5176470875740051 0.5058823823928833 0.47843137383461
0.43399015069007874 0.9954208135604858 0.4648221433162689 0.658823549747467 0.6980392336845398 0.7333333492279053
0.3165024518966675 0.9384177923202515 0.9893280863761902 0.4627451002597809 0.4470588266849518 0.43529412150382996
0.46674877405166626 0.91867995262146 0.00909090880304575 0.4941176474094391 0.5215686559677124 0.45098039507865906
0.3305418789386749 0.9957365989685059 0.6505928635597229 0.6352941393852234 0.6627451181411743 0.686274528503418
0.3938423693180084 0.9973156452178955 0.19683794677257538 0.7176470756530762 0.7254902124404907 0.6705882549285889
0.38596057891845703 0.9963682293891907 0.8351778388023376 0.5254902243614197 0.5568627715110779 0.5686274766921997
0.2770935893058777 0.9971577525138855 0.12292490154504776 0.7098039388656616 0.7215686440467834 0.6470588445663452
0.2844827473163605 0.907942533493042 0.9897233247756958 0.4431372582912445 0.4274509847164154 0.4156862795352936
0.3266009986400604 0.9936838746070862 0.3790513873100281 0.7137255072593689 0.7490196228027344 0.7764706015586853
0.43448275327682495 0.9966840147972107 0.8509881496429443 0.3176470696926117 0.27843138575553894 0.23137255012989044
0.3256157636642456 0.8719406127929688 0.9905138611793518 0.3921568691730499 0.3921568691730499 0.3607843220233917
0.46995073556900024 0.9966840147972107 0.0830039530992508 0.7098039388656616 0.7137255072593689 0.658823549747467
0.44605910778045654 0.9155218601226807 0.008695651777088642 0.5333333611488342 0.5372549295425415 0.46666666865348816
0.3758620619773865 0.9693667888641357 0.9189723134040833 0.5215686559677124 0.529411792755127 0.5254902243614197
0.25640395283699036 0.9387336373329163 0.00909090880304575 0.3764705955982208 0.3686274588108063 0.30980393290519714
0.4002462923526764 0.9957365989685059 0.9600790739059448 0.3921568691730499 0.38823530077934265 0.3686274588108063
0.3770935833454132 0.9128375053405762 0.9897233247756958 0.4156862795352936 0.42352941632270813 0.40392157435417175
0.48990148305892944 0.9952629208564758 0.5664031505584717 0.6431372761726379 0.6784313917160034 0.6980392336845398
0.4433497488498688 0.886151909828186 0.9897233247756958 0.40392157435417175 0.40392157435417175 0.35686275362968445
0.3642857074737549 0.9592610001564026 0.9889327883720398 0.32549020648002625 0.3137255012989044 0.29411765933036804
0.3298029601573944 0.9954208135604858 0.4213438630104065 0.1882352977991104 0.20392157137393951 0.2078431397676468
0.3224138021469116 0.9974735379219055 0.1723320186138153 0.7176470756530762 0.7254902124404907 0.6705882549285889
0.3657635450363159 0.8725722432136536 0.008695651777088642 0.729411780834198 0.7333333492279053 0.6784313917160034
0.4596059024333954 0.9960524439811707 0.7683794498443604 0.6941176652908325 0.7137255072593689 0.7372549176216125
0.2625615894794464 0.9977893829345703 0.9296442866325378 0.45098039507865906 0.4274509847164154 0.364705890417099
0.35911330580711365 0.9663666486740112 0.9885375499725342 0.43921568989753723 0.41960784792900085 0.40392157435417175
0.2738916277885437 0.9974735379219055 0.7071146368980408 0.6784313917160034 0.6980392336845398 0.7215686440467834
0.3403940796852112 0.8763619065284729 0.9905138611793518 0.35686275362968445 0.3529411852359772 0.3333333432674408
0.4692118167877197 0.9987367987632751 0.8873517513275146 0.48627451062202454 0.47058823704719543 0.4274509847164154
0.4869458079338074 0.8837833404541016 0.9893280863761902 0.3686274588108063 0.37254902720451355 0.3529411852359772
0.28349754214286804 0.9960524439811707 0.5675889253616333 0.6823529601097107 0.7098039388656616 0.7411764860153198
0.38768473267555237 0.9954208135604858 0.6193675994873047 0.6313725709915161 0.658823549747467 0.6823529601097107
0.44655171036720276 0.9973156452178955 0.28774702548980713 0.7333333492279053 0.7215686440467834 0.7019608020782471
0.46206897497177124 0.9971577525138855 0.20118577778339386 0.7411764860153198 0.7411764860153198 0.6941176652908325
0.3770935833454132 0.9954208135604858 0.5794466137886047 0.6549019813537598 0.6823529601097107 0.7058823704719543
0.25 0.9985788464546204 0.6762846112251282 0.6470588445663452 0.6392157077789307 0.5882353186607361
0.428078830242157 0.9954208135604858 0.5043478012084961 0.6549019813537598 0.6823529601097107 0.7215686440467834
0.41847291588783264 0.972524881362915 0.007905138656497002 0.4470588266849518 0.4431372582912445 0.37254902720451355
0.41847291588783264 0.9897363185882568 0.007905138656497002 0.5137255191802979 0.501960813999176 0.4431372582912445
0.4642857015132904 0.9955787062644958 0.4075098931789398 0.7098039388656616 0.7372549176216125 0.7686274647712708
0.3684729039669037 0.9968419671058655 0.13952569663524628 0.729411780834198 0.7333333492279053 0.6784313917160034
0.47068965435028076 0.9807358384132385 0.007905138656497002 0.5333333611488342 0.5372549295425415 0.4745098054409027
0.4674876928329468 0.9692088961601257 0.9118577241897583 0.4117647111415863 0.41960784792900085 0.4156862795352936
0.3647783398628235 0.9963682293891907 0.8399209380149841 0.49803921580314636 0.5215686559677124 0.5215686559677124
0.39433497190475464 0.9963682293891907 0.9466403126716614 0.3960784375667572 0.40784314274787903 0.3803921639919281
0.24852216243743896 0.9982630610466003 0.926086962223053 0.45490196347236633 0.4313725531101227 0.3764705955982208
0.4051724076271057 0.9733144044876099 0.9063240885734558 0.5647059082984924 0.5647059082984924 0.5647059082984924
0.31133005023002625 0.9270488023757935 0.008695651777088642 0.6823529601097107 0.6705882549285889 0.6352941393852234
0.24926108121871948 0.8724143505096436 0.00909090880304575 0.5607843399047852 0.572549045085907 0.49803921580314636
0.3697044253349304 0.9962103366851807 0.8320158123970032 0.5333333611488342 0.5529412031173706 0.5647059082984924
0.39014777541160583 0.9360492825508118 0.9893280863761902 0.43921568989753723 0.4431372582912445 0.41960784792900085
0.4137931168079376 0.9567345380783081 0.9889327883720398 0.38823530077934265 0.3843137323856354 0.364705890417099
0.42955663800239563 0.9939996600151062 0.9719367623329163 0.5137255191802979 0.5098039507865906 0.4941176474094391
0.34408867359161377 0.9965261220932007 0.8490118384361267 0.32156863808631897 0.2823529541492462 0.24705882370471954
0.28768473863601685 0.9973156452178955 0.186956524848938 0.7411764860153198 0.7529411911964417 0.7098039388656616
0.2667487561702728 0.9977893829345703 0.6636363863945007 0.6196078658103943 0.6117647290229797 0.5529412031173706
