0.48226600885391235 0.33428075909614563 0.29486167430877686 0.5411764979362488 0.5568627715110779 0.5921568870544434
0.4766009747982025 0.44639191031455994 0.9897233247756958 0.4156862795352936 0.40392157435417175 0.3686274588108063
0.4125615656375885 0.38338860869407654 0.006719367578625679 0.1764705926179886 0.16862745583057404 0.12156862765550613
0.41502463817596436 0.32354333996772766 0.1770751029253006 0.0941176488995552 0.0941176488995552 0.0941176488995552
0.4288177192211151 0.4708668887615204 0.17470355331897736 0.2980392277240753 0.3019607961177826 0.27843138575553894
0.35123151540756226 0.46644559502601624 0.20711462199687958 0.125490203499794 0.12941177189350128 0.13725490868091583
0.2931034564971924 0.3268592953681946 0.006719367578625679 0.5764706134796143 0.5843137502670288 0.501960813999176
0.3741379380226135 0.45933997631073 0.2023715376853943 0.09019608050584793 0.09803921729326248 0.0941176488995552
0.4403941035270691 0.37249329686164856 0.29525691270828247 0.5607843399047852 0.5764706134796143 0.6117647290229797
0.42315271496772766 0.3855992555618286 0.16007904708385468 0.4901960790157318 0.4745098054409027 0.47843137383461
0.2497536987066269 0.3619137704372406 0.9893280863761902 0.42352941632270813 0.42352941632270813 0.3921568691730499
0.37931033968925476 0.4331280589103699 0.1403162032365799 0.3686274588108063 0.37254902720451355 0.3490196168422699
0.3694581389427185 0.31991156935691833 0.9877470135688782 0.29411765933036804 0.29411765933036804 0.2549019753932953
0.4216748774051666 0.4105479121208191 0.008695651777088642 0.16862745583057404 0.1568627506494522 0.13725490868091583
0.39014777541160583 0.44086530804634094 0.007905138656497002 0.4000000059604645 0.3843137323856354 0.3490196168422699
0.4051724076271057 0.3683878183364868 0.006719367578625679 0.21176470816135406 0.20000000298023224 0.16470588743686676
0.3499999940395355 0.4708668887615204 0.00909090880304575 0.5529412031173706 0.5490196347236633 0.47843137383461
0.4290640354156494 0.3934943974018097 0.18458497524261475 0.6666666865348816 0.6470588445663452 0.6313725709915161
0.4167487621307373 0.33207011222839355 0.1723320186138153 0.07058823853731155 0.07058823853731155 0.07058823853731155
0.35911330580711365 0.3336491286754608 0.29960474371910095 0.24313725531101227 0.26274511218070984 0.27843138575553894
0.3613300621509552 0.39459970593452454 0.007509881630539894 0.5803921818733215 0.5921568870544434 0.5254902243614197
0.2783251106739044 0.3240170478820801 0.9881423115730286 1.0 1.0 1.0
0.26847290992736816 0.45523449778556824 0.9897233247756958 0.4000000059604645 0.3921568691730499 0.3450980484485626
0.29064038395881653 0.44433918595314026 0.9897233247756958 0.42352941632270813 0.4156862795352936 0.3686274588108063
0.3842364549636841 0.4394441843032837 0.9897233247756958 0.4117647111415863 0.40392157435417175 0.35686275362968445
0.4532019793987274 0.4511290192604065 0.29525691270828247 0.5686274766921997 0.5960784554481506 0.6352941393852234
0.4635468125343323 0.4170219600200653 0.2956521809101105 0.5882353186607361 0.6078431606292725 0.6235294342041016
0.41428571939468384 0.38986262679100037 0.1608695685863495 0.4627451002597809 0.4470588266849518 0.45098039507865906
0.42561575770378113 0.35796621441841125 0.17826086282730103 0.062745101749897 0.062745101749897 0.062745101749897
0.39408865571022034 0.34343913197517395 0.17075099050998688 0.0784313753247261 0.0784313753247261 0.0784313753247261
0.36674878001213074 0.3822832703590393 0.0071146246045827866 0.48627451062202454 0.5176470875740051 0.4274509847164154
0.32266008853912354 0.4462340176105499 0.007905138656497002 0.6745098233222961 0.6666666865348816 0.615686297416687
0.338177353143692 0.4482867419719696 0.3011857569217682 0.10980392247438431 0.10980392247438431 0.10980392247438431
0.3527093529701233 0.42160114645957947 0.007905138656497002 0.16078431904315948 0.16862745583057404 0.1568627506494522
0.3610837459564209 0.40075793862342834 0.007509881630539894 0.3686274588108063 0.3686274588108063 0.27450981736183167
0.4396551847457886 0.33522817492485046 0.17905138432979584 0.04313725605607033 0.05098039284348488 0.0470588244497776
0.3807881772518158 0.36049264669418335 0.29407113790512085 0.5176470875740051 0.5490196347236633 0.5607843399047852
0.4096059203147888 0.4361282289028168 0.9897233247756958 0.3764705955982208 0.3686274588108063 0.32156863808631897
0.3645320236682892 0.4141796827316284 0.007905138656497002 0.5333333611488342 0.545098066329956 0.43921568989753723
0.4490147829055786 0.3617558777332306 0.18063241243362427 0.07058823853731155 0.062745101749897 0.06666667014360428
0.37561577558517456 0.4370756447315216 0.29407113790512085 0.3294117748737335 0.35686275362968445 0.3803921639919281
0.43546798825263977 0.3650718331336975 0.29525691270828247 0.5607843399047852 0.572549045085907 0.6000000238418579
0.3773398995399475 0.4258645176887512 0.14347825944423676 0.3686274588108063 0.37254902720451355 0.34117648005485535
0.3088670074939728 0.3278067409992218 0.006719367578625679 0.5764706134796143 0.5882353186607361 0.4745098054409027
0.3805418610572815 0.36317700147628784 0.006719367578625679 0.29411765933036804 0.3019607961177826 0.24705882370471954
0.2847290635108948 0.4536554515361786 0.9897233247756958 0.4117647111415863 0.40392157435417175 0.35686275362968445
0.42709359526634216 0.3963366448879242 0.9885375499725342 0.38823530077934265 0.3764705955982208 0.3490196168422699
0.47832512855529785 0.35812410712242126 0.9877470135688782 0.3529411852359772 0.34117648005485535 0.32156863808631897
0.4233990013599396 0.4677088260650635 0.18853755295276642 0.0313725508749485 0.0313725508749485 0.0313725508749485
0.37438422441482544 0.45570820569992065 0.9897233247756958 0.40784314274787903 0.4000000059604645 0.3529411852359772
0.4135468006134033 0.45855045318603516 0.007905138656497002 0.2705882489681244 0.2549019753932953 0.21176470816135406
0.4317733943462372 0.42081162333488464 0.29525691270828247 0.6000000238418579 0.615686297416687 0.6274510025978088
0.37044334411621094 0.4721301198005676 0.9901185631752014 0.3764705955982208 0.364705890417099 0.3294117748737335
0.24778325855731964 0.3472287952899933 0.9889327883720398 0.35686275362968445 0.3450980484485626 0.32549020648002625
0.3576354682445526 0.44702354073524475 0.20197628438472748 0.13725490868091583 0.14509804546833038 0.1411764770746231
0.45911329984664917 0.3560713827610016 0.005533596966415644 0.41960784792900085 0.42352941632270813 0.3529411852359772
0.35985222458839417 0.38623085618019104 0.9885375499725342 0.4000000059604645 0.3921568691730499 0.34117648005485535
0.45812806487083435 0.3825990855693817 0.2956521809101105 0.5921568870544434 0.5960784554481506 0.615686297416687
0.3522167503833771 0.4457603096961975 0.9897233247756958 0.3960784375667572 0.3843137323856354 0.3490196168422699
0.3221674859523773 0.44449707865715027 0.9897233247756958 0.40784314274787903 0.3960784375667572 0.3607843220233917
0.4199507534503937 0.4538133442401886 0.17588932812213898 0.3529411852359772 0.35686275362968445 0.3333333432674408
0.4517241418361664 0.443075954914093 0.006719367578625679 0.3764705955982208 0.3607843220233917 0.3137255012989044
0.24753694236278534 0.46360334753990173 0.9897233247756958 0.42352941632270813 0.4156862795352936 0.3686274588108063
0.45049262046813965 0.327175110578537 0.0035573123022913933 0.10588235408067703 0.05098039284348488 0.007843137718737125
0.3342364430427551 0.36633506417274475 0.9881423115730286 0.37254902720451355 0.3764705955982208 0.3137255012989044
0.4556650221347809 0.46107688546180725 0.9897233247756958 0.4156862795352936 0.40784314274787903 0.3607843220233917
0.3342364430427551 0.3470709025859833 0.0063241105526685715 0.6823529601097107 0.615686297416687 0.5372549295425415
0.42241379618644714 0.44923415780067444 0.17865613102912903 0.3607843220233917 0.364705890417099 0.34117648005485535
0.37142857909202576 0.4718143045902252 0.1351778656244278 0.32549020648002625 0.32549020648002625 0.2862745225429535
0.45763546228408813 0.367756187915802 0.006719367578625679 0.3764705955982208 0.3764705955982208 0.3294117748737335
0.4413793087005615 0.4689720571041107 0.1822134405374527 0.2862745225429535 0.29019609093666077 0.2666666805744171
0.411822646856308 0.33128058910369873 0.9877470135688782 0.30980393290519714 0.30980393290519714 0.2705882489681244
0.34236451983451843 0.32306963205337524 0.006719367578625679 0.5098039507865906 0.529411792755127 0.45098039507865906
0.4246305525302887 0.46360334753990173 0.17588932812213898 0.3294117748737335 0.3333333432674408 0.30980393290519714
0.4238916337490082 0.4620243310928345 0.17588932812213898 0.3333333432674408 0.33725491166114807 0.3137255012989044
0.42241379618644714 0.33254382014274597 0.9873517751693726 0.30980393290519714 0.2980392277240753 0.2705882489681244
0.3568965494632721 0.3186483383178711 0.9877470135688782 0.2980392277240753 0.2862745225429535 0.250980406999588
0.3645320236682892 0.36680877208709717 0.9881423115730286 0.3529411852359772 0.3450980484485626 0.2980392277240753
0.25541871786117554 0.4509710967540741 0.9897233247756958 0.4117647111415863 0.40392157435417175 0.35686275362968445
0.35073891282081604 0.3300173580646515 0.28379446268081665 0.07450980693101883 0.07450980693101883 0.06666667014360428
0.3482758700847626 0.36396652460098267 0.32094863057136536 0.29019609093666077 0.30980393290519714 0.29411765933036804
0.3290640413761139 0.41291648149490356 0.007509881630539894 0.6000000238418579 0.5960784554481506 0.5176470875740051
0.4472906291484833 0.3483341336250305 0.9873517751693726 0.35686275362968445 0.3450980484485626 0.30980393290519714
0.3049260973930359 0.34580767154693604 0.9881423115730286 0.3294117748737335 0.3294117748737335 0.2823529541492462
0.4763546884059906 0.40091583132743835 0.2956521809101105 0.5882353186607361 0.6039215922355652 0.6078431606292725
0.36773398518562317 0.45207643508911133 0.9897233247756958 0.4156862795352936 0.4000000059604645 0.364705890417099
0.34408867359161377 0.3911258578300476 0.007509881630539894 0.13725490868091583 0.13725490868091583 0.10588235408067703
0.338177353143692 0.34943944215774536 0.9881423115730286 0.2705882489681244 0.25882354378700256 0.2235294133424759
0.3051724135875702 0.43265435099601746 0.9897233247756958 0.3529411852359772 0.3529411852359772 0.3137255012989044
0.4487684667110443 0.4482867419719696 0.9897233247756958 0.3921568691730499 0.3843137323856354 0.3333333432674408
0.41477832198143005 0.32906994223594666 0.005928853526711464 0.239215686917305 0.23137255012989044 0.18039216101169586
0.3300492465496063 0.3390178382396698 0.9877470135688782 0.3019607961177826 0.29019609093666077 0.2549019753932953
0.3997536897659302 0.3996526002883911 0.0071146246045827866 0.0470588244497776 0.0470588244497776 0.03921568766236305
0.45935961604118347 0.367440402507782 0.2956521809101105 0.5686274766921997 0.5843137502670288 0.6196078658103943
0.3773398995399475 0.3353860676288605 0.16284584999084473 0.18431372940540314 0.18431372940540314 0.18431372940540314
0.3576354682445526 0.448444664478302 0.9897233247756958 0.38823530077934265 0.3803921639919281 0.3333333432674408
0.38251230120658875 0.44070741534233093 0.9897233247756958 0.43529412150382996 0.42352941632270813 0.38823530077934265
0.44310346245765686 0.3278067409992218 0.1826086938381195 0.06666667014360428 0.06666667014360428 0.06666667014360428
0.40320196747779846 0.3276488184928894 0.1715414971113205 0.11764705926179886 0.11764705926179886 0.11764705926179886
0.3019704520702362 0.43581241369247437 0.9897233247756958 0.38823530077934265 0.3803921639919281 0.3333333432674408
0.42266011238098145 0.4167061448097229 0.008695651777088642 0.2235294133424759 0.21176470816135406 0.18431372940540314
0.3802955746650696 0.3527553975582123 0.15415020287036896 0.23529411852359772 0.22745098173618317 0.23137255012989044
0.3731527030467987 0.35796621441841125 0.1509881466627121 0.250980406999588 0.24313725531101227 0.24705882370471954
0.41034483909606934 0.4047055244445801 0.29486167430877686 0.6078431606292725 0.6235294342041016 0.658823549747467
0.43029555678367615 0.4230222702026367 0.9893280863761902 0.4117647111415863 0.4117647111415863 0.3803921639919281
0.38645321130752563 0.32843834161758423 0.17944663763046265 0.05882352963089943 0.05882352963089943 0.05882352963089943
0.3566502332687378 0.46107688546180725 0.16561265289783478 0.16862745583057404 0.1764705926179886 0.1725490242242813
0.2931034564971924 0.4364440143108368 0.9897233247756958 0.4156862795352936 0.40784314274787903 0.35686275362968445
0.29630541801452637 0.33175429701805115 0.9881423115730286 0.8117647171020508 0.8274509906768799 0.8313725590705872
0.43916255235671997 0.3998105227947235 0.0063241105526685715 0.062745101749897 0.062745101749897 0.062745101749897
0.3285714387893677 0.3792831301689148 0.9885375499725342 0.3843137323856354 0.3764705955982208 0.32549020648002625
0.39088669419288635 0.4309174120426178 0.17786560952663422 0.5411764979362488 0.5607843399047852 0.545098066329956
0.30714285373687744 0.4340754747390747 0.007509881630539894 0.46666666865348816 0.47058823704719543 0.4000000059604645
0.2854679822921753 0.42681193351745605 0.9897233247756958 0.40392157435417175 0.40392157435417175 0.37254902720451355
0.43103447556495667 0.3240170478820801 0.18142291903495789 0.03529411926865578 0.04313725605607033 0.03921568766236305
0.32290640473365784 0.4718143045902252 0.9901185631752014 0.4000000059604645 0.3843137323856354 0.34117648005485535
0.4472906291484833 0.38670456409454346 0.006719367578625679 0.43529412150382996 0.42352941632270813 0.35686275362968445
0.27536946535110474 0.3472287952899933 0.9885375499725342 0.32156863808631897 0.32156863808631897 0.29019609093666077
0.38620689511299133 0.3685457110404968 0.17430830001831055 0.12156862765550613 0.12156862765550613 0.12156862765550613
0.4416256248950958 0.3998105227947235 0.0063241105526685715 0.062745101749897 0.062745101749897 0.062745101749897
0.45492610335350037 0.41181114315986633 0.9889327883720398 0.3764705955982208 0.37254902720451355 0.3529411852359772
0.4251231551170349 0.4223906397819519 0.00830039568245411 0.20000000298023224 0.1882352977991104 0.16078431904315948
0.31945812702178955 0.4418127238750458 0.9897233247756958 0.41960784792900085 0.4117647111415863 0.364705890417099
0.37832513451576233 0.413390189409256 0.9889327883720398 0.40392157435417175 0.3960784375667572 0.3490196168422699
0.3770935833454132 0.33175429701805115 0.16561265289783478 0.18039216101169586 0.18039216101169586 0.18039216101169586
0.46576353907585144 0.3505447506904602 0.2964426875114441 0.5647059082984924 0.5764706134796143 0.6039215922355652
0.34261083602905273 0.4366019368171692 0.9897233247756958 0.3764705955982208 0.3764705955982208 0.3294117748737335
0.3847290575504303 0.327175110578537 0.29446640610694885 0.5372549295425415 0.5411764979362488 0.5568627715110779
0.4714285731315613 0.47307753562927246 0.005928853526711464 0.5176470875740051 0.5529412031173706 0.5333333611488342
0.4293103516101837 0.32338544726371765 0.18063241243362427 0.07450980693101883 0.07450980693101883 0.07450980693101883
0.4088670015335083 0.3903363347053528 0.17391304671764374 0.6627451181411743 0.6196078658103943 0.5333333611488342
0.37832513451576233 0.3715458810329437 0.29407113790512085 0.5254902243614197 0.5529412031173706 0.5843137502670288
0.3541871905326843 0.4572872221469879 0.208695650100708 0.12941177189350128 0.13725490868091583 0.13333334028720856
0.472660094499588 0.40628454089164734 0.2956521809101105 0.5843137502670288 0.5960784554481506 0.6235294342041016
0.3519704341888428 0.46376124024391174 0.20909090340137482 0.12156862765550613 0.12941177189350128 0.125490203499794
0.371921181678772 0.373282790184021 0.145454540848732 0.29411765933036804 0.2862745225429535 0.29019609093666077
0.336699515581131 0.43297016620635986 0.007905138656497002 0.5803921818733215 0.5843137502670288 0.529411792755127
0.4514778256416321 0.3533870279788971 0.2960474193096161 0.5568627715110779 0.5843137502670288 0.6078431606292725
0.39162561297416687 0.4228643476963043 0.9893280863761902 0.40784314274787903 0.3960784375667572 0.3607843220233917
0.4566502571105957 0.3593873381614685 0.2956521809101105 0.5607843399047852 0.5686274766921997 0.615686297416687
0.285221666097641 0.4621822237968445 0.007905138656497002 0.6313725709915161 0.6274510025978088 0.5568627715110779
0.43029555678367615 0.3413863778114319 0.29407113790512085 0.5686274766921997 0.572549045085907 0.5921568870544434
0.3209359645843506 0.3906521499156952 0.0071146246045827866 0.6431372761726379 0.6549019813537598 0.5803921818733215
0.437438428401947 0.3295436501502991 0.29446640610694885 0.572549045085907 0.5764706134796143 0.5921568870544434
0.39113301038742065 0.356860876083374 0.15494070947170258 0.24313725531101227 0.23529411852359772 0.239215686917305
0.373399019241333 0.3221222162246704 0.1873517781496048 0.062745101749897 0.062745101749897 0.062745101749897
0.44605910778045654 0.4029685854911804 0.9885375499725342 0.37254902720451355 0.3607843220233917 0.32549020648002625
0.34384235739707947 0.4482867419719696 0.28498023748397827 0.10588235408067703 0.10588235408067703 0.10588235408067703
0.41034483909606934 0.316121906042099 0.9877470135688782 0.30588236451148987 0.29411765933036804 0.25882354378700256
0.3842364549636841 0.4394441843032837 0.9897233247756958 0.4117647111415863 0.40392157435417175 0.35686275362968445
0.4169950783252716 0.356860876083374 0.9877470135688782 0.33725491166114807 0.33725491166114807 0.2980392277240753
0.336699515581131 0.4456023871898651 0.31027668714523315 0.10588235408067703 0.10588235408067703 0.10588235408067703
0.39113301038742065 0.37486183643341064 0.0071146246045827866 0.30980393290519714 0.3019607961177826 0.2549019753932953
0.3421182334423065 0.46455076336860657 0.3027667999267578 0.08627451211214066 0.08627451211214066 0.0784313753247261
0.2738916277885437 0.397126168012619 0.9893280863761902 0.3921568691730499 0.3921568691730499 0.3529411852359772
0.48620688915252686 0.39491552114486694 0.2960474193096161 0.5960784554481506 0.6117647290229797 0.615686297416687
0.34729063510894775 0.465024471282959 0.23873518407344818 0.11372549086809158 0.11372549086809158 0.10588235408067703
0.36330050230026245 0.384178102016449 0.1711462438106537 0.0784313753247261 0.09019608050584793 0.11764705926179886
0.379802942276001 0.3647560477256775 0.9881423115730286 0.35686275362968445 0.3490196168422699 0.3019607961177826
0.38620689511299133 0.3685457110404968 0.17430830001831055 0.12156862765550613 0.12156862765550613 0.12156862765550613
0.29236453771591187 0.35243961215019226 0.006719367578625679 0.6784313917160034 0.686274528503418 0.6313725709915161
0.32783252000808716 0.41244277358055115 0.9893280863761902 0.40784314274787903 0.4000000059604645 0.3529411852359772
0.4763546884059906 0.4457603096961975 0.2956521809101105 0.5960784554481506 0.6078431606292725 0.6431372761726379
0.3647783398628235 0.4279172718524933 0.0885375514626503 0.1411764770746231 0.14509804546833038 0.11372549086809158
0.42733991146087646 0.3762829601764679 0.29486167430877686 0.5686274766921997 0.5803921818733215 0.615686297416687
0.26822659373283386 0.4389704763889313 0.0071146246045827866 0.6392157077789307 0.6431372761726379 0.5882353186607361
0.41428571939468384 0.4647086560726166 0.16758893430233002 0.33725491166114807 0.34117648005485535 0.3176470696926117
0.39532020688056946 0.4304437041282654 0.9893280863761902 0.3803921639919281 0.364705890417099 0.3294117748737335
0.37167486548423767 0.35828202962875366 0.1505928784608841 0.250980406999588 0.24313725531101227 0.24705882370471954
0.34458127617836 0.45949786901474 0.26798418164253235 0.09803921729326248 0.09803921729326248 0.09803921729326248
0.47413793206214905 0.34012317657470703 0.003952569328248501 0.04313725605607033 0.04313725605607033 0.03529411926865578
0.4682266116142273 0.327175110578537 0.29446640610694885 0.5843137502670288 0.5960784554481506 0.6313725709915161
0.28694581985473633 0.3597031533718109 0.0063241105526685715 0.686274528503418 0.6784313917160034 0.5803921818733215
0.29088670015335083 0.4306015968322754 0.0071146246045827866 0.5568627715110779 0.5686274766921997 0.501960813999176
0.464778333902359 0.43565452098846436 0.29525691270828247 0.6117647290229797 0.6117647290229797 0.6509804129600525
0.48645320534706116 0.4279172718524933 0.2956521809101105 0.5843137502670288 0.5843137502670288 0.5921568870544434
0.29113301634788513 0.448602557182312 0.007509881630539894 0.5764706134796143 0.5686274766921997 0.5215686559677124
0.46674877405166626 0.4504973888397217 0.29525691270828247 0.5803921818733215 0.6000000238418579 0.615686297416687
0.3302955627441406 0.3417021930217743 0.9877470135688782 0.29411765933036804 0.29411765933036804 0.2549019753932953
0.4532019793987274 0.3737565279006958 0.29525691270828247 0.572549045085907 0.5882353186607361 0.6235294342041016
0.349261075258255 0.47291961312294006 0.23596838116645813 0.10588235408067703 0.10588235408067703 0.10588235408067703
0.3768472969532013 0.454129159450531 0.19525691866874695 0.09803921729326248 0.09803921729326248 0.10588235408067703
0.3450738787651062 0.36033475399017334 0.31976285576820374 0.30588236451148987 0.30980393290519714 0.3176470696926117
0.3724137842655182 0.38875728845596313 0.29407113790512085 0.7019608020782471 0.7372549176216125 0.8039215803146362
0.33128079771995544 0.4257066249847412 0.9893280863761902 0.43921568989753723 0.42352941632270813 0.38823530077934265
0.4477832615375519 0.35259750485420227 0.18142291903495789 0.04313725605607033 0.04313725605607033 0.04313725605607033
0.42610836029052734 0.40675824880599976 0.007905138656497002 0.11372549086809158 0.10980392247438431 0.09019608050584793
0.39064040780067444 0.4618664085865021 0.14743083715438843 0.3607843220233917 0.364705890417099 0.34117648005485535
0.24679802358150482 0.3505447506904602 0.9889327883720398 0.3176470696926117 0.30588236451148987 0.2862745225429535
0.4278325140476227 0.3383862376213074 0.005928853526711464 0.23137255012989044 0.2235294133424759 0.1764705926179886
0.3578817844390869 0.4391283690929413 0.9897233247756958 0.4117647111415863 0.40392157435417175 0.35686275362968445
0.3411329984664917 0.45523449778556824 0.2869565188884735 0.09803921729326248 0.09803921729326248 0.09803921729326248
0.3928571343421936 0.464866578578949 0.14782609045505524 0.35686275362968445 0.3607843220233917 0.33725491166114807
0.33965516090393066 0.33791252970695496 0.9877470135688782 0.2980392277240753 0.2980392277240753 0.25882354378700256
0.4206896424293518 0.47307753562927246 0.9901185631752014 0.40784314274787903 0.4000000059604645 0.3529411852359772
0.2827586233615875 0.3821253776550293 0.9889327883720398 0.3921568691730499 0.3843137323856354 0.3333333432674408
0.3416256010532379 0.36917731165885925 0.006719367578625679 0.5921568870544434 0.6000000238418579 0.545098066329956
0.25640395283699036 0.3358597755432129 0.9885375499725342 0.21960784494876862 0.23529411852359772 0.23137255012989044
0.3736453056335449 0.4227064549922943 0.007905138656497002 0.40784314274787903 0.40784314274787903 0.3686274588108063
0.338177353143692 0.32543817162513733 0.9877470135688782 0.3137255012989044 0.3019607961177826 0.2666666805744171
0.28793102502822876 0.3308068811893463 0.006719367578625679 0.5843137502670288 0.5764706134796143 0.47843137383461
0.25591132044792175 0.3532291054725647 0.9889327883720398 0.3764705955982208 0.3764705955982208 0.3450980484485626
0.3573891520500183 0.4340754747390747 0.24861660599708557 0.14901961386203766 0.1568627506494522 0.15294118225574493
0.35960590839385986 0.3590715229511261 0.9881423115730286 0.3450980484485626 0.3450980484485626 0.2980392277240753
0.4645320177078247 0.4479709565639496 0.9897233247756958 0.3764705955982208 0.3686274588108063 0.3176470696926117
0.4371921122074127 0.4718143045902252 0.9897233247756958 0.3764705955982208 0.3803921639919281 0.32549020648002625
0.4719211757183075 0.4737091362476349 0.9893280863761902 0.3960784375667572 0.4000000059604645 0.3450980484485626
0.4236453175544739 0.34312331676483154 0.17786560952663422 0.054901961237192154 0.054901961237192154 0.054901961237192154
0.38645321130752563 0.3818095624446869 0.17905138432979584 0.10588235408067703 0.10980392247438431 0.125490203499794
0.40566501021385193 0.3398073613643646 0.0063241105526685715 0.1725490242242813 0.16078431904315948 0.125490203499794
0.33522167801856995 0.3854413330554962 0.9885375499725342 0.3960784375667572 0.38823530077934265 0.34117648005485535
0.3482758700847626 0.3909679353237152 0.007509881630539894 0.18039216101169586 0.18431372940540314 0.16078431904315948
0.4768472909927368 0.4102321267127991 0.9885375499725342 0.40392157435417175 0.3921568691730499 0.37254902720451355
0.3288177251815796 0.45539239048957825 0.9901185631752014 0.4000000059604645 0.38823530077934265 0.3529411852359772
0.3519704341888428 0.362071692943573 0.006719367578625679 0.6235294342041016 0.6000000238418579 0.49803921580314636
0.4721674919128418 0.3357018828392029 0.9873517751693726 0.30588236451148987 0.30588236451148987 0.2666666805744171
0.35394087433815 0.41528502106666565 0.9893280863761902 0.40784314274787903 0.4000000059604645 0.3529411852359772
0.48152709007263184 0.36870360374450684 0.2960474193096161 0.5803921818733215 0.5882353186607361 0.6352941393852234
0.346059113740921 0.4459182024002075 0.28379446268081665 0.10196078568696976 0.10196078568696976 0.10196078568696976
0.3416256010532379 0.36917731165885925 0.006719367578625679 0.5921568870544434 0.6000000238418579 0.545098066329956
0.3615763485431671 0.4454444944858551 0.008695651777088642 0.572549045085907 0.5647059082984924 0.5137255191802979
0.3578817844390869 0.41828516125679016 0.007905138656497002 0.3529411852359772 0.34117648005485535 0.27450981736183167
0.2608374357223511 0.4077056646347046 0.006719367578625679 0.6117647290229797 0.6078431606292725 0.529411792755127
0.33916255831718445 0.3701247572898865 0.006719367578625679 0.5490196347236633 0.5490196347236633 0.45490196347236633
0.3561576306819916 0.3278067409992218 0.1719367653131485 0.1725490242242813 0.18039216101169586 0.1764705926179886
0.4233990013599396 0.3672824800014496 0.29486167430877686 0.5686274766921997 0.5843137502670288 0.6313725709915161
0.26354679465293884 0.4373914301395416 0.0071146246045827866 0.5843137502670288 0.5764706134796143 0.5176470875740051
0.2849753797054291 0.43281224370002747 0.0071146246045827866 0.5490196347236633 0.5607843399047852 0.4941176474094391
0.4214285612106323 0.41796937584877014 0.29486167430877686 0.6117647290229797 0.615686297416687 0.6313725709915161
0.2847290635108948 0.45807674527168274 0.007905138656497002 0.5490196347236633 0.545098066329956 0.46666666865348816
0.3852216601371765 0.42965418100357056 0.18023715913295746 0.49803921580314636 0.5176470875740051 0.529411792755127
0.3603448271751404 0.33491235971450806 0.1620553433895111 0.20000000298023224 0.20000000298023224 0.20000000298023224
0.45098522305488586 0.38702037930488586 0.29525691270828247 0.5764706134796143 0.5882353186607361 0.6078431606292725
0.3963054120540619 0.43833884596824646 0.16521738469600677 0.3686274588108063 0.37254902720451355 0.3490196168422699
0.3600985109806061 0.4306015968322754 0.1774703562259674 0.10196078568696976 0.10980392247438431 0.10588235408067703
0.274137943983078 0.4285488724708557 0.0071146246045827866 0.529411792755127 0.5176470875740051 0.4431372582912445
0.35394087433815 0.46139270067214966 0.20000000298023224 0.12941177189350128 0.13725490868091583 0.13333334028720856
0.440640389919281 0.34975525736808777 0.17470355331897736 0.05098039284348488 0.05098039284348488 0.05098039284348488
0.4554187059402466 0.36901941895484924 0.2956521809101105 0.5686274766921997 0.5843137502670288 0.6196078658103943
0.2541871964931488 0.33728089928627014 0.006719367578625679 0.5921568870544434 0.5843137502670288 0.5254902243614197
0.31453201174736023 0.3189641535282135 0.0071146246045827866 0.5529412031173706 0.529411792755127 0.4274509847164154
0.4014778435230255 0.4628138244152069 0.007905138656497002 0.23529411852359772 0.22745098173618317 0.1764705926179886
0.32364532351493835 0.4599715769290924 0.00830039568245411 0.6784313917160034 0.686274528503418 0.6431372761726379
0.2463054209947586 0.41575872898101807 0.006719367578625679 0.5254902243614197 0.529411792755127 0.46666666865348816
0.48128077387809753 0.3244907557964325 0.9877470135688782 0.32156863808631897 0.30980393290519714 0.27450981736183167
0.47389161586761475 0.3472287952899933 0.9873517751693726 0.364705890417099 0.364705890417099 0.32549020648002625
0.2938423752784729 0.4021790623664856 0.0071146246045827866 0.6117647290229797 0.6235294342041016 0.5568627715110779
0.29926109313964844 0.41860097646713257 0.9893280863761902 0.3960784375667572 0.38823530077934265 0.34117648005485535
0.42955663800239563 0.4707089960575104 0.9901185631752014 0.4117647111415863 0.3960784375667572 0.3529411852359772
0.25517240166664124 0.34059688448905945 0.9885375499725342 0.3490196168422699 0.3490196168422699 0.34117648005485535
0.35935959219932556 0.46423494815826416 0.9901185631752014 0.41960784792900085 0.4117647111415863 0.364705890417099
0.3600985109806061 0.3612821698188782 0.22648221254348755 0.12941177189350128 0.12941177189350128 0.12156862765550613
0.4527093470096588 0.35133427381515503 0.18300394713878632 0.062745101749897 0.054901961237192154 0.06666667014360428
0.35541871190071106 0.32006949186325073 0.9877470135688782 0.30588236451148987 0.29411765933036804 0.25882354378700256
0.400738924741745 0.3991788923740387 0.9885375499725342 0.3921568691730499 0.3921568691730499 0.3450980484485626
0.3482758700847626 0.33191221952438354 0.0063241105526685715 0.49803921580314636 0.4901960790157318 0.3921568691730499
0.4411329925060272 0.37754619121551514 0.1719367653131485 0.5490196347236633 0.5333333611488342 0.5372549295425415
0.40344828367233276 0.338228315114975 0.1660079061985016 0.10196078568696976 0.10196078568696976 0.10196078568696976
0.36403942108154297 0.38307279348373413 0.0071146246045827866 0.5215686559677124 0.5333333611488342 0.46666666865348816
0.3263546824455261 0.40423181653022766 0.007509881630539894 0.545098066329956 0.5411764979362488 0.4627451002597809
0.2785714268684387 0.44418126344680786 0.9897233247756958 0.3803921639919281 0.3686274588108063 0.3333333432674408
0.3775862157344818 0.4372335374355316 0.197628453373909 0.09019608050584793 0.09019608050584793 0.09803921729326248
0.36798030138015747 0.38875728845596313 0.007509881630539894 0.45490196347236633 0.4588235318660736 0.3960784375667572
0.4169950783252716 0.3159639835357666 0.9877470135688782 0.30980393290519714 0.2980392277240753 0.26274511218070984
0.4238916337490082 0.32291173934936523 0.17984189093112946 0.04313725605607033 0.05098039284348488 0.0470588244497776
0.34359607100486755 0.31722721457481384 0.0071146246045827866 0.2549019753932953 0.2862745225429535 0.23529411852359772
0.3963054120540619 0.4459182024002075 0.29446640610694885 0.6117647290229797 0.6117647290229797 0.6431372761726379
0.39113301038742065 0.4336017668247223 0.9897233247756958 0.3803921639919281 0.37254902720451355 0.32549020648002625
0.34310343861579895 0.45523449778556824 0.2766798436641693 0.10196078568696976 0.10196078568696976 0.10196078568696976
0.40763548016548157 0.45965576171875 0.29407113790512085 0.5411764979362488 0.5764706134796143 0.572549045085907
0.40763548016548157 0.45965576171875 0.29407113790512085 0.5411764979362488 0.5764706134796143 0.572549045085907
0.35073891282081604 0.3383862376213074 0.31067192554473877 0.29019609093666077 0.30588236451148987 0.3176470696926117
0.3935960531234741 0.32938575744628906 0.16877470910549164 0.1411764770746231 0.1411764770746231 0.1411764770746231
0.38300493359565735 0.4197063148021698 0.9893280863761902 0.42352941632270813 0.4117647111415863 0.3764705955982208
0.3810344934463501 0.35259750485420227 0.17549407482147217 0.06666667014360428 0.06666667014360428 0.06666667014360428
0.253201961517334 0.41181114315986633 0.006719367578625679 0.6431372761726379 0.6509804129600525 0.5686274766921997
0.40541872382164 0.4422864317893982 0.007509881630539894 0.3490196168422699 0.33725491166114807 0.3019607961177826
0.44187191128730774 0.35496604442596436 0.17509882152080536 0.054901961237192154 0.05098039284348488 0.04313725605607033
0.381280779838562 0.34628137946128845 0.29407113790512085 0.5137255191802979 0.5333333611488342 0.5490196347236633
0.48152709007263184 0.327175110578537 0.9877470135688782 0.3294117748737335 0.3176470696926117 0.2823529541492462
0.3894088566303253 0.3484920263290405 0.15731225907802582 0.19607843458652496 0.19607843458652496 0.19607843458652496
0.27142858505249023 0.3412284851074219 0.006719367578625679 0.5529412031173706 0.5686274766921997 0.501960813999176
0.3778325021266937 0.44749724864959717 0.29407113790512085 0.35686275362968445 0.3764705955982208 0.38823530077934265
0.39482757449150085 0.42633822560310364 0.29446640610694885 0.6352941393852234 0.6627451181411743 0.686274528503418
0.403940886259079 0.4631296396255493 0.9901185631752014 0.41960784792900085 0.40784314274787903 0.37254902720451355
0.3655172288417816 0.42902258038520813 0.15177865326404572 0.26274511218070984 0.2705882489681244 0.2666666805744171
0.3965517282485962 0.45191851258277893 0.007905138656497002 0.3529411852359772 0.3529411852359772 0.30588236451148987
0.4448275864124298 0.3451760709285736 0.005533596966415644 0.34117648005485535 0.3450980484485626 0.29019609093666077
0.39137929677963257 0.4222327470779419 0.29446640610694885 0.6470588445663452 0.6666666865348816 0.6901960968971252
0.43891626596450806 0.33143851161003113 0.29446640610694885 0.5764706134796143 0.5882353186607361 0.6078431606292725
0.24704433977603912 0.33807042241096497 0.9889327883720398 0.2980392277240753 0.29019609093666077 0.29411765933036804
0.4908866882324219 0.41465339064598083 0.9889327883720398 0.38823530077934265 0.3686274588108063 0.3529411852359772
0.403940886259079 0.46155059337615967 0.186956524848938 0.019607843831181526 0.019607843831181526 0.019607843831181526
0.3105911314487457 0.3994947075843811 0.9889327883720398 0.3960784375667572 0.38823530077934265 0.33725491166114807
0.41133004426956177 0.39191535115242004 0.9885375499725342 0.3960784375667572 0.3686274588108063 0.33725491166114807
0.336699515581131 0.3623875081539154 0.9881423115730286 0.364705890417099 0.3686274588108063 0.3137255012989044
0.39162561297416687 0.3306489884853363 0.0063241105526685715 0.20392157137393951 0.1921568661928177 0.1568627506494522
0.4524630606174469 0.37865149974823 0.006719367578625679 0.42352941632270813 0.4156862795352936 0.32549020648002625
0.3573891520500183 0.4509710967540741 0.1766798347234726 0.1411764770746231 0.14901961386203766 0.14509804546833038
0.4871921241283417 0.44102320075035095 0.2956521809101105 0.5764706134796143 0.5803921818733215 0.6000000238418579
0.4317733943462372 0.41196906566619873 0.29525691270828247 0.6078431606292725 0.6196078658103943 0.6392157077789307
0.3266009986400604 0.41260066628456116 0.007509881630539894 0.6274510025978088 0.6352941393852234 0.5529412031173706
0.34285715222358704 0.4394441843032837 0.9897233247756958 0.32156863808631897 0.32156863808631897 0.2823529541492462
0.3416256010532379 0.3592294454574585 0.29525691270828247 0.10196078568696976 0.09803921729326248 0.09019608050584793
0.4051724076271057 0.38923102617263794 0.1667984127998352 0.5921568870544434 0.6078431606292725 0.6196078658103943
0.38251230120658875 0.443075954914093 0.9897233247756958 0.4117647111415863 0.4000000059604645 0.37254902720451355
0.45862069725990295 0.38607296347618103 0.2956521809101105 0.5882353186607361 0.5921568870544434 0.6117647290229797
0.37068966031074524 0.4198642075061798 0.007905138656497002 0.4470588266849518 0.45490196347236633 0.4117647111415863
0.2502463161945343 0.37565135955810547 0.9893280863761902 0.3960784375667572 0.3960784375667572 0.3490196168422699
0.43842363357543945 0.34580767154693604 0.17509882152080536 0.0470588244497776 0.0470588244497776 0.0470588244497776
0.4687192142009735 0.45507657527923584 0.9897233247756958 0.3607843220233917 0.3490196168422699 0.3137255012989044
0.3881773352622986 0.35465025901794434 0.15494070947170258 0.23137255012989044 0.2235294133424759 0.22745098173618317
0.44310346245765686 0.362071692943573 0.17470355331897736 0.07058823853731155 0.07058823853731155 0.0784313753247261
0.3576354682445526 0.4508132040500641 0.1664031594991684 0.4313725531101227 0.42352941632270813 0.3764705955982208
0.2630541920661926 0.408021479845047 0.006719367578625679 0.5372549295425415 0.5333333611488342 0.45490196347236633
0.4248768389225006 0.46960365772247314 0.007509881630539894 0.24313725531101227 0.22745098173618317 0.18039216101169586
0.3608374297618866 0.36680877208709717 0.21462450921535492 0.14509804546833038 0.15294118225574493 0.13333334028720856
0.29211822152137756 0.3507026731967926 0.006719367578625679 0.658823549747467 0.6705882549285889 0.5960784554481506
0.4416256248950958 0.44133901596069336 0.29486167430877686 0.5843137502670288 0.5921568870544434 0.6431372761726379
0.3642857074737549 0.45870834589004517 0.1407114565372467 0.3686274588108063 0.37254902720451355 0.3490196168422699
0.36330050230026245 0.35180798172950745 0.9877470135688782 0.30980393290519714 0.30980393290519714 0.26274511218070984
0.4403941035270691 0.3993368148803711 0.0063241105526685715 0.062745101749897 0.062745101749897 0.062745101749897
0.26822659373283386 0.3679141104221344 0.0063241105526685715 0.5686274766921997 0.5647059082984924 0.48627451062202454
0.346059113740921 0.3737565279006958 0.0071146246045827866 0.6627451181411743 0.6901960968971252 0.6196078658103943
0.4692118167877197 0.34280750155448914 0.9873517751693726 0.3529411852359772 0.34117648005485535 0.30588236451148987
0.37881773710250854 0.3529133200645447 0.006719367578625679 0.38823530077934265 0.364705890417099 0.3019607961177826
0.35492610931396484 0.34628137946128845 0.21106719970703125 0.1764705926179886 0.20000000298023224 0.1921568661928177
0.2817733883857727 0.4574451148509979 0.9897233247756958 0.3607843220233917 0.3450980484485626 0.3019607961177826
0.2630541920661926 0.38923102617263794 0.006719367578625679 0.6470588445663452 0.658823549747467 0.5843137502670288
0.33916255831718445 0.3357018828392029 0.9877470135688782 0.27450981736183167 0.27450981736183167 0.24313725531101227
0.33891624212265015 0.46707722544670105 0.9901185631752014 0.40392157435417175 0.3921568691730499 0.364705890417099
0.39532020688056946 0.3769145607948303 0.0071146246045827866 0.1921568661928177 0.1921568661928177 0.15294118225574493
0.2810344696044922 0.45618191361427307 0.007509881630539894 0.48627451062202454 0.4901960790157318 0.41960784792900085
0.38201969861984253 0.33522817492485046 0.29446640610694885 0.529411792755127 0.5333333611488342 0.5529412031173706
0.4194581210613251 0.4547607898712158 0.29446640610694885 0.5568627715110779 0.5764706134796143 0.5921568870544434
0.4177339971065521 0.38654667139053345 0.9881423115730286 0.3921568691730499 0.3803921639919281 0.3529411852359772
0.4293103516101837 0.345649778842926 0.16956521570682526 0.0470588244497776 0.0470588244497776 0.0470588244497776
0.45492610335350037 0.46644559502601624 0.1873517781496048 0.2862745225429535 0.29019609093666077 0.2705882489681244
0.36231526732444763 0.3900205194950104 0.14703556895256042 0.30588236451148987 0.2980392277240753 0.3019607961177826
0.3211822807788849 0.3679141104221344 0.9885375499725342 0.3803921639919281 0.3803921639919281 0.3333333432674408
0.4433497488498688 0.34043896198272705 0.9873517751693726 0.23529411852359772 0.23529411852359772 0.20392157137393951
0.34261083602905273 0.4053371250629425 0.007509881630539894 0.4313725531101227 0.4274509847164154 0.35686275362968445
0.3098522126674652 0.42396968603134155 0.007509881630539894 0.5372549295425415 0.5411764979362488 0.47058823704719543
0.4519704580307007 0.4391283690929413 0.006719367578625679 0.3176470696926117 0.30588236451148987 0.24705882370471954
0.4041872024536133 0.38307279348373413 0.006719367578625679 0.21568627655506134 0.2078431397676468 0.16078431904315948
0.3642857074737549 0.36917731165885925 0.9881423115730286 0.3607843220233917 0.3529411852359772 0.30588236451148987
0.3529556691646576 0.454129159450531 0.9901185631752014 0.43529412150382996 0.42352941632270813 0.38823530077934265
0.443842351436615 0.3248065710067749 0.18379446864128113 0.07450980693101883 0.07450980693101883 0.07450980693101883
0.43399015069007874 0.3813358545303345 0.29525691270828247 0.5607843399047852 0.572549045085907 0.6078431606292725
0.37093594670295715 0.37501972913742065 0.9881423115730286 0.3803921639919281 0.37254902720451355 0.32156863808631897
0.2770935893058777 0.34043896198272705 0.006719367578625679 0.6392157077789307 0.6509804129600525 0.5764706134796143
0.42635467648506165 0.3388599455356598 0.005928853526711464 0.21176470816135406 0.20392157137393951 0.15294118225574493
0.35886698961257935 0.3647560477256775 0.23715415596961975 0.13333334028720856 0.13333334028720856 0.125490203499794
0.306157648563385 0.3282804489135742 0.9881423115730286 0.3176470696926117 0.3176470696926117 0.2862745225429535
0.3561576306819916 0.37201958894729614 0.30355730652809143 0.1921568661928177 0.21176470816135406 0.2235294133424759
0.3300492465496063 0.4047055244445801 0.007509881630539894 0.5372549295425415 0.545098066329956 0.4627451002597809
0.3248768448829651 0.4288646876811981 0.007509881630539894 0.5568627715110779 0.5607843399047852 0.4901960790157318
0.27216747403144836 0.4449707865715027 0.0071146246045827866 0.5490196347236633 0.545098066329956 0.4745098054409027
0.33965516090393066 0.45618191361427307 0.3229249119758606 0.250980406999588 0.2823529541492462 0.29019609093666077
0.44581282138824463 0.32670140266418457 0.29446640610694885 0.5803921818733215 0.5803921818733215 0.6117647290229797
0.27684730291366577 0.33791252970695496 0.006719367578625679 0.6705882549285889 0.6549019813537598 0.5568627715110779
0.4238916337490082 0.47197219729423523 0.1715414971113205 0.30588236451148987 0.30980393290519714 0.2862745225429535
0.31625616550445557 0.4077056646347046 0.007509881630539894 0.5333333611488342 0.545098066329956 0.43921568989753723
0.4487684667110443 0.3615979850292206 0.2956521809101105 0.5607843399047852 0.572549045085907 0.6078431606292725
0.3573891520500183 0.4659718871116638 0.9901185631752014 0.4117647111415863 0.4000000059604645 0.364705890417099
0.4472906291484833 0.4576030373573303 0.29486167430877686 0.5647059082984924 0.5843137502670288 0.6078431606292725
0.443842351436615 0.32654350996017456 0.18339921534061432 0.07058823853731155 0.07058823853731155 0.07058823853731155
0.35566502809524536 0.33143851161003113 0.30395257472991943 0.25882354378700256 0.27843138575553894 0.29019609093666077
0.3416256010532379 0.41291648149490356 0.9893280863761902 0.40784314274787903 0.3960784375667572 0.3607843220233917
0.3650246262550354 0.4337596595287323 0.13952569663524628 0.13333334028720856 0.13725490868091583 0.11764705926179886
0.34408867359161377 0.36365070939064026 0.9881423115730286 0.4117647111415863 0.40392157435417175 0.35686275362968445
0.411822646856308 0.42349597811698914 0.9893280863761902 0.4000000059604645 0.38823530077934265 0.3607843220233917
0.4078817665576935 0.34280750155448914 0.0063241105526685715 0.29411765933036804 0.2823529541492462 0.2235294133424759
0.32783252000808716 0.4108637273311615 0.9893280863761902 0.38823530077934265 0.3803921639919281 0.3333333432674408
0.3975369334220886 0.3364914059638977 0.16561265289783478 0.12941177189350128 0.12941177189350128 0.12941177189350128
0.4766009747982025 0.44639191031455994 0.9897233247756958 0.4156862795352936 0.40392157435417175 0.3686274588108063
0.39113301038742065 0.4400757849216461 0.007905138656497002 0.364705890417099 0.3450980484485626 0.32156863808631897
0.370197057723999 0.42965418100357056 0.11343873292207718 0.16862745583057404 0.15294118225574493 0.14901961386203766
0.4490147829055786 0.3911258578300476 0.9881423115730286 0.364705890417099 0.3529411852359772 0.3176470696926117
0.44211822748184204 0.40928471088409424 0.00830039568245411 0.16078431904315948 0.16078431904315948 0.12941177189350128
0.3699507415294647 0.3358597755432129 0.9877470135688782 0.2823529541492462 0.2823529541492462 0.24313725531101227
0.28743842244148254 0.44670772552490234 0.007509881630539894 0.501960813999176 0.5058823823928833 0.4431372582912445
0.37536945939064026 0.3974419832229614 0.29407113790512085 0.6941176652908325 0.7333333492279053 0.7803921699523926
0.38325121998786926 0.34659719467163086 0.1766798347234726 0.054901961237192154 0.054901961237192154 0.054901961237192154
0.4236453175544739 0.33143851161003113 0.17984189093112946 0.054901961237192154 0.054901961237192154 0.054901961237192154
0.4554187059402466 0.4462340176105499 0.0063241105526685715 0.13725490868091583 0.15294118225574493 0.14901961386203766
0.4847290515899658 0.3391757607460022 0.2956521809101105 0.5411764979362488 0.5568627715110779 0.6000000238418579
0.3012315332889557 0.40896889567375183 0.0071146246045827866 0.6392157077789307 0.6431372761726379 0.5882353186607361
0.34334975481033325 0.47228801250457764 0.3110671937465668 0.08627451211214066 0.08627451211214066 0.08627451211214066
0.3967980444431305 0.33254382014274597 0.16758893430233002 0.13333334028720856 0.13333334028720856 0.13333334028720856
0.4798029661178589 0.36696669459342957 0.9877470135688782 0.3333333432674408 0.32156863808631897 0.29411765933036804
0.2849753797054291 0.3189641535282135 0.0071146246045827866 0.6039215922355652 0.5764706134796143 0.4627451002597809
0.37438422441482544 0.36980894207954407 0.9881423115730286 0.3764705955982208 0.3686274588108063 0.30980393290519714
0.31108373403549194 0.45239222049713135 0.007905138656497002 0.7176470756530762 0.7098039388656616 0.658823549747467
0.34778323769569397 0.4683404266834259 0.2399209439754486 0.10588235408067703 0.10588235408067703 0.09803921729326248
0.4036945700645447 0.4546028673648834 0.9897233247756958 0.4117647111415863 0.4000000059604645 0.364705890417099
0.42561575770378113 0.43770724534988403 0.18616600334644318 0.3686274588108063 0.37254902720451355 0.3490196168422699
0.4332512319087982 0.40960049629211426 0.29525691270828247 0.6117647290229797 0.615686297416687 0.6313725709915161
0.25541871786117554 0.3642823398113251 0.006719367578625679 0.6235294342041016 0.6235294342041016 0.5215686559677124
0.41798028349876404 0.40912678837776184 0.29486167430877686 0.6039215922355652 0.615686297416687 0.6431372761726379
0.42635467648506165 0.38938891887664795 0.29486167430877686 0.5843137502670288 0.5921568870544434 0.6392157077789307
0.2665024697780609 0.3585978150367737 0.9889327883720398 0.3803921639919281 0.3686274588108063 0.34117648005485535
0.4214285612106323 0.3158060908317566 0.004743082914501429 0.07450980693101883 0.0784313753247261 0.054901961237192154
0.4490147829055786 0.44923415780067444 0.29486167430877686 0.5882353186607361 0.6039215922355652 0.6470588445663452
0.4009852111339569 0.4574451148509979 0.9897233247756958 0.4313725531101227 0.41960784792900085 0.3843137323856354
0.41847291588783264 0.43486499786376953 0.1877470314502716 0.05882352963089943 0.05882352963089943 0.05882352963089943
0.4243842363357544 0.4449707865715027 0.9897233247756958 0.41960784792900085 0.40784314274787903 0.37254902720451355
0.37832513451576233 0.4167061448097229 0.29446640610694885 0.6313725709915161 0.658823549747467 0.6823529601097107
