0.800000011920929 0.016737723723053932 0.009881422854959965 0.11372549086809158 0.10196078568696976 0.08235294371843338
0.7677339911460876 0.044686563313007355 0.7660079002380371 0.6078431606292725 0.45098039507865906 0.30980393290519714
0.6657635569572449 0.11384809762239456 0.9905138611793518 0.35686275362968445 0.3450980484485626 0.32549020648002625
0.6743842363357544 0.04626559466123581 0.9893280863761902 0.3333333432674408 0.3176470696926117 0.27450981736183167
0.8253694772720337 0.004579188302159309 0.0679841861128807 0.07450980693101883 0.062745101749897 0.04313725605607033
0.8105911612510681 0.004579188302159309 0.8893280625343323 0.34117648005485535 0.250980406999588 0.12941177189350128
0.757881760597229 0.044370755553245544 0.7363636493682861 0.6705882549285889 0.5215686559677124 0.3294117748737335
0.687438428401947 0.10847939550876617 0.1715414971113205 0.1882352977991104 0.19607843458652496 0.18431372940540314
0.7332512140274048 0.04894994571805 0.006719367578625679 0.5843137502670288 0.5764706134796143 0.4941176474094391
0.8064039349555969 0.055581871420145035 0.2972331941127777 0.6509804129600525 0.42352941632270813 0.1764705926179886
0.6706896424293518 0.13437549769878387 0.005138339940458536 0.6235294342041016 0.6313725709915161 0.5803921818733215
0.7807881832122803 0.06584557145833969 0.2245059311389923 0.11372549086809158 0.12941177189350128 0.13333334028720856
0.6711822748184204 0.14511290192604065 0.005138339940458536 0.5764706134796143 0.5764706134796143 0.5372549295425415
0.6980295777320862 0.0 0.9245059490203857 0.27843138575553894 0.21176470816135406 0.1411764770746231
0.7325122952461243 0.06395073235034943 0.006719367578625679 0.5411764979362488 0.501960813999176 0.3960784375667572
0.7733989953994751 0.044370755553245544 0.7936758995056152 0.5960784554481506 0.4431372582912445 0.3294117748737335
0.6857143044471741 0.00031580610084347427 0.373517781496048 0.5882353186607361 0.4588235318660736 0.25882354378700256
0.7839901447296143 0.1346912980079651 0.9916995763778687 0.29019609093666077 0.2705882489681244 0.2549019753932953
0.7115763425827026 0.00015790305042173713 0.747826099395752 0.5921568870544434 0.47058823704719543 0.3490196168422699
0.628078818321228 0.0004737091367132962 0.31501975655555725 0.658823549747467 0.5215686559677124 0.26274511218070984
0.6445812582969666 0.0 0.9422925114631653 0.27450981736183167 0.21176470816135406 0.15294118225574493
0.6913793087005615 0.00031580610084347427 0.365612655878067 0.6470588445663452 0.5058823823928833 0.2705882489681244
0.6992610692977905 0.00031580610084347427 0.26205533742904663 0.6039215922355652 0.4431372582912445 0.2235294133424759
0.7325122952461243 0.00236854562535882 0.3478260934352875 0.4588235318660736 0.34117648005485535 0.23137255012989044
0.6364532113075256 0.00031580610084347427 0.10039525479078293 0.686274528503418 0.5490196347236633 0.29019609093666077
0.807635486125946 0.004421285353600979 0.7335968613624573 0.13725490868091583 0.10980392247438431 0.0784313753247261
0.7637931108474731 0.004263382405042648 0.3596837818622589 0.45098039507865906 0.32156863808631897 0.1921568661928177
0.7633004784584045 0.005842412821948528 0.011067193932831287 0.2705882489681244 0.25882354378700256 0.2235294133424759
0.7761083841323853 0.04531817510724068 0.1462450623512268 0.25882354378700256 0.29019609093666077 0.3019607961177826
0.7226601243019104 0.05258171632885933 0.3071146309375763 0.25882354378700256 0.2862745225429535 0.3176470696926117
0.7903940677642822 0.09411021322011948 0.0063241105526685715 0.42352941632270813 0.3921568691730499 0.30980393290519714
0.7852216958999634 0.15742933750152588 0.0063241105526685715 0.5607843399047852 0.5764706134796143 0.5215686559677124
0.6290640234947205 0.07626717537641525 0.005533596966415644 0.6745098233222961 0.6470588445663452 0.615686297416687
0.7251231670379639 0.0004737091367132962 0.8063241243362427 0.47058823704719543 0.3803921639919281 0.24705882370471954
0.6667487621307373 0.0004737091367132962 0.31067192554473877 0.6627451181411743 0.47058823704719543 0.20000000298023224
0.8529556393623352 0.06426654011011124 0.9889327883720398 0.23529411852359772 0.21176470816135406 0.1568627506494522
0.6689655184745789 0.0 0.8584980368614197 0.4313725531101227 0.3294117748737335 0.20000000298023224
0.8443349599838257 0.15727142989635468 0.006719367578625679 0.5843137502670288 0.5921568870544434 0.5058823823928833
0.7871921062469482 0.004421285353600979 0.36719366908073425 0.20392157137393951 0.14901961386203766 0.09803921729326248
0.8472906351089478 0.12758566439151764 0.9901185631752014 0.2980392277240753 0.2705882489681244 0.23137255012989044
0.6290640234947205 0.00031580610084347427 0.5687747001647949 0.658823549747467 0.529411792755127 0.3607843220233917
0.8573891520500183 0.0975840836763382 0.9897233247756958 0.2862745225429535 0.25882354378700256 0.19607843458652496
0.7591133117675781 0.04247592017054558 0.38260868191719055 0.6117647290229797 0.34117648005485535 0.1882352977991104
0.7618226408958435 0.004421285353600979 0.8664031624794006 0.37254902720451355 0.27843138575553894 0.13725490868091583
0.7854679822921753 0.004263382405042648 0.3015810251235962 0.21176470816135406 0.16078431904315948 0.09803921729326248
0.6741379499435425 0.1264803409576416 0.005138339940458536 0.5921568870544434 0.5921568870544434 0.545098066329956
0.8605911135673523 0.0431075319647789 0.28260868787765503 0.7450980544090271 0.5411764979362488 0.3176470696926117
0.7871921062469482 0.004421285353600979 0.36126482486724854 0.20392157137393951 0.14901961386203766 0.09803921729326248
0.7219212055206299 0.00015790305042173713 0.6778656244277954 0.5058823823928833 0.3843137323856354 0.21176470816135406
0.8059113025665283 0.13121743500232697 0.9909090995788574 0.2980392277240753 0.27843138575553894 0.2549019753932953
0.8019704222679138 0.07958313822746277 0.16956521570682526 0.10196078568696976 0.10196078568696976 0.0941176488995552
0.8519704341888428 0.043265435844659805 0.39723318815231323 0.7647058963775635 0.5411764979362488 0.32549020648002625
0.7571428418159485 0.004105479456484318 0.01660079136490822 0.29411765933036804 0.2862745225429535 0.23529411852359772
0.8573891520500183 0.043265435844659805 0.3592885434627533 0.7176470756530762 0.47843137383461 0.2549019753932953
0.7359606027603149 0.003315964015200734 0.25335967540740967 0.545098066329956 0.3921568691730499 0.16862745583057404
0.7600985169410706 0.04421285167336464 0.6600790619850159 0.7843137383460999 0.7058823704719543 0.6117647290229797
0.7716748714447021 0.06300331652164459 0.27826085686683655 0.21960784494876862 0.239215686917305 0.2549019753932953
0.8152709603309631 0.04358123987913132 0.7134387493133545 0.6745098233222961 0.572549045085907 0.4745098054409027
0.6339901685714722 0.0688457265496254 0.005533596966415644 0.6000000238418579 0.5764706134796143 0.529411792755127
0.7258620858192444 0.0007895152666606009 0.4434782564640045 0.4745098054409027 0.3843137323856354 0.26274511218070984
0.7729064226150513 0.1176377683877945 0.18300394713878632 0.32549020648002625 0.3607843220233917 0.3490196168422699
0.6605911254882812 0.0 0.865217387676239 0.40784314274787903 0.3137255012989044 0.1725490242242813
0.6293103694915771 0.0633191242814064 0.9893280863761902 0.3921568691730499 0.3686274588108063 0.3137255012989044
0.7007389068603516 0.0 0.8486166000366211 0.43529412150382996 0.33725491166114807 0.18039216101169586
0.7647783160209656 0.09853149950504303 0.9905138611793518 0.27450981736183167 0.2666666805744171 0.21960784494876862
0.7975369691848755 0.059055738151073456 0.16284584999084473 0.09019608050584793 0.09019608050584793 0.08235294371843338
0.7795566320419312 0.004421285353600979 0.29525691270828247 0.23137255012989044 0.1725490242242813 0.09803921729326248
0.6724137663841248 0.01642191782593727 0.007509881630539894 0.5647059082984924 0.5490196347236633 0.501960813999176
0.7748768329620361 0.045949786901474 0.4201580882072449 0.20000000298023224 0.18039216101169586 0.10196078568696976
0.7216748595237732 0.10974261909723282 0.005928853526711464 0.6666666865348816 0.6549019813537598 0.6196078658103943
0.826600968837738 0.08147796988487244 0.0071146246045827866 0.5098039507865906 0.4941176474094391 0.38823530077934265
0.7078817486763 0.06300331652164459 0.22173912823200226 0.125490203499794 0.10196078568696976 0.11764705926179886
0.8285714387893677 0.05779251456260681 0.9889327883720398 0.26274511218070984 0.239215686917305 0.1921568661928177
0.7251231670379639 0.0006316122016869485 0.5284584760665894 0.6274510025978088 0.5254902243614197 0.3333333432674408
0.6445812582969666 0.0004737091367132962 0.18893280625343323 0.6627451181411743 0.5137255191802979 0.23529411852359772
0.8315271139144897 0.04342333972454071 0.6031620502471924 0.6313725709915161 0.46666666865348816 0.3686274588108063
0.6578817963600159 0.155376598238945 0.991304337978363 0.9607843160629272 0.9607843160629272 0.9529411792755127
0.6426108479499817 0.08589925616979599 0.9897233247756958 0.3843137323856354 0.3764705955982208 0.3294117748737335
0.6413792967796326 0.00031580610084347427 0.5897233486175537 0.6431372761726379 0.5137255191802979 0.3529411852359772
0.6241379380226135 0.0004737091367132962 0.4936758875846863 0.6823529601097107 0.5411764979362488 0.3529411852359772
0.8472906351089478 0.07816200703382492 0.9897233247756958 0.30588236451148987 0.2862745225429535 0.21176470816135406
0.7921182513237 0.04405495151877403 0.7225296497344971 0.6039215922355652 0.4431372582912445 0.3333333432674408
0.8044335246086121 0.044370755553245544 0.41304346919059753 0.6431372761726379 0.4274509847164154 0.2078431397676468
0.7002463340759277 0.00015790305042173713 0.052173912525177 0.48235294222831726 0.35686275362968445 0.2078431397676468
0.7736453413963318 0.004579188302159309 0.06916996091604233 0.1764705926179886 0.13725490868091583 0.09019608050584793
0.8113300204277039 0.04389704763889313 0.6300395131111145 0.6509804129600525 0.4941176474094391 0.3960784375667572
0.8389162421226501 0.04263382405042648 0.8106719255447388 0.4588235318660736 0.3294117748737335 0.2078431397676468
0.8330049514770508 0.04373914375901222 0.3027667999267578 0.6705882549285889 0.43921568989753723 0.1725490242242813
0.7142857313156128 0.059055738151073456 0.19920948147773743 0.5411764979362488 0.4313725531101227 0.24705882370471954
0.8253694772720337 0.004263382405042648 0.3683794438838959 0.13333334028720856 0.10588235408067703 0.07450980693101883
0.7433497309684753 0.15616612136363983 0.005928853526711464 0.6549019813537598 0.6549019813537598 0.615686297416687
0.6894088387489319 0.0 0.7830039262771606 0.5803921818733215 0.4627451002597809 0.32156863808631897
0.6475369334220886 0.11242696642875671 0.9905138611793518 0.3529411852359772 0.3333333432674408 0.30980393290519714
0.687438428401947 0.0 0.7501976490020752 0.5960784554481506 0.47843137383461 0.3450980484485626
0.6509852409362793 0.14163903892040253 0.991304337978363 0.25882354378700256 0.2549019753932953 0.24705882370471954
0.8504925966262817 0.02100110612809658 0.9873517751693726 0.2705882489681244 0.24705882370471954 0.20000000298023224
0.6635468006134033 0.0004737091367132962 0.31620553135871887 0.658823549747467 0.48235294222831726 0.21568627655506134
0.6541872024536133 0.1064266562461853 0.005138339940458536 0.5215686559677124 0.5215686559677124 0.48235294222831726
0.7800492644309998 0.005210800562053919 0.014229249209165573 0.1411764770746231 0.13725490868091583 0.11764705926179886
0.8283251523971558 0.04342333972454071 0.643478274345398 0.6078431606292725 0.43921568989753723 0.364705890417099
0.7694581151008606 0.046739302575588226 0.38735178112983704 0.6470588445663452 0.4000000059604645 0.1921568661928177
0.8118226528167725 0.04421285167336464 0.4470355808734894 0.7176470756530762 0.5058823823928833 0.32549020648002625
0.8556650280952454 0.04263382405042648 0.7395256757736206 0.6745098233222961 0.5411764979362488 0.43529412150382996
0.8049260973930359 0.004579188302159309 0.8047431111335754 0.2235294133424759 0.18431372940540314 0.13725490868091583
0.7741379141807556 0.07121427357196808 0.9893280863761902 0.2705882489681244 0.2549019753932953 0.21176470816135406
0.6822659969329834 0.024317068979144096 0.0071146246045827866 0.6274510025978088 0.5960784554481506 0.545098066329956
0.7874384522438049 0.004579188302159309 0.8881422877311707 0.364705890417099 0.2705882489681244 0.13725490868091583
0.7800492644309998 0.04516027122735977 0.21699604392051697 0.14901961386203766 0.1568627506494522 0.14509804546833038
0.814039409160614 0.07500394433736801 0.9893280863761902 0.19607843458652496 0.18039216101169586 0.13333334028720856
0.6209359765052795 0.0004737091367132962 0.18418972194194794 0.6941176652908325 0.5411764979362488 0.2705882489681244
0.6258620619773865 0.00031580610084347427 0.5003952383995056 0.6901960968971252 0.5490196347236633 0.3607843220233917
0.7233990430831909 0.00015790305042173713 0.739920973777771 0.545098066329956 0.40784314274787903 0.250980406999588
0.8347290754318237 0.00473709125071764 0.8826087117195129 0.3176470696926117 0.24705882370471954 0.15294118225574493
0.6507388949394226 0.0004737091367132962 0.17786560952663422 0.6392157077789307 0.48235294222831726 0.2078431397676468
0.7160098552703857 0.05810832232236862 0.1822134405374527 0.21568627655506134 0.239215686917305 0.23137255012989044
0.7884236574172974 0.04452865943312645 0.6205533742904663 0.6823529601097107 0.5333333611488342 0.3921568691730499
0.8443349599838257 0.004579188302159309 0.9241106510162354 0.250980406999588 0.1882352977991104 0.125490203499794
0.6571428775787354 0.00031580610084347427 0.15810276567935944 0.6470588445663452 0.4745098054409027 0.19607843458652496
0.699999988079071 0.0 0.865217387676239 0.4117647111415863 0.32156863808631897 0.19607843458652496
0.7697044610977173 0.06174009293317795 0.28379446268081665 0.23529411852359772 0.2549019753932953 0.2705882489681244
0.7958127856254578 0.004421285353600979 0.6596838235855103 0.13725490868091583 0.10196078568696976 0.07450980693101883
0.7746305465698242 0.04421285167336464 0.5237154364585876 0.7254902124404907 0.5490196347236633 0.3843137323856354
0.6876847147941589 0.00031580610084347427 0.560079038143158 0.6549019813537598 0.5254902243614197 0.364705890417099
0.7490147948265076 0.058739934116601944 0.2762845754623413 0.24313725531101227 0.27450981736183167 0.2823529541492462
0.629802942276001 0.13753356039524078 0.005533596966415644 0.5686274766921997 0.572549045085907 0.5176470875740051
0.6825123429298401 0.05921364203095436 0.9897233247756958 0.3137255012989044 0.30588236451148987 0.25882354378700256
0.7347290515899658 0.002842254936695099 0.5525691509246826 0.4745098054409027 0.3490196168422699 0.1882352977991104
0.6633005142211914 0.041844308376312256 0.9893280863761902 0.3921568691730499 0.3764705955982208 0.3333333432674408
0.8261083960533142 0.004263382405042648 0.3375494182109833 0.14509804546833038 0.10980392247438431 0.07450980693101883
0.8352216482162476 0.07153008133172989 0.9893280863761902 0.3137255012989044 0.29019609093666077 0.24313725531101227
0.762561559677124 0.004421285353600979 0.2185770720243454 0.4117647111415863 0.29411765933036804 0.14509804546833038
0.759605884552002 0.054476551711559296 0.9889327883720398 0.3019607961177826 0.29411765933036804 0.24705882370471954
0.7926108241081238 0.004421285353600979 0.760869562625885 0.1725490242242813 0.13725490868091583 0.10196078568696976
0.7834975123405457 0.11305858194828033 0.0063241105526685715 0.5058823823928833 0.49803921580314636 0.43921568989753723
0.8347290754318237 0.006474025081843138 0.6996047496795654 0.09019608050584793 0.07058823853731155 0.05882352963089943
0.6798029541969299 0.00015790305042173713 0.036363635212183 0.615686297416687 0.4901960790157318 0.30588236451148987
0.6581280827522278 0.0004737091367132962 0.2822134494781494 0.658823549747467 0.48235294222831726 0.21568627655506134
0.8041871786117554 0.04358123987913132 0.8071146011352539 0.529411792755127 0.38823530077934265 0.2862745225429535
0.690640389919281 0.00031580610084347427 0.43557313084602356 0.6705882549285889 0.529411792755127 0.34117648005485535
0.8435960412025452 0.04358123987913132 0.32529643177986145 0.7411764860153198 0.501960813999176 0.27843138575553894
0.6578817963600159 0.00031580610084347427 0.5656126737594604 0.658823549747467 0.5215686559677124 0.35686275362968445
0.7770935893058777 0.14495499432086945 0.9916995763778687 0.25882354378700256 0.23529411852359772 0.23529411852359772
0.7125615477561951 0.07563555985689163 0.9897233247756958 0.3294117748737335 0.3137255012989044 0.2705882489681244
0.860837459564209 0.1207958310842514 0.006719367578625679 0.5686274766921997 0.572549045085907 0.5176470875740051
0.8034482598304749 0.004421285353600979 0.42490118741989136 0.1568627506494522 0.11764705926179886 0.08235294371843338
0.8490147590637207 0.044370755553245544 0.9881423115730286 0.29019609093666077 0.26274511218070984 0.20000000298023224
0.6499999761581421 0.00015790305042173713 0.6984189748764038 0.6117647290229797 0.4941176474094391 0.3529411852359772
0.7007389068603516 0.00015790305042173713 0.07391304522752762 0.49803921580314636 0.3803921639919281 0.239215686917305
0.6581280827522278 0.00031580610084347427 0.4671936631202698 0.6823529601097107 0.5568627715110779 0.37254902720451355
0.7541871666908264 0.004421285353600979 0.5490118861198425 0.5803921818733215 0.43921568989753723 0.21176470816135406
0.6694581508636475 0.00031580610084347427 0.32055336236953735 0.6666666865348816 0.48235294222831726 0.21568627655506134
0.796798050403595 0.004421285353600979 0.6391304135322571 0.13333334028720856 0.10588235408067703 0.07450980693101883
0.6514778137207031 0.0004737091367132962 0.42490118741989136 0.6980392336845398 0.5529412031173706 0.3490196168422699
0.6179803013801575 0.0 0.8146244883537292 0.49803921580314636 0.3960784375667572 0.2666666805744171
0.7041872143745422 0.07358282059431076 0.17905138432979584 0.29411765933036804 0.3137255012989044 0.2980392277240753
0.6768472790718079 0.00015790305042173713 0.6426877379417419 0.6352941393852234 0.5098039507865906 0.35686275362968445
0.6980295777320862 0.0 0.9221343994140625 0.27450981736183167 0.21568627655506134 0.13333334028720856
0.7761083841323853 0.004263382405042648 0.2335968315601349 0.2549019753932953 0.20000000298023224 0.09803921729326248
0.8130542039871216 0.004263382405042648 0.1462450623512268 0.11764705926179886 0.09019608050584793 0.06666667014360428
0.7642857432365417 0.06363492459058762 0.25770750641822815 0.1921568661928177 0.21568627655506134 0.2078431397676468
0.7598522305488586 0.004579188302159309 0.0782608687877655 0.21176470816135406 0.16078431904315948 0.0941176488995552
0.625123143196106 0.0004737091367132962 0.3707509934902191 0.5803921818733215 0.4431372582912445 0.23137255012989044
0.7278324961662292 0.001263224403373897 0.5573122501373291 0.3529411852359772 0.250980406999588 0.16078431904315948
0.7386699318885803 0.0273172277957201 0.0071146246045827866 0.21176470816135406 0.20000000298023224 0.1411764770746231
0.6273398995399475 0.00015790305042173713 0.08102767169475555 0.6509804129600525 0.5176470875740051 0.27843138575553894
0.823645293712616 0.04358123987913132 0.5932806134223938 0.6627451181411743 0.4941176474094391 0.3686274588108063
0.7302955389022827 0.0018948365468531847 0.4375494122505188 0.5803921818733215 0.4745098054409027 0.2666666805744171
0.8088669776916504 0.004421285353600979 0.41936758160591125 0.15294118225574493 0.11764705926179886 0.08235294371843338
0.8352216482162476 0.0775303989648819 0.007509881630539894 0.5372549295425415 0.529411792755127 0.4470588266849518
0.7258620858192444 0.0775303989648819 0.9897233247756958 0.3137255012989044 0.2862745225429535 0.26274511218070984
0.7039408683776855 0.040107373148202896 0.9893280863761902 0.3019607961177826 0.27450981736183167 0.24313725531101227
0.7169950604438782 0.00015790305042173713 0.13675889372825623 0.5411764979362488 0.3921568691730499 0.2078431397676468
0.814039409160614 0.1525343507528305 0.9909090995788574 0.29411765933036804 0.27450981736183167 0.250980406999588
0.7105911374092102 0.00031580610084347427 0.3383399248123169 0.6313725709915161 0.45098039507865906 0.21568627655506134
0.7701970338821411 0.044370755553245544 0.8245059251785278 0.5333333611488342 0.4117647111415863 0.2980392277240753
0.6273398995399475 0.1547449827194214 0.005533596966415644 0.5764706134796143 0.5921568870544434 0.5372549295425415
0.7298029661178589 0.10311069339513779 0.9909090995788574 0.32156863808631897 0.30588236451148987 0.26274511218070984
0.7810344696044922 0.12537501752376556 0.1770751029253006 0.3333333432674408 0.3803921639919281 0.4274509847164154
0.8150246143341064 0.12695404887199402 0.0063241105526685715 0.5568627715110779 0.5686274766921997 0.48627451062202454
0.7741379141807556 0.004421285353600979 0.5466403365135193 0.2823529541492462 0.21960784494876862 0.12156862765550613
0.8369458317756653 0.010579504072666168 0.9873517751693726 0.2823529541492462 0.250980406999588 0.2078431397676468
0.7411330342292786 0.10421600937843323 0.005928853526711464 0.49803921580314636 0.48627451062202454 0.41960784792900085
0.798275887966156 0.13832306861877441 0.991304337978363 0.2666666805744171 0.250980406999588 0.239215686917305
0.6706896424293518 0.14858676493167877 0.9916995763778687 0.9764705896377563 0.9882352948188782 1.0
0.8536945581436157 0.042949628084897995 0.6754940748214722 0.7176470756530762 0.6235294342041016 0.529411792755127
0.8458127975463867 0.04452865943312645 0.0181818176060915 0.5568627715110779 0.3686274588108063 0.1764705926179886
0.7261083722114563 0.0007895152666606009 0.665217399597168 0.3607843220233917 0.27843138575553894 0.1568627506494522
0.745320200920105 0.05321332812309265 0.30513834953308105 0.2549019753932953 0.27843138575553894 0.27843138575553894
0.7615763545036316 0.004263382405042648 0.36640316247940063 0.48235294222831726 0.3490196168422699 0.20000000298023224
0.6933497786521912 0.004579188302159309 0.00830039568245411 0.5333333611488342 0.5411764979362488 0.49803921580314636
0.648522138595581 0.0 0.716600775718689 0.6235294342041016 0.5098039507865906 0.3764705955982208
0.7056650519371033 0.02558029443025589 0.006719367578625679 0.3843137323856354 0.37254902720451355 0.30588236451148987
0.6302955746650696 0.09900520741939545 0.9901185631752014 0.35686275362968445 0.34117648005485535 0.30588236451148987
0.7120689749717712 0.00015790305042173713 0.1671936810016632 0.5960784554481506 0.43529412150382996 0.1921568661928177
0.8517241477966309 0.043265435844659805 0.5213438868522644 0.6313725709915161 0.47058823704719543 0.2980392277240753
0.690640389919281 0.0833728089928627 0.005928853526711464 0.5058823823928833 0.5254902243614197 0.40784314274787903
0.6758620738983154 0.00031580610084347427 0.3229249119758606 0.6784313917160034 0.501960813999176 0.23529411852359772
0.7041872143745422 0.0805305540561676 0.9897233247756958 0.33725491166114807 0.3137255012989044 0.2666666805744171
0.7039408683776855 0.12711195647716522 0.16561265289783478 0.5058823823928833 0.5137255191802979 0.4941176474094391
0.7522167563438416 0.05779251456260681 0.2857707440853119 0.239215686917305 0.2705882489681244 0.2823529541492462
0.7268472909927368 0.11432180553674698 0.1818181872367859 0.364705890417099 0.4000000059604645 0.3960784375667572
0.7081280946731567 0.00015790305042173713 0.10039525479078293 0.48627451062202454 0.3607843220233917 0.2078431397676468
0.7566502690315247 0.01957997865974903 0.9885375499725342 0.27450981736183167 0.24705882370471954 0.2078431397676468
0.8517241477966309 0.04358123987913132 0.134782612323761 0.6117647290229797 0.40392157435417175 0.20000000298023224
0.8366994857788086 0.04389704763889313 0.16561265289783478 0.686274528503418 0.45490196347236633 0.19607843458652496
0.6709359884262085 0.00031580610084347427 0.13438735902309418 0.6392157077789307 0.46666666865348816 0.21176470816135406
0.6896551847457886 0.00031580610084347427 0.17905138432979584 0.5960784554481506 0.4313725531101227 0.19607843458652496
0.8566502332687378 0.04216011241078377 0.8359683752059937 0.30980393290519714 0.18431372940540314 0.08627451211214066
0.7320197224617004 0.13405968248844147 0.005533596966415644 0.7529411911964417 0.7607843279838562 0.7176470756530762
0.7958127856254578 0.04389704763889313 0.7802371382713318 0.5647059082984924 0.41960784792900085 0.30588236451148987
0.7044335007667542 0.07831991463899612 0.005928853526711464 0.4431372582912445 0.42352941632270813 0.3450980484485626
0.7876847386360168 0.04421285167336464 0.7604743242263794 0.6000000238418579 0.43921568989753723 0.32156863808631897
0.7118226885795593 0.00015790305042173713 0.5557312369346619 0.6509804129600525 0.5176470875740051 0.33725491166114807
0.8152709603309631 0.04389704763889313 0.09802371263504028 0.40784314274787903 0.27843138575553894 0.1568627506494522
0.6997537016868591 0.00031580610084347427 0.39920949935913086 0.6823529601097107 0.5529412031173706 0.3529411852359772
0.8394088745117188 0.04358123987913132 0.4735177755355835 0.7019608020782471 0.5058823823928833 0.2980392277240753
0.7236453294754028 0.00015790305042173713 0.8525691628456116 0.35686275362968445 0.239215686917305 0.13725490868091583
0.7524630427360535 0.10753197222948074 0.9909090995788574 0.3019607961177826 0.2862745225429535 0.250980406999588
0.6214285492897034 0.0004737091367132962 0.2505928874015808 0.6392157077789307 0.48627451062202454 0.2235294133424759
0.8448275923728943 0.04373914375901222 0.19130434095859528 0.658823549747467 0.42352941632270813 0.22745098173618317
0.7788177132606506 0.004263382405042648 0.2505928874015808 0.22745098173618317 0.18039216101169586 0.0941176488995552
0.625123143196106 0.0 0.9343873262405396 0.29411765933036804 0.22745098173618317 0.16470588743686676
0.6507388949394226 0.0004737091367132962 0.24584980309009552 0.6784313917160034 0.5137255191802979 0.23137255012989044
0.75935959815979 0.004421285353600979 0.5035573244094849 0.5333333611488342 0.3764705955982208 0.1725490242242813
0.7544335126876831 0.004421285353600979 0.8853754997253418 0.3176470696926117 0.23529411852359772 0.12941177189350128
0.7652709484100342 0.04516027122735977 0.12806324660778046 0.30980393290519714 0.3490196168422699 0.35686275362968445
0.6839901208877563 0.0 0.768774688243866 0.5803921818733215 0.45098039507865906 0.32156863808631897
0.8413792848587036 0.10453181713819504 0.006719367578625679 0.6431372761726379 0.6313725709915161 0.5960784554481506
0.7524630427360535 0.04452865943312645 0.3276679813861847 0.5333333611488342 0.3137255012989044 0.1764705926179886
0.7689655423164368 0.02494868077337742 0.011857707053422928 0.15294118225574493 0.14509804546833038 0.09803921729326248
0.8258620500564575 0.04421285167336464 0.1462450623512268 0.5764706134796143 0.3607843220233917 0.20000000298023224
0.6423645615577698 0.1151113212108612 0.9905138611793518 0.3333333432674408 0.3137255012989044 0.29019609093666077
0.7416256070137024 0.004263382405042648 0.5802371501922607 0.5647059082984924 0.41960784792900085 0.24313725531101227
0.6866995096206665 0.00031580610084347427 0.18458497524261475 0.6000000238418579 0.43921568989753723 0.18039216101169586
0.7852216958999634 0.044686563313007355 0.5640316009521484 0.6784313917160034 0.48627451062202454 0.32549020648002625
0.8115763664245605 0.004421285353600979 0.44071146845817566 0.13725490868091583 0.10980392247438431 0.07058823853731155
0.7019704580307007 0.03584399074316025 0.9893280863761902 0.2980392277240753 0.2705882489681244 0.239215686917305
0.796798050403595 0.14511290192604065 0.0063241105526685715 0.545098066329956 0.5529412031173706 0.49803921580314636
0.753201961517334 0.004263382405042648 0.31976285576820374 0.5490196347236633 0.4000000059604645 0.21568627655506134
0.7248768210411072 0.0006316122016869485 0.04782608523964882 0.2666666805744171 0.19607843458652496 0.10196078568696976
0.6943349838256836 0.06126638129353523 0.27865612506866455 0.48627451062202454 0.3960784375667572 0.26274511218070984
0.6322659850120544 0.019895784556865692 0.9893280863761902 0.3137255012989044 0.2823529541492462 0.2705882489681244
0.6369457840919495 0.10516343265771866 0.9901185631752014 0.364705890417099 0.3490196168422699 0.3137255012989044
0.7221674919128418 0.00015790305042173713 0.12885375320911407 0.4274509847164154 0.3333333432674408 0.15294118225574493
0.8487684726715088 0.11621664464473724 0.9901185631752014 0.29411765933036804 0.2705882489681244 0.2235294133424759
0.7820196747779846 0.11463761329650879 0.1822134405374527 0.32549020648002625 0.3686274588108063 0.3843137323856354
0.7334975600242615 0.00236854562535882 0.9316205382347107 0.18039216101169586 0.1411764770746231 0.10588235408067703
0.756157636642456 0.004421285353600979 0.6391304135322571 0.5607843399047852 0.40784314274787903 0.1921568661928177
0.798275887966156 0.14558660984039307 0.991304337978363 0.24313725531101227 0.21960784494876862 0.21960784494876862
0.7899014949798584 0.09584715217351913 0.18142291903495789 0.3294117748737335 0.3686274588108063 0.37254902720451355
0.7399014830589294 0.0037896730937063694 0.8766798377037048 0.3843137323856354 0.29411765933036804 0.16078431904315948
0.8081280589103699 0.004579188302159309 0.8332015872001648 0.364705890417099 0.2705882489681244 0.12941177189350128
0.6761083602905273 0.00031580610084347427 0.5664031505584717 0.6627451181411743 0.5372549295425415 0.3764705955982208
0.8411329984664917 0.10453181713819504 0.006719367578625679 0.6431372761726379 0.6313725709915161 0.5960784554481506
0.8096058964729309 0.004105479456484318 0.31462451815605164 0.1568627506494522 0.12156862765550613 0.08627451211214066
0.8113300204277039 0.04389704763889313 0.5837944746017456 0.6470588445663452 0.4588235318660736 0.3176470696926117
0.8174876570701599 0.044370755553245544 0.15256917476654053 0.501960813999176 0.3137255012989044 0.1725490242242813
0.8317734003067017 0.00473709125071764 0.8169960379600525 0.30588236451148987 0.22745098173618317 0.13333334028720856
0.8310344815254211 0.004421285353600979 0.19169960916042328 0.125490203499794 0.09803921729326248 0.07450980693101883
0.7529556751251221 0.04263382405042648 0.6620553135871887 0.47058823704719543 0.27450981736183167 0.13725490868091583
0.8184729218482971 0.08068845421075821 0.0071146246045827866 0.364705890417099 0.33725491166114807 0.26274511218070984
0.8342364430427551 0.004579188302159309 0.9482213258743286 0.20392157137393951 0.1568627506494522 0.10980392247438431
0.8041871786117554 0.05605558305978775 0.2976284623146057 0.6392157077789307 0.4117647111415863 0.16470588743686676
0.8192118406295776 0.004579188302159309 0.6853755116462708 0.09803921729326248 0.0784313753247261 0.062745101749897
0.8211822509765625 0.09663666784763336 0.006719367578625679 0.42352941632270813 0.40784314274787903 0.30980393290519714
0.8059113025665283 0.044370755553245544 0.4537549316883087 0.7137255072593689 0.5098039507865906 0.32156863808631897
0.6337438225746155 0.10658455640077591 0.005533596966415644 0.5333333611488342 0.5333333611488342 0.4941176474094391
0.7970443367958069 0.004263382405042648 0.4640316069126129 0.16078431904315948 0.12941177189350128 0.0784313753247261
0.7876847386360168 0.004579188302159309 0.9225296378135681 0.29411765933036804 0.22745098173618317 0.125490203499794
0.7100985050201416 0.00015790305042173713 0.09525691717863083 0.49803921580314636 0.364705890417099 0.21568627655506134
0.6564039587974548 0.012790147215127945 0.00830039568245411 0.572549045085907 0.5490196347236633 0.501960813999176
0.8339901566505432 0.006474025081843138 0.574703574180603 0.10196078568696976 0.09019608050584793 0.062745101749897
0.8497536778450012 0.04342333972454071 0.20474308729171753 0.6627451181411743 0.4274509847164154 0.18039216101169586
0.7081280946731567 0.13453339040279388 0.005533596966415644 0.6470588445663452 0.6470588445663452 0.6000000238418579
0.6386699676513672 0.10611084848642349 0.9901185631752014 0.364705890417099 0.3490196168422699 0.3137255012989044
0.6600984930992126 0.0833728089928627 0.005138339940458536 0.5333333611488342 0.5333333611488342 0.501960813999176
0.8256157636642456 0.004579188302159309 0.6430829763412476 0.11372549086809158 0.0941176488995552 0.0784313753247261
0.6317734122276306 0.0004737091367132962 0.40276679396629333 0.7137255072593689 0.5686274766921997 0.364705890417099
0.7236453294754028 0.059687353670597076 0.18339921534061432 0.2666666805744171 0.30980393290519714 0.27843138575553894
0.7261083722114563 0.0009474182734265924 0.22173912823200226 0.4901960790157318 0.3529411852359772 0.22745098173618317
0.7458128333091736 0.004263382405042648 0.6359683871269226 0.5843137502670288 0.4431372582912445 0.239215686917305
0.8036946058273315 0.04342333972454071 0.8395256996154785 0.4117647111415863 0.29019609093666077 0.1764705926179886
0.8465517163276672 0.04342333972454071 0.3019762933254242 0.7568627595901489 0.5137255191802979 0.27450981736183167
0.6913793087005615 0.00031580610084347427 0.23241107165813446 0.6431372761726379 0.46666666865348816 0.20392157137393951
0.7618226408958435 0.08495184034109116 0.9901185631752014 0.2823529541492462 0.2666666805744171 0.23137255012989044
0.8310344815254211 0.10942681133747101 0.9905138611793518 0.27450981736183167 0.25882354378700256 0.21568627655506134
0.8206896781921387 0.04373914375901222 0.5470355749130249 0.658823549747467 0.47058823704719543 0.3137255012989044
0.7778325080871582 0.11021632701158524 0.9909090995788574 0.3019607961177826 0.27450981736183167 0.250980406999588
0.7778325080871582 0.05779251456260681 0.21067193150520325 0.10980392247438431 0.0941176488995552 0.09019608050584793
0.6495074033737183 0.0004737091367132962 0.15691699087619781 0.6352941393852234 0.47843137383461 0.19607843458652496
0.8036946058273315 0.012948050163686275 0.9877470135688782 0.2705882489681244 0.250980406999588 0.1764705926179886
0.6901477575302124 0.11874309182167053 0.9909090995788574 0.3450980484485626 0.3294117748737335 0.3176470696926117
0.7985221743583679 0.044370755553245544 0.47628459334373474 0.6941176652908325 0.5058823823928833 0.3490196168422699
0.8330049514770508 0.00473709125071764 0.3640316128730774 0.11764705926179886 0.09803921729326248 0.07450980693101883
0.757881760597229 0.10690036416053772 0.005928853526711464 0.4627451002597809 0.47058823704719543 0.41960784792900085
0.7056650519371033 0.0 0.9162055253982544 0.3137255012989044 0.24313725531101227 0.1568627506494522
0.740394115447998 0.0039475760422647 0.8343873620033264 0.47058823704719543 0.3686274588108063 0.23137255012989044
0.8317734003067017 0.004421285353600979 0.4628458619117737 0.10980392247438431 0.09019608050584793 0.06666667014360428
0.6418719291687012 0.0004737091367132962 0.4205533564090729 0.7176470756530762 0.5764706134796143 0.37254902720451355
0.6783251166343689 0.00015790305042173713 0.7189723253250122 0.6196078658103943 0.49803921580314636 0.3764705955982208
0.628078818321228 0.11432180553674698 0.9905138611793518 0.3294117748737335 0.30980393290519714 0.2862745225429535
0.7852216958999634 0.07089846581220627 0.18063241243362427 0.32549020648002625 0.3803921639919281 0.4156862795352936
0.8578817844390869 0.07058266550302505 0.007509881630539894 0.47058823704719543 0.46666666865348816 0.3843137323856354
0.8073891401290894 0.04421285167336464 0.1201581060886383 0.16470588743686676 0.13725490868091583 0.09803921729326248
0.681034505367279 0.00015790305042173713 0.7126482129096985 0.615686297416687 0.4941176474094391 0.37254902720451355
0.8049260973930359 0.04421285167336464 0.2707509994506836 0.5960784554481506 0.3843137323856354 0.1411764770746231
0.6807881593704224 0.09884730726480484 0.005533596966415644 0.10588235408067703 0.11372549086809158 0.062745101749897
0.8083744049072266 0.004421285353600979 0.612252950668335 0.11372549086809158 0.0941176488995552 0.0784313753247261
0.7903940677642822 0.11400599777698517 0.991304337978363 0.2823529541492462 0.26274511218070984 0.239215686917305
0.6854679584503174 0.0977419838309288 0.005533596966415644 0.1411764770746231 0.14509804546833038 0.11372549086809158
0.7918719053268433 0.04484446719288826 0.1462450623512268 0.2823529541492462 0.3019607961177826 0.32549020648002625
0.7216748595237732 0.034896574914455414 0.006719367578625679 0.32156863808631897 0.30980393290519714 0.23529411852359772
0.8576354384422302 0.04768672212958336 0.9885375499725342 0.27843138575553894 0.27450981736183167 0.20392157137393951
0.8096058964729309 0.004105479456484318 0.31343874335289 0.1568627506494522 0.12156862765550613 0.08627451211214066
0.7822660207748413 0.06016106158494949 0.0071146246045827866 0.3764705955982208 0.3450980484485626 0.29411765933036804
0.6458128094673157 0.1236380860209465 0.005533596966415644 0.6117647290229797 0.615686297416687 0.5607843399047852
0.6322659850120544 0.11053213477134705 0.9901185631752014 0.3450980484485626 0.3294117748737335 0.29411765933036804
0.8056650161743164 0.04389704763889313 0.6837944388389587 0.6509804129600525 0.4941176474094391 0.3529411852359772
0.7150246500968933 0.1266382485628128 0.17588932812213898 0.37254902720451355 0.4117647111415863 0.4156862795352936
0.6672413945198059 0.00031580610084347427 0.10671936720609665 0.6392157077789307 0.48627451062202454 0.2235294133424759
0.7714285850524902 0.049265749752521515 0.17826086282730103 0.2980392277240753 0.26274511218070984 0.23529411852359772
0.793596088886261 0.004263382405042648 0.13715414702892303 0.1411764770746231 0.11372549086809158 0.07450980693101883
0.8305418491363525 0.04389704763889313 0.21027667820453644 0.6627451181411743 0.4117647111415863 0.16862745583057404
0.6995074152946472 0.00031580610084347427 0.2403162121772766 0.5803921818733215 0.42352941632270813 0.1921568661928177
0.7549260854721069 0.004263382405042648 0.42332014441490173 0.5921568870544434 0.4431372582912445 0.19607843458652496
0.7933497428894043 0.05637138709425926 0.007509881630539894 0.3686274588108063 0.32156863808631897 0.27450981736183167
0.7958127856254578 0.10405810922384262 0.9909090995788574 0.27843138575553894 0.25882354378700256 0.23529411852359772
0.6487684845924377 0.024474972859025 0.007509881630539894 0.5411764979362488 0.5411764979362488 0.5098039507865906
0.818719208240509 0.004421285353600979 0.4150197505950928 0.15294118225574493 0.11372549086809158 0.0784313753247261
0.7465517520904541 0.14179693162441254 0.9924901127815247 0.2549019753932953 0.2549019753932953 0.2549019753932953
0.6862068772315979 0.06284541636705399 0.9897233247756958 0.37254902720451355 0.34117648005485535 0.2980392277240753
0.7096059322357178 0.14495499432086945 0.992094874382019 0.6039215922355652 0.6431372761726379 0.6823529601097107
0.814039409160614 0.004263382405042648 0.11857707798480988 0.10196078568696976 0.08235294371843338 0.06666667014360428
0.687438428401947 0.0 0.8328063488006592 0.48235294222831726 0.3803921639919281 0.250980406999588
0.7903940677642822 0.09411021322011948 0.0063241105526685715 0.42352941632270813 0.3921568691730499 0.30980393290519714
0.6967980265617371 0.09063635021448135 0.1818181872367859 0.30980393290519714 0.3490196168422699 0.3450980484485626
0.7174876928329468 0.00031580610084347427 0.40434783697128296 0.6549019813537598 0.49803921580314636 0.2980392277240753
0.7357142567634583 0.002842254936695099 0.8079051375389099 0.33725491166114807 0.24313725531101227 0.13333334028720856
0.7731527090072632 0.004421285353600979 0.13675889372825623 0.23529411852359772 0.1764705926179886 0.0941176488995552
0.6226601004600525 0.10153166204690933 0.005928853526711464 0.5333333611488342 0.529411792755127 0.45098039507865906
0.6642857193946838 0.00015790305042173713 0.6197628378868103 0.6431372761726379 0.529411792755127 0.37254902720451355
0.8527093529701233 0.043265435844659805 0.4209486246109009 0.7411764860153198 0.5137255191802979 0.3333333432674408
0.8517241477966309 0.043265435844659805 0.260869562625885 0.6470588445663452 0.40784314274787903 0.1921568661928177
0.743842363357544 0.004579188302159309 0.06086956337094307 0.2235294133424759 0.18039216101169586 0.10196078568696976
0.7943349480628967 0.11621664464473724 0.15177865326404572 0.14509804546833038 0.14901961386203766 0.12941177189350128
0.7492610812187195 0.017053529620170593 0.9885375499725342 0.24313725531101227 0.21960784494876862 0.1568627506494522
0.8194581270217896 0.04405495151877403 0.1146245077252388 0.49803921580314636 0.30588236451148987 0.1764705926179886
0.6987684965133667 0.00015790305042173713 0.14466403424739838 0.5607843399047852 0.4156862795352936 0.20000000298023224
0.7788177132606506 0.06931943446397781 0.9893280863761902 0.23529411852359772 0.21960784494876862 0.1764705926179886
0.8174876570701599 0.04389704763889313 0.2454545497894287 0.6352941393852234 0.40392157435417175 0.14509804546833038
0.81083744764328 0.04421285167336464 0.42411068081855774 0.7176470756530762 0.501960813999176 0.2823529541492462
0.6295566558837891 0.024632874876260757 0.007509881630539894 0.5647059082984924 0.5568627715110779 0.5098039507865906
0.69852215051651 0.00236854562535882 0.015810277312994003 0.40392157435417175 0.4000000059604645 0.3803921639919281
0.7463054060935974 0.004263382405042648 0.5015810132026672 0.5607843399047852 0.41960784792900085 0.1921568661928177
0.7647783160209656 0.004421285353600979 0.23636363446712494 0.4000000059604645 0.2823529541492462 0.14901961386203766
0.6849753856658936 0.14148113131523132 0.005138339940458536 0.5764706134796143 0.5764706134796143 0.545098066329956
0.7172414064407349 0.00015790305042173713 0.14189723134040833 0.5254902243614197 0.3960784375667572 0.19607843458652496
0.7640393972396851 0.004263382405042648 0.3276679813861847 0.41960784792900085 0.3019607961177826 0.16862745583057404
0.8118226528167725 0.04863413795828819 0.9885375499725342 0.2705882489681244 0.239215686917305 0.1882352977991104
0.7830049395561218 0.004421285353600979 0.7114624381065369 0.16862745583057404 0.13725490868091583 0.0941176488995552
0.670197069644928 0.06505605578422546 0.9897233247756958 0.3803921639919281 0.3529411852359772 0.32156863808631897
0.754679799079895 0.004263382405042648 0.4628458619117737 0.6000000238418579 0.45098039507865906 0.20392157137393951
0.7411330342292786 0.036633506417274475 0.9889327883720398 0.32156863808631897 0.2980392277240753 0.24313725531101227
0.7975369691848755 0.0805305540561676 0.006719367578625679 0.33725491166114807 0.30980393290519714 0.23529411852359772
0.6620689630508423 0.0004737091367132962 0.28814229369163513 0.6627451181411743 0.4901960790157318 0.21176470816135406
0.7270935773849487 0.09979472309350967 0.1762845814228058 0.3137255012989044 0.3529411852359772 0.3490196168422699
0.7576354742050171 0.004263382405042648 0.3079051375389099 0.529411792755127 0.3843137323856354 0.2078431397676468
0.7921182513237 0.09853149950504303 0.1505928784608841 0.10980392247438431 0.10980392247438431 0.10196078568696976
0.7724137902259827 0.12269067019224167 0.005928853526711464 0.6745098233222961 0.6666666865348816 0.6078431606292725
0.8310344815254211 0.04373914375901222 0.10790514200925827 0.5960784554481506 0.3764705955982208 0.18431372940540314
0.8364531993865967 0.15648192167282104 0.006719367578625679 0.6196078658103943 0.6000000238418579 0.5254902243614197
0.8118226528167725 0.004263382405042648 0.13675889372825623 0.10980392247438431 0.09019608050584793 0.06666667014360428
0.7980295419692993 0.1234801858663559 0.0063241105526685715 0.7254902124404907 0.729411780834198 0.7058823704719543
0.6403940916061401 0.00031580610084347427 0.5897233486175537 0.6666666865348816 0.5372549295425415 0.3764705955982208
0.7098522186279297 0.00031580610084347427 0.35098814964294434 0.6078431606292725 0.46666666865348816 0.239215686917305
0.7679802775382996 0.004263382405042648 0.365612655878067 0.37254902720451355 0.2666666805744171 0.14901961386203766
0.8317734003067017 0.00473709125071764 0.8177865743637085 0.30588236451148987 0.22745098173618317 0.13333334028720856
0.8339901566505432 0.004579188302159309 0.7355731129646301 0.10588235408067703 0.08627451211214066 0.07058823853731155
0.815517246723175 0.04405495151877403 0.06956521421670914 0.3607843220233917 0.23529411852359772 0.15294118225574493
0.6320196986198425 0.0 0.8537549376487732 0.4431372582912445 0.3490196168422699 0.21568627655506134
0.75935959815979 0.046107690781354904 0.38814228773117065 0.7254902124404907 0.4901960790157318 0.27843138575553894
0.812561571598053 0.024790778756141663 0.9877470135688782 0.2705882489681244 0.24313725531101227 0.18039216101169586
0.8056650161743164 0.04373914375901222 0.7027667760848999 0.6666666865348816 0.5254902243614197 0.4000000059604645
0.678078830242157 0.08400442451238632 0.9901185631752014 0.37254902720451355 0.35686275362968445 0.3137255012989044
0.6263546943664551 0.12032212316989899 0.005533596966415644 0.5529412031173706 0.572549045085907 0.4941176474094391
0.8216748833656311 0.04389704763889313 0.28893280029296875 0.7176470756530762 0.48235294222831726 0.239215686917305
0.6854679584503174 0.1121111661195755 0.005533596966415644 0.5411764979362488 0.5529412031173706 0.5176470875740051
0.6719211935997009 0.00015790305042173713 0.6529644131660461 0.6431372761726379 0.5176470875740051 0.35686275362968445
0.6243842244148254 0.11526922136545181 0.9905138611793518 0.3607843220233917 0.3450980484485626 0.30980393290519714
0.7209359407424927 0.06126638129353523 0.2699604630470276 0.20000000298023224 0.21960784494876862 0.23137255012989044
0.7763546705245972 0.004421285353600979 0.5320158004760742 0.25882354378700256 0.1921568661928177 0.11372549086809158
0.681280791759491 0.1550607979297638 0.9916995763778687 0.9137254953384399 0.9137254953384399 0.9450980424880981
0.8194581270217896 0.004421285353600979 0.19446639716625214 0.13333334028720856 0.10588235408067703 0.07450980693101883
0.7160098552703857 0.00031580610084347427 0.5292490124702454 0.6705882549285889 0.5411764979362488 0.364705890417099
0.6504926085472107 0.0 0.7837944626808167 0.501960813999176 0.40784314274787903 0.27450981736183167
0.8613300323486328 0.1496920883655548 0.006719367578625679 0.615686297416687 0.6196078658103943 0.5647059082984924
0.7332512140274048 0.00236854562535882 0.612252950668335 0.4274509847164154 0.35686275362968445 0.21568627655506134
0.8110837340354919 0.06931943446397781 0.007509881630539894 0.3176470696926117 0.32549020648002625 0.2823529541492462
0.7817733883857727 0.12758566439151764 0.005928853526711464 0.18431372940540314 0.18431372940540314 0.1764705926179886
0.820443332195282 0.15079741179943085 0.0063241105526685715 0.5960784554481506 0.6039215922355652 0.5607843399047852
0.7662561535835266 0.004421285353600979 0.5324110388755798 0.3803921639919281 0.2823529541492462 0.16078431904315948
0.8337438702583313 0.04358123987913132 0.5652173757553101 0.7019608020782471 0.5215686559677124 0.3803921639919281
0.7630541920661926 0.046423494815826416 0.3802371621131897 0.7215686440467834 0.49803921580314636 0.29019609093666077
0.757881760597229 0.004421285353600979 0.4545454680919647 0.5490196347236633 0.3921568691730499 0.1882352977991104
0.8256157636642456 0.004105479456484318 0.2920948565006256 0.14509804546833038 0.10980392247438431 0.09019608050584793
0.7970443367958069 0.004421285353600979 0.5778656005859375 0.15294118225574493 0.11372549086809158 0.0784313753247261
0.7901477813720703 0.004421285353600979 0.739920973777771 0.16470588743686676 0.13333334028720856 0.09019608050584793
0.7509852051734924 0.004421285353600979 0.8794466257095337 0.3294117748737335 0.24705882370471954 0.13333334028720856
