0.4477832615375519 0.5862939953804016 0.2972331941127777 0.5960784554481506 0.6235294342041016 0.6549019813537598
0.3364531993865967 0.5995578765869141 0.007905138656497002 0.5803921818733215 0.5647059082984924 0.5215686559677124
0.3736453056335449 0.6818253397941589 0.2968379557132721 0.4156862795352936 0.45098039507865906 0.4470588266849518
0.48300492763519287 0.6470866799354553 0.30000001192092896 0.5215686559677124 0.5176470875740051 0.5372549295425415
0.2623152732849121 0.5763460993766785 0.0071146246045827866 0.49803921580314636 0.4941176474094391 0.42352941632270813
0.3699507415294647 0.6221380233764648 0.00830039568245411 0.09019608050584793 0.08627451211214066 0.0784313753247261
0.2972906529903412 0.6527711749076843 0.9928853511810303 1.0 1.0 1.0
0.3800492584705353 0.5760303139686584 0.15770751237869263 0.04313725605607033 0.04313725605607033 0.04313725605607033
0.4362069070339203 0.6576662063598633 0.0063241105526685715 0.24705882370471954 0.24705882370471954 0.20000000298023224
0.3692118227481842 0.70203697681427 0.009486165829002857 0.23529411852359772 0.239215686917305 0.18431372940540314
0.3958128094673157 0.6687194108963013 0.9909090995788574 0.32156863808631897 0.30980393290519714 0.27450981736183167
0.34334975481033325 0.5709774494171143 0.2857707440853119 0.11372549086809158 0.11372549086809158 0.10588235408067703
0.2591133117675781 0.599242091178894 0.991304337978363 0.364705890417099 0.364705890417099 0.3333333432674408
0.31600984930992126 0.5945049524307251 0.991304337978363 0.33725491166114807 0.3333333432674408 0.3176470696926117
0.33891624212265015 0.7105637192726135 0.9909090995788574 0.35686275362968445 0.364705890417099 0.3529411852359772
0.33522167801856995 0.6592452526092529 0.30869564414024353 0.1764705926179886 0.21176470816135406 0.2078431397676468
0.24753694236278534 0.691141664981842 0.007905138656497002 0.47058823704719543 0.46666666865348816 0.3843137323856354
0.2844827473163605 0.632085919380188 0.007509881630539894 0.5568627715110779 0.5333333611488342 0.47058823704719543
0.4527093470096588 0.6508763432502747 0.005928853526711464 0.47843137383461 0.47058823704719543 0.4117647111415863
0.3330049216747284 0.6898784041404724 0.00909090880304575 0.48627451062202454 0.501960813999176 0.3960784375667572
0.4522167444229126 0.7102479338645935 0.0019762846641242504 0.35686275362968445 0.3607843220233917 0.2980392277240753
0.33891624212265015 0.5665561556816101 0.29525691270828247 0.11372549086809158 0.11372549086809158 0.10588235408067703
0.4399014711380005 0.5826622247695923 0.005928853526711464 0.12156862765550613 0.09803921729326248 0.11372549086809158
0.4766009747982025 0.6093478798866272 0.9909090995788574 0.33725491166114807 0.3333333432674408 0.3137255012989044
0.3758620619773865 0.6448760628700256 0.2960474193096161 0.5137255191802979 0.5490196347236633 0.5764706134796143
0.32339900732040405 0.6294015645980835 0.007905138656497002 0.6235294342041016 0.615686297416687 0.5333333611488342
0.3775862157344818 0.6298752427101135 0.1723320186138153 0.05882352963089943 0.05098039284348488 0.054901961237192154
0.33596059679985046 0.5962418913841248 0.991304337978363 0.3450980484485626 0.34117648005485535 0.3333333432674408
0.28349754214286804 0.5870835185050964 0.991304337978363 0.3176470696926117 0.30588236451148987 0.2705882489681244
0.3527093529701233 0.6123480200767517 0.9916995763778687 0.3176470696926117 0.3137255012989044 0.30588236451148987
0.43793103098869324 0.6251381635665894 0.00830039568245411 0.16862745583057404 0.1725490242242813 0.15294118225574493
0.2502463161945343 0.5667140483856201 0.006719367578625679 0.5882353186607361 0.6039215922355652 0.49803921580314636
0.3482758700847626 0.6144007444381714 0.9916995763778687 0.2980392277240753 0.29019609093666077 0.29411765933036804
0.3736453056335449 0.6635085940361023 0.991304337978363 0.33725491166114807 0.3333333432674408 0.3137255012989044
0.31921181082725525 0.6467708945274353 0.00830039568245411 0.5058823823928833 0.5176470875740051 0.4117647111415863
0.34236451983451843 0.5635559558868408 0.28418973088264465 0.10980392247438431 0.10980392247438431 0.10196078568696976
0.46625617146492004 0.6399810314178467 0.9916995763778687 0.3490196168422699 0.33725491166114807 0.3019607961177826
0.3263546824455261 0.6027159094810486 0.9916995763778687 0.32156863808631897 0.3176470696926117 0.30980393290519714
0.30369457602500916 0.6936680674552917 0.00909090880304575 0.4627451002597809 0.4627451002597809 0.3294117748737335
0.3655172288417816 0.6227695941925049 0.29525691270828247 0.6196078658103943 0.6549019813537598 0.6901960968971252
0.29162561893463135 0.5881888270378113 0.991304337978363 0.3921568691730499 0.3803921639919281 0.3607843220233917
0.27512314915657043 0.573661744594574 0.9909090995788574 0.3960784375667572 0.3960784375667572 0.35686275362968445
0.30418717861175537 0.6226117014884949 0.007509881630539894 0.6509804129600525 0.6470588445663452 0.5764706134796143
0.46674877405166626 0.5812411308288574 0.9909090995788574 0.364705890417099 0.3529411852359772 0.3176470696926117
0.38300493359565735 0.5746091604232788 0.991304337978363 0.3490196168422699 0.33725491166114807 0.30980393290519714
0.378078818321228 0.5684509873390198 0.17272727191448212 0.07058823853731155 0.07058823853731155 0.07058823853731155
0.34778323769569397 0.5602400302886963 0.261264830827713 0.10980392247438431 0.10980392247438431 0.10196078568696976
0.4322659969329834 0.6954050064086914 0.003952569328248501 0.1568627506494522 0.16862745583057404 0.1411764770746231
0.40566501021385193 0.615979790687561 0.2964426875114441 0.5960784554481506 0.6039215922355652 0.6509804129600525
0.41477832198143005 0.5973471999168396 0.991304337978363 0.3333333432674408 0.3294117748737335 0.30980393290519714
0.4137931168079376 0.6290857195854187 0.2972331941127777 0.5568627715110779 0.5686274766921997 0.5882353186607361
0.45467981696128845 0.6740881204605103 0.30000001192092896 0.5215686559677124 0.5372549295425415 0.5411764979362488
0.4078817665576935 0.6331912279129028 0.2968379557132721 0.5607843399047852 0.5686274766921997 0.6196078658103943
0.35837438702583313 0.7104058265686035 0.2964426875114441 0.47058823704719543 0.5254902243614197 0.529411792755127
0.3615763485431671 0.6996684074401855 0.2960474193096161 0.4000000059604645 0.4470588266849518 0.4470588266849518
0.432758629322052 0.6609821319580078 0.29881423711776733 0.49803921580314636 0.5098039507865906 0.5372549295425415
0.42709359526634216 0.5708194971084595 0.2956521809101105 0.6000000238418579 0.6117647290229797 0.6470588445663452
0.3258620798587799 0.6384020447731018 0.00830039568245411 0.5254902243614197 0.5215686559677124 0.4431372582912445
0.3056650161743164 0.6960366368293762 0.991304337978363 0.32549020648002625 0.3529411852359772 0.4156862795352936
0.3450738787651062 0.6680877804756165 0.249802365899086 0.11372549086809158 0.11764705926179886 0.09803921729326248
0.4433497488498688 0.7053529024124146 0.2960474193096161 0.06666667014360428 0.06666667014360428 0.06666667014360428
0.3211822807788849 0.5885046720504761 0.991304337978363 0.3529411852359772 0.3490196168422699 0.3333333432674408
0.34753695130348206 0.6963524222373962 0.9909090995788574 0.35686275362968445 0.3607843220233917 0.33725491166114807
0.48128077387809753 0.5728722810745239 0.005533596966415644 0.48235294222831726 0.49803921580314636 0.4941176474094391
0.39064040780067444 0.6492973566055298 0.2968379557132721 0.5058823823928833 0.5372549295425415 0.545098066329956
0.3211822807788849 0.6354018449783325 0.00830039568245411 0.5333333611488342 0.5372549295425415 0.46666666865348816
0.3295566439628601 0.5817148089408875 0.991304337978363 0.3803921639919281 0.364705890417099 0.3529411852359772
0.3534482717514038 0.5873993635177612 0.27312251925468445 0.10980392247438431 0.10588235408067703 0.09803921729326248
0.30812808871269226 0.6005052924156189 0.9916995763778687 0.34117648005485535 0.33725491166114807 0.32156863808631897
0.4251231551170349 0.5809252858161926 0.005928853526711464 0.2549019753932953 0.2549019753932953 0.21568627655506134
0.46256157755851746 0.6723511815071106 0.30000001192092896 0.5254902243614197 0.5411764979362488 0.545098066329956
0.45911329984664917 0.6497710347175598 0.007509881630539894 0.48235294222831726 0.4627451002597809 0.3843137323856354
0.30000001192092896 0.5850307941436768 0.991304337978363 0.3921568691730499 0.3803921639919281 0.3529411852359772
0.3408867120742798 0.6079267263412476 0.9916995763778687 0.33725491166114807 0.3294117748737335 0.3333333432674408
0.25935959815979004 0.6530870199203491 0.9972332119941711 1.0 1.0 1.0
0.44310346245765686 0.5690825581550598 0.1822134405374527 0.29411765933036804 0.3176470696926117 0.3176470696926117
0.4876847267150879 0.7051950097084045 0.0003952569095417857 0.45098039507865906 0.46666666865348816 0.40784314274787903
0.4012315273284912 0.6132954359054565 0.007905138656497002 0.08235294371843338 0.08235294371843338 0.07450980693101883
0.24876847863197327 0.5717669129371643 0.9909090995788574 0.35686275362968445 0.3490196168422699 0.3019607961177826
0.44310346245765686 0.6589294075965881 0.0071146246045827866 0.2549019753932953 0.2549019753932953 0.2078431397676468
0.2586206793785095 0.7042475938796997 0.9936758875846863 0.9764705896377563 0.9803921580314636 0.9960784316062927
0.253201961517334 0.5703458189964294 0.006719367578625679 0.501960813999176 0.4941176474094391 0.40392157435417175
0.45123153924942017 0.6177167296409607 0.00909090880304575 0.21960784494876862 0.2235294133424759 0.20392157137393951
0.4761083722114563 0.5722406506538391 0.9909090995788574 0.2980392277240753 0.2862745225429535 0.250980406999588
0.4485221803188324 0.6147165894508362 0.29802370071411133 0.5803921818733215 0.5803921818733215 0.6117647290229797
0.3684729039669037 0.567661464214325 0.29367589950561523 0.6627451181411743 0.7058823704719543 0.729411780834198
0.46625617146492004 0.6933522820472717 0.9909090995788574 0.3176470696926117 0.3176470696926117 0.2862745225429535
0.3536945879459381 0.6731407046318054 0.9909090995788574 0.3490196168422699 0.3450980484485626 0.32549020648002625
0.3463054299354553 0.6444023251533508 0.2869565188884735 0.09803921729326248 0.09803921729326248 0.09803921729326248
0.3761083781719208 0.6297173500061035 0.991304337978363 0.32156863808631897 0.3176470696926117 0.2980392277240753
0.4135468006134033 0.6387178301811218 0.0063241105526685715 0.20392157137393951 0.20392157137393951 0.1725490242242813
0.36650246381759644 0.665561318397522 0.007905138656497002 0.2980392277240753 0.30588236451148987 0.2549019753932953
0.4078817665576935 0.5531343817710876 0.16363635659217834 0.09019608050584793 0.09019608050584793 0.09019608050584793
0.33940887451171875 0.5682930946350098 0.30434781312942505 0.10196078568696976 0.10980392247438431 0.10588235408067703
0.2815271019935608 0.6769303679466248 0.00830039568245411 0.501960813999176 0.5137255191802979 0.4313725531101227
0.38620689511299133 0.6519817113876343 0.1719367653131485 0.08627451211214066 0.08627451211214066 0.08627451211214066
0.2943349778652191 0.6756671667098999 0.9936758875846863 0.9647058844566345 0.9686274528503418 0.9882352948188782
0.24729064106941223 0.6868782639503479 0.007905138656497002 0.6941176652908325 0.7058823704719543 0.6313725709915161
0.35049259662628174 0.6772461533546448 0.18498024344444275 0.21568627655506134 0.23137255012989044 0.23529411852359772
0.39039409160614014 0.6933522820472717 0.00830039568245411 0.26274511218070984 0.2666666805744171 0.21176470816135406
0.4645320177078247 0.5929259657859802 0.0071146246045827866 0.1568627506494522 0.16470588743686676 0.15294118225574493
0.3660098612308502 0.6317700743675232 0.20434781908988953 0.0941176488995552 0.09019608050584793 0.07058823853731155
0.4174876809120178 0.7066161632537842 0.2960474193096161 0.16470588743686676 0.1725490242242813 0.16078431904315948
0.44310346245765686 0.6147165894508362 0.008695651777088642 0.03529411926865578 0.04313725605607033 0.03921568766236305
0.42216747999191284 0.7028264403343201 0.004347825888544321 0.239215686917305 0.23529411852359772 0.21960784494876862
0.45812806487083435 0.562766432762146 0.9909090995788574 0.3607843220233917 0.3490196168422699 0.3137255012989044
0.4800492525100708 0.6519817113876343 0.0063241105526685715 0.45490196347236633 0.4313725531101227 0.3686274588108063
0.28743842244148254 0.5809252858161926 0.991304337978363 0.3960784375667572 0.3843137323856354 0.35686275362968445
0.4805418848991394 0.6118742823600769 0.991304337978363 0.3450980484485626 0.3450980484485626 0.3137255012989044
0.43004927039146423 0.5600821375846863 0.9909090995788574 0.3686274588108063 0.35686275362968445 0.32156863808631897
0.3532019555568695 0.6472445726394653 0.29960474371910095 0.0941176488995552 0.11372549086809158 0.13725490868091583
0.4527093470096588 0.5675035715103149 0.2968379557132721 0.5960784554481506 0.6078431606292725 0.6274510025978088
0.38226601481437683 0.562450647354126 0.9909090995788574 0.3450980484485626 0.3333333432674408 0.3137255012989044
0.40270936489105225 0.6906679272651672 0.9909090995788574 0.32156863808631897 0.3333333432674408 0.2980392277240753
0.26403939723968506 0.6684036254882812 0.9964426755905151 0.9803921580314636 0.9843137264251709 0.9921568632125854
0.44211822748184204 0.7067740559577942 0.9909090995788574 0.2666666805744171 0.2666666805744171 0.21960784494876862
0.4012315273284912 0.6897205114364624 0.1774703562259674 0.0784313753247261 0.0784313753247261 0.0784313753247261
0.46970441937446594 0.7096163034439087 0.9909090995788574 0.2823529541492462 0.2862745225429535 0.26274511218070984
0.3938423693180084 0.5791884064674377 0.16324110329151154 0.03921568766236305 0.03921568766236305 0.03921568766236305
0.48546797037124634 0.6300331354141235 0.0071146246045827866 0.5882353186607361 0.5960784554481506 0.545098066329956
0.47807881236076355 0.6875098943710327 0.3011857569217682 0.48235294222831726 0.48627451062202454 0.5058823823928833
0.2544334828853607 0.6666666865348816 0.9964426755905151 0.9882352948188782 0.9921568632125854 1.0
0.3022167384624481 0.6680877804756165 0.007905138656497002 0.6078431606292725 0.6078431606292725 0.5137255191802979
0.3768472969532013 0.573345959186554 0.006719367578625679 0.27450981736183167 0.2666666805744171 0.21568627655506134
0.3576354682445526 0.5578714609146118 0.007509881630539894 0.6078431606292725 0.5882353186607361 0.5137255191802979
0.4083743989467621 0.6935101747512817 0.29841896891593933 0.47843137383461 0.501960813999176 0.501960813999176
0.3019704520702362 0.6759829521179199 0.007905138656497002 0.658823549747467 0.6549019813537598 0.5764706134796143
0.3450738787651062 0.6792989373207092 0.17865613102912903 0.20392157137393951 0.22745098173618317 0.22745098173618317
0.39507389068603516 0.638086199760437 0.0063241105526685715 0.19607843458652496 0.1882352977991104 0.1411764770746231
0.4923645257949829 0.5705037117004395 0.005533596966415644 0.4431372582912445 0.46666666865348816 0.4588235318660736
0.24876847863197327 0.6333491206169128 0.007509881630539894 0.6509804129600525 0.6470588445663452 0.5647059082984924
0.42709359526634216 0.6363492608070374 0.006719367578625679 0.2823529541492462 0.27450981736183167 0.22745098173618317
0.4849753677845001 0.696826159954071 0.9909090995788574 0.3176470696926117 0.32156863808631897 0.29019609093666077
0.49064040184020996 0.670930027961731 0.991304337978363 0.32156863808631897 0.30980393290519714 0.29019609093666077
0.40714284777641296 0.7003000378608704 0.9909090995788574 0.34117648005485535 0.34117648005485535 0.3019607961177826
0.44999998807907104 0.6777198910713196 0.9909090995788574 0.3294117748737335 0.33725491166114807 0.29411765933036804
0.4455665051937103 0.6177167296409607 0.991304337978363 0.3294117748737335 0.32549020648002625 0.30588236451148987
0.3214285671710968 0.5543975830078125 0.9909090995788574 0.38823530077934265 0.3764705955982208 0.3490196168422699
0.3056650161743164 0.7069319486618042 0.008695651777088642 0.5960784554481506 0.5843137502670288 0.5098039507865906
0.44261083006858826 0.6556134819984436 0.1822134405374527 0.0470588244497776 0.0470588244497776 0.0470588244497776
0.45073890686035156 0.6275067329406738 0.991304337978363 0.2980392277240753 0.29411765933036804 0.27450981736183167
0.370197057723999 0.6091899275779724 0.008695651777088642 0.07058823853731155 0.0784313753247261 0.07450980693101883
0.2647783160209656 0.6088741421699524 0.991304337978363 0.4000000059604645 0.3843137323856354 0.3803921639919281
0.33448275923728943 0.6024001240730286 0.9916995763778687 0.3607843220233917 0.35686275362968445 0.3490196168422699
0.4044334888458252 0.610453188419342 0.0063241105526685715 0.08627451211214066 0.08235294371843338 0.07450980693101883
0.3485221564769745 0.5829780697822571 0.18379446864128113 0.27450981736183167 0.30588236451148987 0.3176470696926117
0.3263546824455261 0.627032995223999 0.9916995763778687 0.2862745225429535 0.2823529541492462 0.27450981736183167
0.4251231551170349 0.5940312743186951 0.005928853526711464 0.29019609093666077 0.29019609093666077 0.2980392277240753
0.4689655303955078 0.610295295715332 0.007905138656497002 0.3960784375667572 0.3960784375667572 0.35686275362968445
0.3258620798587799 0.6699826121330261 0.007509881630539894 0.4274509847164154 0.4274509847164154 0.3176470696926117
0.4881773293018341 0.5986104607582092 0.9909090995788574 0.364705890417099 0.3529411852359772 0.3176470696926117
0.32684728503227234 0.6644560098648071 0.991304337978363 0.364705890417099 0.364705890417099 0.35686275362968445
0.27610838413238525 0.6702984571456909 0.007905138656497002 0.5058823823928833 0.5137255191802979 0.4274509847164154
0.4278325140476227 0.643454909324646 0.17905138432979584 0.054901961237192154 0.054901961237192154 0.054901961237192154
0.39926108717918396 0.5829780697822571 0.16561265289783478 0.03921568766236305 0.03921568766236305 0.03921568766236305
0.33472907543182373 0.7089846730232239 0.009486165829002857 0.38823530077934265 0.3843137323856354 0.27450981736183167
0.35049259662628174 0.7099320888519287 0.010276679880917072 0.12156862765550613 0.11764705926179886 0.09803921729326248
0.4285714328289032 0.6647718548774719 0.9909090995788574 0.3137255012989044 0.3137255012989044 0.27450981736183167
0.4403941035270691 0.5648192167282104 0.005533596966415644 0.34117648005485535 0.3294117748737335 0.3019607961177826
0.3935960531234741 0.5758724212646484 0.16284584999084473 0.03921568766236305 0.03921568766236305 0.03921568766236305
0.2655172348022461 0.6462971568107605 0.007905138656497002 0.5058823823928833 0.4941176474094391 0.41960784792900085
0.3066502511501312 0.562292754650116 0.9909090995788574 0.3607843220233917 0.3490196168422699 0.32156863808631897
0.36403942108154297 0.5766619443893433 0.1513833999633789 0.05098039284348488 0.05098039284348488 0.05098039284348488
0.4283251166343689 0.5706616044044495 0.005928853526711464 0.0784313753247261 0.08235294371843338 0.062745101749897
0.2778325080871582 0.6330333352088928 0.007509881630539894 0.5176470875740051 0.5098039507865906 0.45098039507865906
0.28423646092414856 0.5768198370933533 0.991304337978363 0.3490196168422699 0.33725491166114807 0.30980393290519714
0.4613300561904907 0.556450366973877 0.004743082914501429 0.5490196347236633 0.5411764979362488 0.4941176474094391
0.30024629831314087 0.7039318084716797 0.008695651777088642 0.5490196347236633 0.5372549295425415 0.4156862795352936
0.2613300383090973 0.7014053463935852 0.007905138656497002 0.5215686559677124 0.501960813999176 0.42352941632270813
0.336699515581131 0.5632401704788208 0.991304337978363 0.4156862795352936 0.4000000059604645 0.364705890417099
0.25960591435432434 0.6221380233764648 0.9928853511810303 0.4000000059604645 0.40392157435417175 0.3843137323856354
0.368719220161438 0.6742460131645203 0.00830039568245411 0.29411765933036804 0.27843138575553894 0.23137255012989044
0.4330049157142639 0.6622453927993774 0.005138339940458536 0.239215686917305 0.239215686917305 0.1921568661928177
0.4251231551170349 0.6008210778236389 0.991304337978363 0.3490196168422699 0.3294117748737335 0.30588236451148987
0.25123152136802673 0.6612979769706726 0.9968379735946655 0.9803921580314636 0.9960784316062927 0.9921568632125854
0.475862056016922 0.6150323748588562 0.991304337978363 0.3294117748737335 0.32549020648002625 0.30588236451148987
0.2620689570903778 0.6835622787475586 0.007905138656497002 0.6078431606292725 0.6196078658103943 0.5137255191802979
0.3775862157344818 0.562134861946106 0.17312252521514893 0.08627451211214066 0.08627451211214066 0.08627451211214066
0.32315272092819214 0.7100899815559387 0.00909090880304575 0.41960784792900085 0.41960784792900085 0.30980393290519714
0.46206897497177124 0.5573977828025818 0.005138339940458536 0.5333333611488342 0.5254902243614197 0.4745098054409027
0.31921181082725525 0.5777672529220581 0.991304337978363 0.32549020648002625 0.30980393290519714 0.2980392277240753
0.3056650161743164 0.5948207974433899 0.0071146246045827866 0.5921568870544434 0.5803921818733215 0.5215686559677124
0.34704434871673584 0.6736143827438354 0.18142291903495789 0.2235294133424759 0.24705882370471954 0.24705882370471954
0.34802955389022827 0.5613453388214111 0.2549407184123993 0.11372549086809158 0.11372549086809158 0.10588235408067703
0.2859605848789215 0.6504026651382446 0.007905138656497002 0.6901960968971252 0.7019608020782471 0.6274510025978088
0.37093594670295715 0.5708194971084595 0.18537549674510956 0.06666667014360428 0.06666667014360428 0.06666667014360428
0.3805418610572815 0.5913469195365906 0.991304337978363 0.3686274588108063 0.3529411852359772 0.34117648005485535
0.3566502332687378 0.5534501671791077 0.007509881630539894 0.5058823823928833 0.49803921580314636 0.43921568989753723
0.3852216601371765 0.5700299739837646 0.006719367578625679 0.40784314274787903 0.4000000059604645 0.34117648005485535
0.34285715222358704 0.6055582165718079 0.007905138656497002 0.6352941393852234 0.6117647290229797 0.5647059082984924
0.3165024518966675 0.5711353421211243 0.007509881630539894 0.49803921580314636 0.4745098054409027 0.41960784792900085
0.29581281542778015 0.562292754650116 0.0071146246045827866 0.49803921580314636 0.4901960790157318 0.43921568989753723
0.2901477813720703 0.5663982033729553 0.9909090995788574 0.4000000059604645 0.38823530077934265 0.3607843220233917
0.38743841648101807 0.6972998380661011 0.9909090995788574 0.3137255012989044 0.3137255012989044 0.2823529541492462
0.39852216839790344 0.70235276222229 0.9909090995788574 0.3019607961177826 0.30980393290519714 0.2666666805744171
0.46945813298225403 0.6470866799354553 0.29960474371910095 0.5176470875740051 0.5098039507865906 0.5529412031173706
0.39852216839790344 0.6317700743675232 0.991304337978363 0.3333333432674408 0.3176470696926117 0.3137255012989044
0.4283251166343689 0.6335070133209229 0.2976284623146057 0.5490196347236633 0.5490196347236633 0.5803921818733215
0.4078817665576935 0.6245065331459045 0.991304337978363 0.29411765933036804 0.27843138575553894 0.27450981736183167
0.38645321130752563 0.6611400842666626 0.991304337978363 0.3333333432674408 0.3333333432674408 0.3019607961177826
0.4805418848991394 0.6410863995552063 0.007509881630539894 0.10980392247438431 0.10196078568696976 0.10588235408067703
0.379802942276001 0.6129796504974365 0.00830039568245411 0.06666667014360428 0.06666667014360428 0.06666667014360428
0.3406403958797455 0.5930838584899902 0.991304337978363 0.32156863808631897 0.30588236451148987 0.3019607961177826
0.3655172288417816 0.6065056324005127 0.29446640610694885 0.6980392336845398 0.7098039388656616 0.7372549176216125
0.3327586352825165 0.7017211318016052 0.9909090995788574 0.3803921639919281 0.3843137323856354 0.364705890417099
0.4130541980266571 0.6180325150489807 0.00830039568245411 0.03921568766236305 0.03921568766236305 0.03921568766236305
0.3817734122276306 0.6726669669151306 0.9909090995788574 0.2862745225429535 0.27450981736183167 0.24705882370471954
0.3224138021469116 0.6181904077529907 0.007905138656497002 0.6039215922355652 0.5843137502670288 0.5098039507865906
0.336699515581131 0.6669824719429016 0.991304337978363 0.3137255012989044 0.30980393290519714 0.29019609093666077
0.40221676230430603 0.6028738617897034 0.991304337978363 0.3294117748737335 0.3137255012989044 0.30980393290519714
0.25615763664245605 0.5956103205680847 0.007509881630539894 0.47843137383461 0.48235294222831726 0.3607843220233917
0.4610837399959564 0.5924522280693054 0.006719367578625679 0.13725490868091583 0.14509804546833038 0.1411764770746231
0.37487685680389404 0.6175588369369507 0.00830039568245411 0.13725490868091583 0.13333334028720856 0.11764705926179886
0.4044334888458252 0.5907152891159058 0.16798418760299683 0.11372549086809158 0.11372549086809158 0.11372549086809158
0.3376847207546234 0.562450647354126 0.3083004057407379 0.125490203499794 0.14509804546833038 0.12941177189350128
0.37536945939064026 0.5545554757118225 0.15494070947170258 0.05098039284348488 0.05098039284348488 0.05098039284348488
0.42266011238098145 0.6658771634101868 0.9909090995788574 0.32156863808631897 0.32549020648002625 0.29411765933036804
0.3251231610774994 0.5738196969032288 0.991304337978363 0.3843137323856354 0.3686274588108063 0.35686275362968445
0.4012315273284912 0.6991946697235107 0.2960474193096161 0.4627451002597809 0.49803921580314636 0.5176470875740051
0.338177353143692 0.5777672529220581 0.0071146246045827866 0.49803921580314636 0.48627451062202454 0.4274509847164154
0.45935961604118347 0.5948207974433899 0.2976284623146057 0.6078431606292725 0.6078431606292725 0.6470588445663452
0.37167486548423767 0.637770414352417 0.18932805955410004 0.06666667014360428 0.07450980693101883 0.062745101749897
0.46674877405166626 0.7017211318016052 0.0015810276381671429 0.13725490868091583 0.13725490868091583 0.13725490868091583
0.3726601004600525 0.562766432762146 0.18102766573429108 0.05098039284348488 0.05098039284348488 0.05098039284348488
0.4194581210613251 0.6289278268814087 0.0063241105526685715 0.0941176488995552 0.09019608050584793 0.07450980693101883
0.39113301038742065 0.5588188767433167 0.9909090995788574 0.3490196168422699 0.3333333432674408 0.32156863808631897
0.4524630606174469 0.6331912279129028 0.9916995763778687 0.3176470696926117 0.3176470696926117 0.2862745225429535
0.4357142746448517 0.5963997840881348 0.2968379557132721 0.6000000238418579 0.615686297416687 0.658823549747467
0.4357142746448517 0.6567187905311584 0.991304337978363 0.30980393290519714 0.3137255012989044 0.2823529541492462
0.460098534822464 0.5864519476890564 0.2976284623146057 0.6117647290229797 0.6235294342041016 0.658823549747467
0.4088670015335083 0.5802937150001526 0.9909090995788574 0.364705890417099 0.3529411852359772 0.32549020648002625
0.31206896901130676 0.6121901273727417 0.9916995763778687 0.29411765933036804 0.27843138575553894 0.2666666805744171
0.39408865571022034 0.5881888270378113 0.17509882152080536 0.054901961237192154 0.054901961237192154 0.054901961237192154
0.4174876809120178 0.5777672529220581 0.2956521809101105 0.6039215922355652 0.6196078658103943 0.6549019813537598
0.3142857253551483 0.6276646256446838 0.9916995763778687 0.32156863808631897 0.3176470696926117 0.2980392277240753
0.33965516090393066 0.5611874461174011 0.007509881630539894 0.501960813999176 0.4901960790157318 0.4156862795352936
0.3246305286884308 0.6000315546989441 0.991304337978363 0.3490196168422699 0.3333333432674408 0.32156863808631897
0.43152710795402527 0.6665087342262268 0.29881423711776733 0.49803921580314636 0.5137255191802979 0.5176470875740051
0.3502463102340698 0.573188066482544 0.27272728085517883 0.11764705926179886 0.11764705926179886 0.10980392247438431
0.43078818917274475 0.5774514675140381 0.9909090995788574 0.37254902720451355 0.3607843220233917 0.32549020648002625
0.39827585220336914 0.6246644854545593 0.0071146246045827866 0.14509804546833038 0.13333334028720856 0.10588235408067703
0.43448275327682495 0.5922943353652954 0.18142291903495789 0.4470588266849518 0.48627451062202454 0.48235294222831726
0.4566502571105957 0.6807200312614441 0.0035573123022913933 0.2666666805744171 0.2666666805744171 0.22745098173618317
0.3408867120742798 0.5641875863075256 0.28774702548980713 0.10980392247438431 0.10980392247438431 0.10196078568696976
0.41477832198143005 0.5915048122406006 0.2960474193096161 0.6039215922355652 0.6313725709915161 0.6705882549285889
0.34285715222358704 0.6758250594139099 0.991304337978363 0.33725491166114807 0.34117648005485535 0.32156863808631897
0.35862070322036743 0.6260855793952942 0.00830039568245411 0.5137255191802979 0.48235294222831726 0.4000000059604645
0.42635467648506165 0.6527711749076843 0.0063241105526685715 0.2862745225429535 0.27450981736183167 0.2078431397676468
0.3881773352622986 0.6611400842666626 0.007905138656497002 0.2235294133424759 0.21568627655506134 0.16862745583057404
0.3923645317554474 0.5716090202331543 0.29446640610694885 0.6078431606292725 0.6352941393852234 0.658823549747467
0.3497537076473236 0.696826159954071 0.009881422854959965 0.09803921729326248 0.10196078568696976 0.0784313753247261
0.32413792610168457 0.5897678732872009 0.991304337978363 0.3333333432674408 0.3176470696926117 0.30588236451148987
0.35123151540756226 0.6770882606506348 0.2296442687511444 0.125490203499794 0.125490203499794 0.11764705926179886
0.3532019555568695 0.5722406506538391 0.14782609045505524 0.11372549086809158 0.11372549086809158 0.11372549086809158
0.4243842363357544 0.638244092464447 0.17588932812213898 0.03529411926865578 0.03529411926865578 0.03529411926865578
0.2886699438095093 0.632085919380188 0.007509881630539894 0.6392157077789307 0.6274510025978088 0.5607843399047852
0.45812806487083435 0.6748776435852051 0.30000001192092896 0.5176470875740051 0.5333333611488342 0.545098066329956
0.3928571343421936 0.6150323748588562 0.2960474193096161 0.6196078658103943 0.6352941393852234 0.6823529601097107
0.2733990252017975 0.6410863995552063 0.007509881630539894 0.529411792755127 0.5254902243614197 0.4431372582912445
0.34014779329299927 0.7051950097084045 0.009881422854959965 0.11372549086809158 0.125490203499794 0.09803921729326248
0.2697044312953949 0.6624032855033875 0.9968379735946655 0.9882352948188782 0.9882352948188782 0.9960784316062927
0.3448275923728943 0.6054002642631531 0.007905138656497002 0.6196078658103943 0.5960784554481506 0.5490196347236633
0.4721674919128418 0.6721932888031006 0.003952569328248501 0.3176470696926117 0.32156863808631897 0.2666666805744171
0.2901477813720703 0.6224538087844849 0.9928853511810303 0.4000000059604645 0.4000000059604645 0.4000000059604645
0.39950740337371826 0.654666006565094 0.007509881630539894 0.1725490242242813 0.1568627506494522 0.14509804546833038
0.3802955746650696 0.6892467737197876 0.9909090995788574 0.3019607961177826 0.3019607961177826 0.26274511218070984
0.4125615656375885 0.6077688336372375 0.2964426875114441 0.5960784554481506 0.6117647290229797 0.6470588445663452
0.408620685338974 0.6930364966392517 0.006719367578625679 0.16078431904315948 0.16078431904315948 0.11372549086809158
0.35172414779663086 0.6747197508811951 0.21027667820453644 0.3176470696926117 0.33725491166114807 0.32156863808631897
0.39950740337371826 0.5940312743186951 0.17351779341697693 0.03529411926865578 0.03529411926865578 0.03529411926865578
0.3603448271751404 0.6612979769706726 0.2956521809101105 0.4627451002597809 0.4941176474094391 0.501960813999176
0.40689656138420105 0.5556608438491821 0.006719367578625679 0.21176470816135406 0.20000000298023224 0.1411764770746231
0.27610838413238525 0.6996684074401855 0.007905138656497002 0.6392157077789307 0.6509804129600525 0.545098066329956
0.3815270960330963 0.6792989373207092 0.17470355331897736 0.07058823853731155 0.07058823853731155 0.07058823853731155
0.45344826579093933 0.562450647354126 0.005138339940458536 0.545098066329956 0.5490196347236633 0.47843137383461
0.4719211757183075 0.6061897873878479 0.00830039568245411 0.3686274588108063 0.3764705955982208 0.3333333432674408
0.42980295419692993 0.5924522280693054 0.2964426875114441 0.6039215922355652 0.6196078658103943 0.6627451181411743
0.31896552443504333 0.6578240990638733 0.991304337978363 0.3764705955982208 0.3764705955982208 0.3764705955982208
0.34408867359161377 0.6813516616821289 0.2857707440853119 0.0784313753247261 0.0784313753247261 0.07058823853731155
0.35812807083129883 0.5657666325569153 0.991304337978363 0.2823529541492462 0.2666666805744171 0.2549019753932953
0.274137943983078 0.6762987375259399 0.9960474371910095 0.9725490212440491 0.9882352948188782 1.0
0.3485221564769745 0.6474024653434753 0.2715415060520172 0.10588235408067703 0.10588235408067703 0.09803921729326248
0.27142858505249023 0.5883467793464661 0.0071146246045827866 0.5882353186607361 0.5686274766921997 0.4941176474094391
0.254679799079895 0.6693510413169861 0.9964426755905151 0.9921568632125854 0.9960784316062927 1.0
0.4330049157142639 0.6851413249969482 0.18142291903495789 0.0784313753247261 0.0784313753247261 0.0784313753247261
0.4078817665576935 0.5968735218048096 0.991304337978363 0.33725491166114807 0.3333333432674408 0.3176470696926117
0.4450739026069641 0.5984525680541992 0.2972331941127777 0.6078431606292725 0.6078431606292725 0.6470588445663452
0.346059113740921 0.6459813714027405 0.18023715913295746 0.20392157137393951 0.21176470816135406 0.2078431397676468
0.4876847267150879 0.6115584969520569 0.29920947551727295 0.5843137502670288 0.6000000238418579 0.6352941393852234
0.3371921181678772 0.6624032855033875 0.29920947551727295 0.12156862765550613 0.11764705926179886 0.10196078568696976
0.36206895112991333 0.6649297475814819 0.2960474193096161 0.4431372582912445 0.48235294222831726 0.48627451062202454
0.3847290575504303 0.6685615181922913 0.17312252521514893 0.08627451211214066 0.08627451211214066 0.08627451211214066
0.4137931168079376 0.6076109409332275 0.2964426875114441 0.6000000238418579 0.6117647290229797 0.6470588445663452
0.43891626596450806 0.6991946697235107 0.2960474193096161 0.5921568870544434 0.6313725709915161 0.6784313917160034
0.3729064166545868 0.7069319486618042 0.00909090880304575 0.2980392277240753 0.29019609093666077 0.23137255012989044
0.43793103098869324 0.5867677330970764 0.18063241243362427 0.4156862795352936 0.45098039507865906 0.4470588266849518
0.35147783160209656 0.6519817113876343 0.3007905185222626 0.24705882370471954 0.2666666805744171 0.27843138575553894
0.3775862157344818 0.6393494606018066 0.2960474193096161 0.545098066329956 0.5686274766921997 0.615686297416687
0.4445812702178955 0.5812411308288574 0.18379446864128113 0.054901961237192154 0.054901961237192154 0.054901961237192154
0.4886699616909027 0.6740881204605103 0.0031620552763342857 0.3607843220233917 0.3529411852359772 0.29411765933036804
0.440640389919281 0.556450366973877 0.005533596966415644 0.30980393290519714 0.32156863808631897 0.2862745225429535
0.2743842303752899 0.6175588369369507 0.007509881630539894 0.5843137502670288 0.5803921818733215 0.5098039507865906
0.4908866882324219 0.6829307079315186 0.9909090995788574 0.3176470696926117 0.3137255012989044 0.29411765933036804
0.3573891520500183 0.5785567760467529 0.991304337978363 0.30980393290519714 0.2980392277240753 0.27843138575553894
0.39408865571022034 0.6901942491531372 0.007905138656497002 0.23529411852359772 0.239215686917305 0.18431372940540314
0.2891625761985779 0.6690351963043213 0.9964426755905151 0.9607843160629272 0.9647058844566345 0.9725490212440491
0.4807881712913513 0.5613453388214111 0.9909090995788574 0.3607843220233917 0.3607843220233917 0.32156863808631897
0.28719210624694824 0.6960366368293762 0.9948616623878479 0.9960784316062927 0.9960784316062927 0.9960784316062927
0.34679803252220154 0.648665726184845 0.249802365899086 0.11764705926179886 0.11764705926179886 0.10980392247438431
0.3371921181678772 0.6594031453132629 0.29920947551727295 0.10196078568696976 0.09803921729326248 0.09019608050584793
0.378078818321228 0.70235276222229 0.9909090995788574 0.33725491166114807 0.33725491166114807 0.2980392277240753
0.3463054299354553 0.6811937689781189 0.008695651777088642 0.5372549295425415 0.545098066329956 0.45098039507865906
0.38275861740112305 0.6781935691833496 0.17391304671764374 0.07058823853731155 0.07058823853731155 0.07058823853731155
0.3014778196811676 0.5780830383300781 0.0071146246045827866 0.529411792755127 0.5215686559677124 0.4313725531101227
0.379802942276001 0.6982472538948059 0.2972331941127777 0.4901960790157318 0.529411792755127 0.5254902243614197
0.3325123190879822 0.6447181701660156 0.991304337978363 0.3490196168422699 0.3490196168422699 0.3176470696926117
0.4645320177078247 0.6821411848068237 0.9909090995788574 0.3137255012989044 0.3137255012989044 0.27450981736183167
0.2743842303752899 0.6372966766357422 0.007509881630539894 0.4588235318660736 0.4470588266849518 0.3803921639919281
0.43374383449554443 0.5558187365531921 0.17391304671764374 0.20392157137393951 0.21960784494876862 0.2235294133424759
0.4571428596973419 0.6827727556228638 0.30000001192092896 0.47843137383461 0.4941176474094391 0.5058823823928833
0.3576354682445526 0.632401704788208 0.25731223821640015 0.10980392247438431 0.10980392247438431 0.10196078568696976
0.4174876809120178 0.5649771094322205 0.29525691270828247 0.5921568870544434 0.6078431606292725 0.6431372761726379
0.4004926085472107 0.5573977828025818 0.29486167430877686 0.5607843399047852 0.5960784554481506 0.615686297416687
0.3179802894592285 0.578872561454773 0.0071146246045827866 0.4941176474094391 0.47843137383461 0.4431372582912445
0.31527093052864075 0.6984052062034607 0.009486165829002857 0.572549045085907 0.5686274766921997 0.48627451062202454
0.43916255235671997 0.659561038017273 0.18142291903495789 0.0470588244497776 0.0470588244497776 0.0470588244497776
0.38325121998786926 0.6834043860435486 0.9909090995788574 0.32156863808631897 0.32549020648002625 0.29411765933036804
0.35147783160209656 0.5543975830078125 0.2292490154504776 0.125490203499794 0.125490203499794 0.11764705926179886
0.40344828367233276 0.6985630989074707 0.9909090995788574 0.3137255012989044 0.3137255012989044 0.2666666805744171
0.27118226885795593 0.5556608438491821 0.0071146246045827866 0.572549045085907 0.5607843399047852 0.4941176474094391
0.37093594670295715 0.6311385035514832 0.991304337978363 0.3137255012989044 0.30980393290519714 0.29411765933036804
0.4805418848991394 0.6335070133209229 0.9916995763778687 0.3490196168422699 0.3490196168422699 0.30980393290519714
0.25615763664245605 0.6109268665313721 0.007509881630539894 0.5921568870544434 0.5882353186607361 0.5098039507865906
0.4871921241283417 0.6022422313690186 0.29881423711776733 0.6078431606292725 0.6196078658103943 0.6470588445663452
0.4869458079338074 0.573503851890564 0.29802370071411133 0.6196078658103943 0.6392157077789307 0.6627451181411743
0.4009852111339569 0.5641875863075256 0.0063241105526685715 0.21176470816135406 0.20392157137393951 0.1568627506494522
0.3886699378490448 0.5932417511940002 0.16442687809467316 0.03921568766236305 0.03921568766236305 0.03921568766236305
0.2581280767917633 0.6470866799354553 0.9976284503936768 0.9960784316062927 0.9960784316062927 0.9960784316062927
0.3977832496166229 0.7086688876152039 0.2960474193096161 0.529411792755127 0.5529412031173706 0.545098066329956
0.4807881712913513 0.5806095004081726 0.29802370071411133 0.6196078658103943 0.6313725709915161 0.658823549747467
0.3418719172477722 0.6410863995552063 0.16482213139533997 0.13333334028720856 0.13333334028720856 0.125490203499794
0.4655172526836395 0.6976156830787659 0.2976284623146057 0.501960813999176 0.501960813999176 0.4941176474094391
0.4201970398426056 0.6751934289932251 0.29841896891593933 0.501960813999176 0.5058823823928833 0.5254902243614197
0.42980295419692993 0.6685615181922913 0.29881423711776733 0.4941176474094391 0.5098039507865906 0.5137255191802979
0.45788177847862244 0.6826148629188538 0.0035573123022913933 0.25882354378700256 0.25882354378700256 0.21960784494876862
0.3534482717514038 0.5873993635177612 0.27312251925468445 0.10980392247438431 0.10588235408067703 0.09803921729326248
0.25566503405570984 0.6922469735145569 0.007905138656497002 0.5607843399047852 0.572549045085907 0.49803921580314636
0.38620689511299133 0.562292754650116 0.006719367578625679 0.3450980484485626 0.33725491166114807 0.27843138575553894
0.3522167503833771 0.6914574503898621 0.22727273404598236 0.0784313753247261 0.062745101749897 0.06666667014360428
0.32783252000808716 0.665561318397522 0.991304337978363 0.3529411852359772 0.3529411852359772 0.3450980484485626
0.4172413647174835 0.7025106549263 0.9909090995788574 0.3176470696926117 0.3176470696926117 0.2705882489681244
0.34359607100486755 0.6511921882629395 0.17391304671764374 0.14509804546833038 0.15294118225574493 0.14901961386203766
0.3997536897659302 0.6369808912277222 0.17391304671764374 0.03921568766236305 0.03921568766236305 0.03921568766236305
0.47807881236076355 0.6137691736221313 0.006719367578625679 0.40784314274787903 0.40784314274787903 0.3686274588108063
0.31108373403549194 0.616137683391571 0.007509881630539894 0.5490196347236633 0.5411764979362488 0.4588235318660736
0.3967980444431305 0.6924048662185669 0.007905138656497002 0.20392157137393951 0.1921568661928177 0.1568627506494522
0.44236454367637634 0.6821411848068237 0.1826086938381195 0.04313725605607033 0.04313725605607033 0.04313725605607033
0.381280779838562 0.6262434720993042 0.16363635659217834 0.054901961237192154 0.062745101749897 0.05882352963089943
0.3738916218280792 0.6415600776672363 0.1826086938381195 0.07450980693101883 0.08235294371843338 0.0784313753247261
0.3177340030670166 0.6721932888031006 0.007509881630539894 0.5215686559677124 0.5215686559677124 0.4274509847164154
0.3965517282485962 0.6919311285018921 0.1770751029253006 0.10196078568696976 0.10588235408067703 0.11372549086809158
0.43842363357543945 0.6949313282966614 0.0035573123022913933 0.1725490242242813 0.18039216101169586 0.16078431904315948
0.29507389664649963 0.5880309343338013 0.991304337978363 0.38823530077934265 0.3843137323856354 0.364705890417099
0.4433497488498688 0.5712932348251343 0.2964426875114441 0.5960784554481506 0.615686297416687 0.6392157077789307
0.45123153924942017 0.6720353960990906 0.29960474371910095 0.5215686559677124 0.5254902243614197 0.5333333611488342
0.39113301038742065 0.6851413249969482 0.17549407482147217 0.0784313753247261 0.0784313753247261 0.0784313753247261
0.35098522901535034 0.6791409850120544 0.19683794677257538 0.10980392247438431 0.11764705926179886 0.11372549086809158
0.4078817665576935 0.5618190169334412 0.17549407482147217 0.062745101749897 0.062745101749897 0.062745101749897
0.39137929677963257 0.6644560098648071 0.007905138656497002 0.1882352977991104 0.18039216101169586 0.13333334028720856
0.2576354742050171 0.5828201770782471 0.991304337978363 0.4000000059604645 0.38823530077934265 0.3529411852359772
0.3972906470298767 0.6496131420135498 0.17391304671764374 0.062745101749897 0.062745101749897 0.062745101749897
0.41502463817596436 0.6290857195854187 0.005928853526711464 0.2862745225429535 0.27843138575553894 0.23137255012989044
0.4810344874858856 0.5828201770782471 0.006719367578625679 0.47058823704719543 0.4941176474094391 0.47843137383461
0.3852216601371765 0.5703458189964294 0.15968379378318787 0.04313725605607033 0.04313725605607033 0.04313725605607033
0.37512314319610596 0.6991946697235107 0.2960474193096161 0.4470588266849518 0.4901960790157318 0.5058823823928833
0.4692118167877197 0.5780830383300781 0.9909090995788574 0.37254902720451355 0.364705890417099 0.3176470696926117
0.45517241954803467 0.5885046720504761 0.9909090995788574 0.34117648005485535 0.3294117748737335 0.3019607961177826
0.28004926443099976 0.6060318946838379 0.991304337978363 0.3803921639919281 0.3764705955982208 0.3607843220233917
0.3721674978733063 0.6440865397453308 0.2960474193096161 0.5372549295425415 0.5607843399047852 0.6078431606292725
0.31206896901130676 0.6042949557304382 0.9916995763778687 0.27843138575553894 0.26274511218070984 0.250980406999588
0.36280786991119385 0.6346123218536377 0.20197628438472748 0.0470588244497776 0.05098039284348488 0.07058823853731155
0.3096058964729309 0.616137683391571 0.007509881630539894 0.5607843399047852 0.5529412031173706 0.47058823704719543
0.3519704341888428 0.567661464214325 0.21106719970703125 0.5176470875740051 0.5529412031173706 0.5490196347236633
0.3773398995399475 0.6426653861999512 0.17905138432979584 0.0941176488995552 0.10196078568696976 0.09019608050584793
0.2573891580104828 0.62134850025177 0.9924901127815247 0.3764705955982208 0.3764705955982208 0.3686274588108063
0.3849753737449646 0.6284541487693787 0.991304337978363 0.30588236451148987 0.3019607961177826 0.2862745225429535
0.3487684726715088 0.5542396903038025 0.24861660599708557 0.11372549086809158 0.11372549086809158 0.10588235408067703
0.35837438702583313 0.5911890268325806 0.0071146246045827866 0.5529412031173706 0.5490196347236633 0.47058823704719543
0.4721674919128418 0.5791884064674377 0.2976284623146057 0.6117647290229797 0.6313725709915161 0.6549019813537598
0.4923645257949829 0.6415600776672363 0.006719367578625679 0.11372549086809158 0.09803921729326248 0.08627451211214066
0.32290640473365784 0.5705037117004395 0.991304337978363 0.3607843220233917 0.3450980484485626 0.3333333432674408
0.33940887451171875 0.6292436718940735 0.991304337978363 0.32156863808631897 0.3176470696926117 0.3019607961177826
0.43793103098869324 0.6251381635665894 0.00830039568245411 0.16862745583057404 0.1725490242242813 0.15294118225574493
0.4844827651977539 0.696826159954071 0.0003952569095417857 0.4313725531101227 0.43921568989753723 0.35686275362968445
0.25541871786117554 0.5970314145088196 0.991304337978363 0.3803921639919281 0.3803921639919281 0.3490196168422699
0.2903940975666046 0.5866098403930664 0.991304337978363 0.3843137323856354 0.37254902720451355 0.3450980484485626
0.38201969861984253 0.6696668267250061 0.00830039568245411 0.2549019753932953 0.24705882370471954 0.1882352977991104
0.34384235739707947 0.6672982573509216 0.1620553433895111 0.11372549086809158 0.12156862765550613 0.10980392247438431
0.35147783160209656 0.7004579305648804 0.009881422854959965 0.3803921639919281 0.3529411852359772 0.2823529541492462
0.4233990013599396 0.573503851890564 0.005928853526711464 0.20000000298023224 0.21960784494876862 0.20392157137393951
0.3485221564769745 0.6448760628700256 0.2335968315601349 0.125490203499794 0.125490203499794 0.11764705926179886
0.336699515581131 0.6641402244567871 0.007509881630539894 0.6745098233222961 0.6823529601097107 0.5882353186607361
0.35098522901535034 0.6125059127807617 0.00830039568245411 0.5372549295425415 0.5254902243614197 0.4588235318660736
0.3894088566303253 0.6117163896560669 0.991304337978363 0.3294117748737335 0.3137255012989044 0.3019607961177826
0.27118226885795593 0.6562450528144836 0.007905138656497002 0.5137255191802979 0.5176470875740051 0.45490196347236633
0.4334975481033325 0.6455076336860657 0.0071146246045827866 0.32549020648002625 0.3176470696926117 0.2705882489681244
0.40270936489105225 0.6565608978271484 0.17549407482147217 0.062745101749897 0.062745101749897 0.062745101749897
0.34310343861579895 0.6516658663749695 0.30553358793258667 0.8117647171020508 0.8470588326454163 0.8666666746139526
0.29556649923324585 0.5798199772834778 0.991304337978363 0.3960784375667572 0.3843137323856354 0.35686275362968445
0.41108375787734985 0.5926101207733154 0.1723320186138153 0.0470588244497776 0.0470588244497776 0.0470588244497776
0.467980295419693 0.6961945295333862 0.29920947551727295 0.501960813999176 0.5058823823928833 0.48627451062202454
