0.6226601004600525 0.8430444002151489 0.991304337978363 0.34117648005485535 0.3450980484485626 0.32549020648002625
0.6517241597175598 0.8308858275413513 0.007905138656497002 0.29019609093666077 0.2980392277240753 0.24705882370471954
0.6876847147941589 0.8305700421333313 0.991304337978363 0.35686275362968445 0.33725491166114807 0.32549020648002625
0.7266010046005249 0.7513027191162109 0.29446640610694885 0.529411792755127 0.5568627715110779 0.5803921818733215
0.7918719053268433 0.843675971031189 0.9893280863761902 0.24313725531101227 0.23137255012989044 0.20392157137393951
0.695320188999176 0.7558819055557251 0.0063241105526685715 0.2823529541492462 0.2705882489681244 0.21176470816135406
0.7635468244552612 0.8403600454330444 0.006719367578625679 0.3686274588108063 0.37254902720451355 0.3019607961177826
0.8275862336158752 0.8616769313812256 0.9881423115730286 0.24705882370471954 0.23137255012989044 0.19607843458652496
0.81083744764328 0.860255777835846 0.006719367578625679 0.3843137323856354 0.37254902720451355 0.3137255012989044
0.6945812702178955 0.8679930567741394 0.2873517870903015 0.3019607961177826 0.3333333432674408 0.3450980484485626
0.6743842363357544 0.8604137301445007 0.007509881630539894 0.21960784494876862 0.23529411852359772 0.239215686917305
0.6894088387489319 0.7879362106323242 0.992094874382019 0.9647058844566345 0.9803921580314636 0.9843137264251709
0.7608374357223511 0.8199905157089233 0.006719367578625679 0.34117648005485535 0.3490196168422699 0.2980392277240753
0.8532019853591919 0.7880941033363342 0.0063241105526685715 0.35686275362968445 0.3490196168422699 0.3019607961177826
0.6778324842453003 0.816516637802124 0.9916995763778687 0.45098039507865906 0.45098039507865906 0.4431372582912445
0.6761083602905273 0.8203063607215881 0.18458497524261475 0.5843137502670288 0.5686274766921997 0.45490196347236633
0.8438423871994019 0.7419863939285278 0.005928853526711464 0.40392157435417175 0.43529412150382996 0.3450980484485626
0.7970443367958069 0.8398863077163696 0.006719367578625679 0.3960784375667572 0.38823530077934265 0.34117648005485535
0.6682265996932983 0.8256750106811523 0.9916995763778687 0.3843137323856354 0.3843137323856354 0.3764705955982208
0.7815271019935608 0.7928311824798584 0.006719367578625679 0.41960784792900085 0.4313725531101227 0.38823530077934265
0.7002463340759277 0.8577293753623962 0.25335967540740967 0.21176470816135406 0.23137255012989044 0.24313725531101227
0.8605911135673523 0.7710405588150024 0.0063241105526685715 0.43921568989753723 0.4431372582912445 0.37254902720451355
0.6554186940193176 0.7825675010681152 0.008695651777088642 0.2823529541492462 0.27450981736183167 0.21568627655506134
0.7544335126876831 0.8678351640701294 0.9893280863761902 0.4274509847164154 0.4156862795352936 0.3960784375667572
0.8258620500564575 0.8002526164054871 0.9893280863761902 0.4627451002597809 0.45098039507865906 0.4313725531101227
0.6815270781517029 0.8668877482414246 0.9901185631752014 0.40392157435417175 0.4000000059604645 0.3843137323856354
0.6807881593704224 0.832622766494751 0.18418972194194794 0.25882354378700256 0.2980392277240753 0.29411765933036804
0.75 0.7933049201965332 0.9916995763778687 0.8666666746139526 0.8705882430076599 0.8392156958580017
0.7243842482566833 0.7704089879989624 0.992094874382019 0.95686274766922 0.9686274528503418 0.9960784316062927
0.6226601004600525 0.7138797044754028 0.2956521809101105 0.6000000238418579 0.6235294342041016 0.6078431606292725
0.8554187417030334 0.804989755153656 0.0063241105526685715 0.2862745225429535 0.2862745225429535 0.239215686917305
0.7263546586036682 0.718932569026947 0.29525691270828247 0.572549045085907 0.6000000238418579 0.6392157077789307
0.6334975361824036 0.8422548770904541 0.007509881630539894 0.45098039507865906 0.4470588266849518 0.4274509847164154
0.7029556632041931 0.7340912818908691 0.9924901127815247 0.9764705896377563 0.9803921580314636 0.9960784316062927
0.7147783041000366 0.8662561178207397 0.22569170594215393 0.14509804546833038 0.14509804546833038 0.14509804546833038
0.7068965435028076 0.8632559776306152 0.198023721575737 0.239215686917305 0.2862745225429535 0.2862745225429535
0.8598521947860718 0.843833863735199 0.006719367578625679 0.3294117748737335 0.3294117748737335 0.29019609093666077
0.8096058964729309 0.8616769313812256 0.9885375499725342 0.23529411852359772 0.21960784494876862 0.18431372940540314
0.6236453056335449 0.7388283610343933 0.007509881630539894 0.2862745225429535 0.26274511218070984 0.2078431397676468
0.6177340149879456 0.7658298015594482 0.29446640610694885 0.4901960790157318 0.5137255191802979 0.5137255191802979
0.7096059322357178 0.7336175441741943 0.0063241105526685715 0.26274511218070984 0.26274511218070984 0.2235294133424759
0.7236453294754028 0.7762513756752014 0.006719367578625679 0.20000000298023224 0.20000000298023224 0.15294118225574493
0.8512315154075623 0.7304595112800598 0.9893280863761902 0.4313725531101227 0.42352941632270813 0.3764705955982208
0.7497537136077881 0.8468340635299683 0.0071146246045827866 0.4588235318660736 0.47058823704719543 0.40392157435417175
0.7229064106941223 0.735512375831604 0.9928853511810303 0.9450980424880981 0.9647058844566345 0.9803921580314636
0.6706896424293518 0.8150955438613892 0.16442687809467316 0.18431372940540314 0.1882352977991104 0.16470588743686676
0.7854679822921753 0.7456181645393372 0.0063241105526685715 0.5254902243614197 0.5333333611488342 0.48235294222831726
0.7194581031799316 0.8015158772468567 0.2920948565006256 0.4745098054409027 0.5058823823928833 0.5137255191802979
0.7039408683776855 0.8529922366142273 0.24624505639076233 0.20392157137393951 0.2078431397676468 0.21568627655506134
0.6849753856658936 0.7306174039840698 0.29525691270828247 0.6235294342041016 0.6431372761726379 0.6549019813537598
0.7665024399757385 0.724301278591156 0.0063241105526685715 0.4470588266849518 0.43921568989753723 0.35686275362968445
0.8591132760047913 0.815885066986084 0.9885375499725342 0.4313725531101227 0.40392157435417175 0.37254902720451355
0.8517241477966309 0.843833863735199 0.9881423115730286 0.27843138575553894 0.250980406999588 0.22745098173618317
0.6509852409362793 0.8468340635299683 0.007509881630539894 0.4313725531101227 0.45490196347236633 0.4470588266849518
0.6768472790718079 0.7904626727104187 0.00830039568245411 0.125490203499794 0.13725490868091583 0.10980392247438431
0.7229064106941223 0.735512375831604 0.9928853511810303 0.9450980424880981 0.9647058844566345 0.9803921580314636
0.6428571343421936 0.7718300819396973 0.29407113790512085 0.48235294222831726 0.5176470875740051 0.5058823823928833
0.8273398876190186 0.7116690278053284 0.005928853526711464 0.5647059082984924 0.5647059082984924 0.47058823704719543
0.6564039587974548 0.8359387516975403 0.1770751029253006 0.2980392277240753 0.3333333432674408 0.3294117748737335
0.7731527090072632 0.7524080276489258 0.9909090995788574 0.4588235318660736 0.45490196347236633 0.4470588266849518
0.7876847386360168 0.7288804650306702 0.0063241105526685715 0.48627451062202454 0.4901960790157318 0.3686274588108063
0.665517270565033 0.827569842338562 0.17905138432979584 0.26274511218070984 0.3019607961177826 0.30588236451148987
0.7332512140274048 0.7432496547698975 0.0063241105526685715 0.16862745583057404 0.16470588743686676 0.14509804546833038
0.765763521194458 0.7801989316940308 0.991304337978363 0.4588235318660736 0.4627451002597809 0.47843137383461
0.7413793206214905 0.7633033394813538 0.9924901127815247 0.9803921580314636 0.9803921580314636 1.0
0.7376847267150879 0.7857255935668945 0.006719367578625679 0.22745098173618317 0.22745098173618317 0.18039216101169586
0.8206896781921387 0.7934628129005432 0.9897233247756958 0.46666666865348816 0.43529412150382996 0.4274509847164154
0.6714285612106323 0.7820938229560852 0.992094874382019 0.9647058844566345 0.9803921580314636 0.9921568632125854
0.6901477575302124 0.8376756906509399 0.9909090995788574 0.4313725531101227 0.4156862795352936 0.40392157435417175
0.7615763545036316 0.799778938293457 0.006719367578625679 0.32156863808631897 0.3333333432674408 0.2980392277240753
0.699999988079071 0.7847781181335449 0.29328063130378723 0.5098039507865906 0.5333333611488342 0.5254902243614197
0.8502463102340698 0.7483025193214417 0.9893280863761902 0.364705890417099 0.35686275362968445 0.30980393290519714
0.8448275923728943 0.8495184183120728 0.9881423115730286 0.22745098173618317 0.21176470816135406 0.1764705926179886
0.6669950485229492 0.8032528162002563 0.2924901247024536 0.07450980693101883 0.09803921729326248 0.09019608050584793
0.8568965792655945 0.7653560638427734 0.0063241105526685715 0.4470588266849518 0.45490196347236633 0.37254902720451355
0.6544334888458252 0.7201957702636719 0.007509881630539894 0.32549020648002625 0.3137255012989044 0.239215686917305
0.7172414064407349 0.805305540561676 0.006719367578625679 0.21960784494876862 0.23529411852359772 0.1764705926179886
0.8522167205810547 0.800094723701477 0.0063241105526685715 0.4588235318660736 0.45098039507865906 0.4000000059604645
0.7224137783050537 0.8591504693031311 0.2134387344121933 0.2549019753932953 0.30980393290519714 0.32156863808631897
0.826600968837738 0.8065687417984009 0.9893280863761902 0.40784314274787903 0.40392157435417175 0.3843137323856354
0.8120689392089844 0.7833570241928101 0.0063241105526685715 0.5529412031173706 0.5647059082984924 0.5215686559677124
0.7128078937530518 0.8585188984870911 0.19367589056491852 0.24705882370471954 0.29019609093666077 0.2980392277240753
0.6431034207344055 0.7729353904724121 0.992094874382019 0.929411768913269 0.9450980424880981 0.95686274766922
0.7108374238014221 0.8583609461784363 0.21185770630836487 0.10980392247438431 0.10980392247438431 0.10196078568696976
0.7224137783050537 0.7367756366729736 0.0063241105526685715 0.239215686917305 0.239215686917305 0.20000000298023224
0.6288177371025085 0.7590399384498596 0.29446640610694885 0.5058823823928833 0.5411764979362488 0.529411792755127
0.7857142686843872 0.751934289932251 0.0063241105526685715 0.46666666865348816 0.4627451002597809 0.3843137323856354
0.6285714507102966 0.718458890914917 0.2956521809101105 0.6039215922355652 0.6274510025978088 0.6196078658103943
0.6541872024536133 0.810358464717865 0.1608695685863495 0.24705882370471954 0.2823529541492462 0.2705882489681244
0.7268472909927368 0.7822517156600952 0.9916995763778687 0.9490196108818054 0.9686274528503418 0.9921568632125854
0.7261083722114563 0.8526764512062073 0.1557312309741974 0.0941176488995552 0.08627451211214066 0.09019608050584793
0.6911330223083496 0.8081477880477905 0.9916995763778687 0.9960784316062927 1.0 1.0
0.6352216601371765 0.8588346838951111 0.007509881630539894 0.21176470816135406 0.22745098173618317 0.1725490242242813
0.634482741355896 0.7220906615257263 0.007509881630539894 0.3176470696926117 0.32156863808631897 0.250980406999588
0.807635486125946 0.7689878344535828 0.9901185631752014 0.4470588266849518 0.4431372582912445 0.43529412150382996
0.7591133117675781 0.8286752104759216 0.006719367578625679 0.3843137323856354 0.37254902720451355 0.3137255012989044
0.8534482717514038 0.8613611459732056 0.9881423115730286 0.2235294133424759 0.2078431397676468 0.1725490242242813
0.8536945581436157 0.7544607520103455 0.9889327883720398 0.45098039507865906 0.43529412150382996 0.4000000059604645
0.7857142686843872 0.7899889349937439 0.9905138611793518 0.4431372582912445 0.4313725531101227 0.4117647111415863
0.6561576128005981 0.8597820997238159 0.007509881630539894 0.529411792755127 0.529411792755127 0.5607843399047852
0.851477861404419 0.8359387516975403 0.006719367578625679 0.30588236451148987 0.30588236451148987 0.27450981736183167
0.6903941035270691 0.8296226263046265 0.991304337978363 0.4000000059604645 0.40392157435417175 0.3843137323856354
0.676600992679596 0.729669988155365 0.01067193690687418 0.07058823853731155 0.07450980693101883 0.04313725605607033
0.6342364549636841 0.7661455869674683 0.007905138656497002 0.3137255012989044 0.30588236451148987 0.24705882370471954
0.7231526970863342 0.821411669254303 0.006719367578625679 0.3764705955982208 0.38823530077934265 0.32156863808631897
0.7140393853187561 0.7457761168479919 0.29486167430877686 0.5882353186607361 0.6117647290229797 0.5960784554481506
0.6716748476028442 0.8010421395301819 0.00909090880304575 0.16862745583057404 0.1725490242242813 0.15294118225574493
0.8238916397094727 0.7955155372619629 0.0063241105526685715 0.5176470875740051 0.5176470875740051 0.47058823704719543
0.7751231789588928 0.826938271522522 0.006719367578625679 0.3450980484485626 0.3529411852359772 0.3019607961177826
0.7778325080871582 0.7843044400215149 0.0063241105526685715 0.40784314274787903 0.4156862795352936 0.3333333432674408
0.681034505367279 0.8665719032287598 0.18418972194194794 0.3333333432674408 0.364705890417099 0.37254902720451355
0.8536945581436157 0.7266698479652405 0.005928853526711464 0.4941176474094391 0.501960813999176 0.40784314274787903
0.740394115447998 0.8013579845428467 0.9916995763778687 0.8980392217636108 0.9137254953384399 0.9490196108818054
0.6480295658111572 0.7505131959915161 0.29486167430877686 0.5764706134796143 0.6000000238418579 0.5843137502670288
0.7258620858192444 0.7636191248893738 0.29446640610694885 0.49803921580314636 0.5254902243614197 0.5490196347236633
0.7189655303955078 0.8531501889228821 0.2189723253250122 0.11764705926179886 0.13333334028720856 0.14509804546833038
0.6793103218078613 0.7947260141372681 0.00830039568245411 0.05098039284348488 0.05098039284348488 0.05098039284348488
0.6706896424293518 0.7205116152763367 0.011462450958788395 0.1568627506494522 0.16078431904315948 0.1764705926179886
0.6950739026069641 0.8645191788673401 0.9901185631752014 0.4313725531101227 0.4156862795352936 0.4117647111415863
0.6421182155609131 0.8474656343460083 0.9909090995788574 0.34117648005485535 0.34117648005485535 0.3333333432674408
0.685960590839386 0.7710405588150024 0.9916995763778687 0.9843137264251709 0.9921568632125854 0.9882352948188782
0.8403940796852112 0.7756197452545166 0.9893280863761902 0.3490196168422699 0.3490196168422699 0.3176470696926117
0.807881772518158 0.7787778377532959 0.0063241105526685715 0.38823530077934265 0.4000000059604645 0.364705890417099
0.7022167444229126 0.7364597916603088 0.29486167430877686 0.615686297416687 0.6352941393852234 0.6470588445663452
0.7009851932525635 0.8040423393249512 0.0071146246045827866 0.24705882370471954 0.24705882370471954 0.20000000298023224
0.7665024399757385 0.8569398522377014 0.9893280863761902 0.3607843220233917 0.3490196168422699 0.3294117748737335
0.7019704580307007 0.816516637802124 0.0071146246045827866 0.43529412150382996 0.4470588266849518 0.364705890417099
0.7233990430831909 0.7798831462860107 0.9916995763778687 0.95686274766922 0.9686274528503418 0.9960784316062927
0.6943349838256836 0.8294647336006165 0.007509881630539894 0.42352941632270813 0.42352941632270813 0.3843137323856354
0.8613300323486328 0.7535133361816406 0.9889327883720398 0.40784314274787903 0.3921568691730499 0.35686275362968445
0.7027093768119812 0.8550450205802917 0.22252964973449707 0.125490203499794 0.12941177189350128 0.13725490868091583
0.701724112033844 0.7557240128517151 0.0063241105526685715 0.2862745225429535 0.27843138575553894 0.22745098173618317
0.7039408683776855 0.8618348240852356 0.28893280029296875 0.30588236451148987 0.33725491166114807 0.3490196168422699
0.6561576128005981 0.7228801250457764 0.29525691270828247 0.6274510025978088 0.6470588445663452 0.658823549747467
0.6997537016868591 0.7843044400215149 0.29328063130378723 0.4745098054409027 0.49803921580314636 0.4901960790157318
0.7603448033332825 0.8095689415931702 0.9909090995788574 0.45490196347236633 0.45490196347236633 0.4470588266849518
0.7128078937530518 0.8515711426734924 0.17826086282730103 0.27450981736183167 0.29411765933036804 0.30588236451148987
0.6362069249153137 0.8247275948524475 0.18458497524261475 0.29411765933036804 0.3333333432674408 0.33725491166114807
0.7120689749717712 0.83814936876297 0.0071146246045827866 0.20392157137393951 0.2235294133424759 0.20000000298023224
0.8546798229217529 0.8588346838951111 0.9881423115730286 0.2666666805744171 0.250980406999588 0.21568627655506134
0.7182266116142273 0.8542554974555969 0.26324111223220825 0.21960784494876862 0.24705882370471954 0.2705882489681244
0.6699507236480713 0.8174640536308289 0.18418972194194794 0.48627451062202454 0.4745098054409027 0.4000000059604645
0.7068965435028076 0.8094110488891602 0.006719367578625679 0.29019609093666077 0.3137255012989044 0.27450981736183167
0.8556650280952454 0.7794094681739807 0.9889327883720398 0.41960784792900085 0.40784314274787903 0.37254902720451355
0.7884236574172974 0.8023054003715515 0.006719367578625679 0.43921568989753723 0.4470588266849518 0.3921568691730499
0.7807881832122803 0.7893573641777039 0.9909090995788574 0.4745098054409027 0.4627451002597809 0.4431372582912445
0.746798038482666 0.7494078874588013 0.0063241105526685715 0.27450981736183167 0.2823529541492462 0.23137255012989044
0.6332512497901917 0.7369335293769836 0.29525691270828247 0.5843137502670288 0.6196078658103943 0.615686297416687
0.6866995096206665 0.7255644798278809 0.9924901127815247 0.9647058844566345 0.9803921580314636 0.9921568632125854
0.6613300442695618 0.8610453009605408 0.007509881630539894 0.40784314274787903 0.4117647111415863 0.3803921639919281
0.6551724076271057 0.827411949634552 0.007905138656497002 0.3176470696926117 0.33725491166114807 0.25882354378700256
0.743842363357544 0.75714510679245 0.0063241105526685715 0.2823529541492462 0.2823529541492462 0.23529411852359772
0.6815270781517029 0.8668877482414246 0.9901185631752014 0.40392157435417175 0.4000000059604645 0.3843137323856354
0.7317733764648438 0.8469919562339783 0.0071146246045827866 0.3764705955982208 0.4000000059604645 0.3529411852359772
0.818719208240509 0.7500394582748413 0.0063241105526685715 0.4627451002597809 0.4745098054409027 0.40784314274787903
0.7556650042533875 0.7711985111236572 0.991304337978363 0.6470588445663452 0.658823549747467 0.6941176652908325
0.6896551847457886 0.7898310422897339 0.29328063130378723 0.4431372582912445 0.46666666865348816 0.45098039507865906
0.7061576247215271 0.8578872680664062 0.0071146246045827866 0.2705882489681244 0.25882354378700256 0.23137255012989044
0.6509852409362793 0.8528343439102173 0.9909090995788574 0.3490196168422699 0.3490196168422699 0.34117648005485535
0.7275862097740173 0.8488867878913879 0.9905138611793518 0.43529412150382996 0.4117647111415863 0.4117647111415863
0.796798050403595 0.7623559236526489 0.9905138611793518 0.4941176474094391 0.4627451002597809 0.45098039507865906
0.6389162540435791 0.799463152885437 0.29288536310195923 0.4588235318660736 0.501960813999176 0.47843137383461
0.8522167205810547 0.799463152885437 0.0063241105526685715 0.45490196347236633 0.4588235318660736 0.40392157435417175
0.631280779838562 0.7317227125167847 0.007509881630539894 0.239215686917305 0.23137255012989044 0.1725490242242813
0.6458128094673157 0.8397284150123596 0.1770751029253006 0.2862745225429535 0.32549020648002625 0.32156863808631897
0.7152709364891052 0.7737249135971069 0.992094874382019 0.95686274766922 0.9764705896377563 0.9921568632125854
0.8391625881195068 0.7978841066360474 0.0063241105526685715 0.49803921580314636 0.48627451062202454 0.4274509847164154
0.7339901328086853 0.7138797044754028 0.0063241105526685715 0.29019609093666077 0.2823529541492462 0.23137255012989044
0.6726601123809814 0.8016737699508667 0.992094874382019 1.0 1.0 1.0
0.804679811000824 0.827254056930542 0.006719367578625679 0.32156863808631897 0.32549020648002625 0.3019607961177826
0.7714285850524902 0.8621506690979004 0.15889328718185425 0.16862745583057404 0.14901961386203766 0.125490203499794
0.6564039587974548 0.7116690278053284 0.007509881630539894 0.3490196168422699 0.32549020648002625 0.2705882489681244
0.706403911113739 0.7770408987998962 0.006719367578625679 0.1764705926179886 0.1764705926179886 0.13725490868091583
0.8147783279418945 0.7819358706474304 0.0063241105526685715 0.4431372582912445 0.45490196347236633 0.4117647111415863
0.6241379380226135 0.7827253937721252 0.00830039568245411 0.22745098173618317 0.22745098173618317 0.18039216101169586
0.6852216720581055 0.8226748704910278 0.14743083715438843 0.7882353067398071 0.7843137383460999 0.7019608020782471
0.7302955389022827 0.7748302817344666 0.29367589950561523 0.48627451062202454 0.5215686559677124 0.5411764979362488
0.7766009569168091 0.8441497087478638 0.0071146246045827866 0.40392157435417175 0.4156862795352936 0.34117648005485535
0.6837438344955444 0.8533080816268921 0.0071146246045827866 0.239215686917305 0.239215686917305 0.239215686917305
0.7187191843986511 0.7844623327255249 0.29328063130378723 0.4941176474094391 0.5215686559677124 0.5529412031173706
0.8598521947860718 0.805621325969696 0.0063241105526685715 0.250980406999588 0.24313725531101227 0.1921568661928177
0.6539409160614014 0.7448287010192871 0.29486167430877686 0.5882353186607361 0.6196078658103943 0.6274510025978088
0.8517241477966309 0.8496763110160828 0.006719367578625679 0.2980392277240753 0.2862745225429535 0.250980406999588
0.8049260973930359 0.7374072074890137 0.0063241105526685715 0.529411792755127 0.5490196347236633 0.4588235318660736
0.8022167682647705 0.7966208457946777 0.0063241105526685715 0.3686274588108063 0.3803921639919281 0.3450980484485626
0.6472906470298767 0.7615664005279541 0.29446640610694885 0.5254902243614197 0.5607843399047852 0.5490196347236633
0.6931034326553345 0.8259908556938171 0.16324110329151154 0.10588235408067703 0.10980392247438431 0.09019608050584793
0.7756157517433167 0.8296226263046265 0.006719367578625679 0.5764706134796143 0.572549045085907 0.4941176474094391
0.6177340149879456 0.7667772173881531 0.007905138656497002 0.33725491166114807 0.32156863808631897 0.27843138575553894
0.6613300442695618 0.7143533825874329 0.9924901127815247 0.9490196108818054 0.9607843160629272 0.9803921580314636
0.68916255235672 0.7475130558013916 0.992094874382019 0.9607843160629272 0.9960784316062927 0.9921568632125854
0.8270936012268066 0.800094723701477 0.9893280863761902 0.47058823704719543 0.4588235318660736 0.43921568989753723
0.6608374118804932 0.8116216659545898 0.15770751237869263 0.18039216101169586 0.1882352977991104 0.1764705926179886
0.8403940796852112 0.7756197452545166 0.9893280863761902 0.3490196168422699 0.3490196168422699 0.3176470696926117
0.8337438702583313 0.821727454662323 0.9889327883720398 0.32549020648002625 0.32156863808631897 0.3019607961177826
0.6293103694915771 0.8062529563903809 0.008695651777088642 0.23529411852359772 0.24313725531101227 0.1921568661928177
0.7716748714447021 0.826938271522522 0.9901185631752014 0.2980392277240753 0.29411765933036804 0.2862745225429535
0.6573891639709473 0.751460611820221 0.9916995763778687 0.9450980424880981 0.95686274766922 0.9843137264251709
0.7495073676109314 0.8507816195487976 0.0071146246045827866 0.45098039507865906 0.4745098054409027 0.41960784792900085
0.6847290396690369 0.7891994118690491 0.29328063130378723 0.4431372582912445 0.46666666865348816 0.45098039507865906
0.8152709603309631 0.7473551034927368 0.0063241105526685715 0.48235294222831726 0.4745098054409027 0.3843137323856354
0.6270936131477356 0.7393020391464233 0.9916995763778687 0.9058823585510254 0.929411768913269 0.9215686321258545
0.6997537016868591 0.8539396524429321 0.23043477535247803 0.13725490868091583 0.15294118225574493 0.1568627506494522
0.7891625761985779 0.8457286953926086 0.9893280863761902 0.3137255012989044 0.3019607961177826 0.27450981736183167
0.6948275566101074 0.7603031992912292 0.992094874382019 0.9647058844566345 0.9843137264251709 1.0
0.632758617401123 0.8297805190086365 0.007905138656497002 0.3764705955982208 0.3843137323856354 0.34117648005485535
0.670197069644928 0.8021475076675415 0.2924901247024536 0.4627451002597809 0.48627451062202454 0.47843137383461
0.6918719410896301 0.8255171179771423 0.15177865326404572 0.4627451002597809 0.47843137383461 0.4117647111415863
0.6302955746650696 0.7418285012245178 0.9916995763778687 0.9098039269447327 0.929411768913269 0.9411764740943909
0.7302955389022827 0.8062529563903809 0.9916995763778687 0.8823529481887817 0.9019607901573181 0.9254902005195618
0.679556667804718 0.8247275948524475 0.007905138656497002 0.43921568989753723 0.45098039507865906 0.3843137323856354
0.8342364430427551 0.762671709060669 0.0063241105526685715 0.49803921580314636 0.4941176474094391 0.42352941632270813
0.7756157517433167 0.7991473078727722 0.006719367578625679 0.32156863808631897 0.33725491166114807 0.2705882489681244
0.7359606027603149 0.8419390320777893 0.0071146246045827866 0.4627451002597809 0.4745098054409027 0.43921568989753723
0.7640393972396851 0.7339333891868591 0.9909090995788574 0.3843137323856354 0.4000000059604645 0.4117647111415863
0.63768470287323 0.7681983113288879 0.29446640610694885 0.4901960790157318 0.5254902243614197 0.5215686559677124
0.7955664992332458 0.8417811393737793 0.006719367578625679 0.38823530077934265 0.3803921639919281 0.3294117748737335
0.6802955865859985 0.8474656343460083 0.0071146246045827866 0.2823529541492462 0.29019609093666077 0.2862745225429535
0.6647783517837524 0.7681983113288879 0.9916995763778687 0.9647058844566345 0.9686274528503418 0.9882352948188782
0.8049260973930359 0.7914100885391235 0.9901185631752014 0.46666666865348816 0.45098039507865906 0.43921568989753723
0.7748768329620361 0.8649929165840149 0.1818181872367859 0.32549020648002625 0.3686274588108063 0.3529411852359772
0.629802942276001 0.7285646796226501 0.007509881630539894 0.3843137323856354 0.37254902720451355 0.30588236451148987
0.767241358757019 0.7374072074890137 0.9909090995788574 0.40784314274787903 0.4117647111415863 0.4274509847164154
0.6256157755851746 0.8245697021484375 0.00830039568245411 0.23137255012989044 0.23529411852359772 0.21568627655506134
0.8421182036399841 0.7741986513137817 0.0063241105526685715 0.45098039507865906 0.4470588266849518 0.3686274588108063
0.6847290396690369 0.8496763110160828 0.0071146246045827866 0.3333333432674408 0.33725491166114807 0.3176470696926117
0.6837438344955444 0.7847781181335449 0.29367589950561523 0.45490196347236633 0.4901960790157318 0.48627451062202454
0.7226601243019104 0.8087794184684753 0.9916995763778687 0.8745098114013672 0.8941176533699036 0.9098039269447327
0.7283251285552979 0.7582504153251648 0.0063241105526685715 0.18039216101169586 0.1764705926179886 0.1568627506494522
0.626600980758667 0.8294647336006165 0.00830039568245411 0.32156863808631897 0.32549020648002625 0.3019607961177826
0.6288177371025085 0.8465182185173035 0.007509881630539894 0.3137255012989044 0.3137255012989044 0.2666666805744171
0.8064039349555969 0.843360185623169 0.9889327883720398 0.2078431397676468 0.19607843458652496 0.16862745583057404
0.6157635450363159 0.8553608059883118 0.007509881630539894 0.3450980484485626 0.3450980484485626 0.3137255012989044
0.7263546586036682 0.8198326230049133 0.991304337978363 0.4627451002597809 0.4431372582912445 0.4274509847164154
0.7411330342292786 0.8209379315376282 0.006719367578625679 0.3019607961177826 0.32549020648002625 0.2705882489681244
0.7773398756980896 0.7393020391464233 0.9909090995788574 0.4000000059604645 0.3921568691730499 0.3960784375667572
0.7859606146812439 0.8007263541221619 0.9905138611793518 0.45490196347236633 0.4431372582912445 0.40784314274787903
0.8541871905326843 0.7490920424461365 0.9889327883720398 0.4627451002597809 0.45098039507865906 0.3921568691730499
0.7344827651977539 0.7988315224647522 0.9916995763778687 0.9098039269447327 0.929411768913269 0.9529411792755127
0.6943349838256836 0.8653087019920349 0.20948617160320282 0.07450980693101883 0.09019608050584793 0.0941176488995552
0.7150246500968933 0.7203537225723267 0.0063241105526685715 0.32549020648002625 0.32549020648002625 0.2862745225429535
0.8231527209281921 0.7345649600028992 0.005928853526711464 0.4627451002597809 0.4745098054409027 0.4000000059604645
0.7630541920661926 0.7937785983085632 0.991304337978363 0.4745098054409027 0.4901960790157318 0.48627451062202454
0.625123143196106 0.83814936876297 0.991304337978363 0.32549020648002625 0.3294117748737335 0.30980393290519714
0.7815271019935608 0.8018316626548767 0.006719367578625679 0.33725491166114807 0.3450980484485626 0.29019609093666077
0.756403923034668 0.8679930567741394 0.18339921534061432 0.24705882370471954 0.2823529541492462 0.2705882489681244
0.818719208240509 0.7928311824798584 0.0063241105526685715 0.4470588266849518 0.45098039507865906 0.38823530077934265
0.6480295658111572 0.7145112752914429 0.9924901127815247 0.9529411792755127 0.9647058844566345 0.9843137264251709
0.8214285969734192 0.7877783179283142 0.0063241105526685715 0.48235294222831726 0.48235294222831726 0.45098039507865906
0.6618226766586304 0.8517290353775024 0.17075099050998688 0.2980392277240753 0.3294117748737335 0.33725491166114807
0.8381773233413696 0.7509868741035461 0.9897233247756958 0.33725491166114807 0.32549020648002625 0.2980392277240753
0.757881760597229 0.8285173177719116 0.9905138611793518 0.4274509847164154 0.4156862795352936 0.38823530077934265
0.6990147829055786 0.7342491745948792 0.0063241105526685715 0.21568627655506134 0.21568627655506134 0.16862745583057404
0.7549260854721069 0.7868309020996094 0.006719367578625679 0.33725491166114807 0.33725491166114807 0.30588236451148987
0.6204433441162109 0.8261487483978271 0.18339921534061432 0.33725491166114807 0.3764705955982208 0.37254902720451355
0.6736453175544739 0.8558345437049866 0.007509881630539894 0.3490196168422699 0.3490196168422699 0.34117648005485535
0.6559113264083862 0.8468340635299683 0.9909090995788574 0.3490196168422699 0.3529411852359772 0.3294117748737335
0.8554187417030334 0.8460445404052734 0.006719367578625679 0.3137255012989044 0.3019607961177826 0.2823529541492462
0.6847290396690369 0.826780378818512 0.1822134405374527 0.5254902243614197 0.5098039507865906 0.4117647111415863
0.6958128213882446 0.8582030534744263 0.9905138611793518 0.40784314274787903 0.3960784375667572 0.3764705955982208
0.6529556512832642 0.7145112752914429 0.9924901127815247 0.95686274766922 0.9686274528503418 0.9882352948188782
0.7534482479095459 0.7116690278053284 0.005928853526711464 0.32156863808631897 0.30980393290519714 0.250980406999588
0.7470443248748779 0.7604610919952393 0.991304337978363 0.8901960849761963 0.9058823585510254 0.9019607901573181
0.8167487978935242 0.8087794184684753 0.9897233247756958 0.4588235318660736 0.4431372582912445 0.4313725531101227
0.6362069249153137 0.7790936231613159 0.00830039568245411 0.2862745225429535 0.27843138575553894 0.22745098173618317
0.6948275566101074 0.7986736297607422 0.0071146246045827866 0.21568627655506134 0.21960784494876862 0.16470588743686676
0.68916255235672 0.7741986513137817 0.0071146246045827866 0.21176470816135406 0.21176470816135406 0.16470588743686676
0.7024630308151245 0.8597820997238159 0.2142292559146881 0.10588235408067703 0.12156862765550613 0.11764705926179886
0.8423645496368408 0.7565134763717651 0.9893280863761902 0.4470588266849518 0.43529412150382996 0.4156862795352936
0.6273398995399475 0.7205116152763367 0.9916995763778687 0.9411764740943909 0.9607843160629272 0.9725490212440491
0.7583743929862976 0.8621506690979004 0.0071146246045827866 0.43921568989753723 0.43529412150382996 0.364705890417099
0.6487684845924377 0.8247275948524475 0.9916995763778687 0.3176470696926117 0.32549020648002625 0.3137255012989044
0.6773399114608765 0.8204642534255981 0.00830039568245411 0.3607843220233917 0.37254902720451355 0.30588236451148987
0.7160098552703857 0.8662561178207397 0.9901185631752014 0.41960784792900085 0.4156862795352936 0.3960784375667572
0.7216748595237732 0.7839886546134949 0.29328063130378723 0.47058823704719543 0.49803921580314636 0.529411792755127
0.6751231551170349 0.8351492285728455 0.18102766573429108 0.2705882489681244 0.30588236451148987 0.3019607961177826
0.6236453056335449 0.8266224265098572 0.9916995763778687 0.32549020648002625 0.30980393290519714 0.2980392277240753
0.6775861978530884 0.7926732897758484 0.992094874382019 0.929411768913269 0.9490196108818054 0.9607843160629272
0.6206896305084229 0.7336175441741943 0.29525691270828247 0.5764706134796143 0.5921568870544434 0.5882353186607361
0.7751231789588928 0.8600978851318359 0.1822134405374527 0.30588236451148987 0.3176470696926117 0.29019609093666077
0.7315270900726318 0.7738828063011169 0.992094874382019 0.95686274766922 0.9764705896377563 0.9921568632125854
0.6785714030265808 0.7680404186248779 0.007905138656497002 0.21176470816135406 0.22745098173618317 0.16078431904315948
0.7098522186279297 0.7457761168479919 0.0063241105526685715 0.21960784494876862 0.21960784494876862 0.18039216101169586
0.7539408802986145 0.8586767911911011 0.0071146246045827866 0.4470588266849518 0.45490196347236633 0.40392157435417175
0.7399014830589294 0.7127743363380432 0.9932806491851807 0.95686274766922 0.9686274528503418 0.9882352948188782
0.6982758641242981 0.7978841066360474 0.992094874382019 0.9333333373069763 0.9490196108818054 0.9529411792755127
0.6399014592170715 0.7220906615257263 0.992094874382019 0.9490196108818054 0.9686274528503418 0.9843137264251709
0.7928571701049805 0.723985493183136 0.005928853526711464 0.49803921580314636 0.5098039507865906 0.4274509847164154
0.633004903793335 0.7326701283454895 0.9916995763778687 0.9372549057006836 0.9529411792755127 0.9647058844566345
0.6800492405891418 0.8190430998802185 0.16916996240615845 0.12941177189350128 0.125490203499794 0.10980392247438431
0.670197069644928 0.7511448264122009 0.9916995763778687 0.9607843160629272 0.9647058844566345 0.9725490212440491
0.6992610692977905 0.7490920424461365 0.992094874382019 0.9686274528503418 0.9882352948188782 1.0
0.7145320177078247 0.8665719032287598 0.27351778745651245 0.03529411926865578 0.03529411926865578 0.03529411926865578
0.74064040184021 0.7426180243492126 0.0063241105526685715 0.24705882370471954 0.250980406999588 0.19607843458652496
0.743842363357544 0.7227222323417664 0.9928853511810303 0.9882352948188782 0.9921568632125854 1.0
0.8517241477966309 0.7307752966880798 0.9893280863761902 0.43921568989753723 0.4313725531101227 0.3843137323856354
0.8039408922195435 0.8283593654632568 0.006719367578625679 0.3490196168422699 0.3490196168422699 0.3019607961177826
0.8027093410491943 0.816042959690094 0.006719367578625679 0.4000000059604645 0.40392157435417175 0.37254902720451355
0.8450738787651062 0.7797252535820007 0.0063241105526685715 0.49803921580314636 0.4901960790157318 0.43921568989753723
0.6529556512832642 0.8520448207855225 0.007509881630539894 0.4117647111415863 0.4313725531101227 0.40784314274787903
0.6448276042938232 0.7738828063011169 0.29407113790512085 0.4627451002597809 0.501960813999176 0.49803921580314636
0.6704433560371399 0.7380388379096985 0.992094874382019 0.95686274766922 0.9686274528503418 0.9882352948188782
0.7270935773849487 0.7203537225723267 0.9932806491851807 0.9490196108818054 0.9686274528503418 0.9843137264251709
0.8120689392089844 0.8413074612617493 0.006719367578625679 0.5098039507865906 0.5098039507865906 0.47058823704719543
0.7911329865455627 0.8422548770904541 0.9893280863761902 0.250980406999588 0.239215686917305 0.21176470816135406
0.6571428775787354 0.8125690817832947 0.992094874382019 0.7372549176216125 0.7607843279838562 0.7529411911964417
0.6933497786521912 0.7483025193214417 0.29486167430877686 0.6196078658103943 0.6431372761726379 0.6352941393852234
0.8300492763519287 0.8653087019920349 0.9881423115730286 0.2705882489681244 0.2549019753932953 0.21176470816135406
0.7219212055206299 0.8482551574707031 0.15415020287036896 0.1921568661928177 0.18039216101169586 0.15294118225574493
0.6608374118804932 0.8681509494781494 0.9901185631752014 0.3960784375667572 0.3960784375667572 0.364705890417099
0.8197044134140015 0.7873045802116394 0.0063241105526685715 0.40392157435417175 0.40784314274787903 0.3764705955982208
0.7169950604438782 0.7318806052207947 0.0063241105526685715 0.23137255012989044 0.23137255012989044 0.1921568661928177
0.6596059203147888 0.7552502751350403 0.00830039568245411 0.20392157137393951 0.19607843458652496 0.14509804546833038
0.7179803252220154 0.7370914220809937 0.29486167430877686 0.6039215922355652 0.6274510025978088 0.6274510025978088
0.7261083722114563 0.7280909419059753 0.9928853511810303 0.9490196108818054 0.9686274528503418 0.9843137264251709
0.69852215051651 0.8660982251167297 0.18853755295276642 0.24313725531101227 0.2862745225429535 0.29411765933036804
0.7248768210411072 0.8526764512062073 0.9901185631752014 0.4431372582912445 0.42352941632270813 0.4117647111415863
0.8369458317756653 0.8405179381370544 0.006719367578625679 0.25882354378700256 0.24705882370471954 0.21960784494876862
0.7293103337287903 0.8043581247329712 0.9916995763778687 0.886274516582489 0.9058823585510254 0.929411768913269
0.7926108241081238 0.7895152568817139 0.0063241105526685715 0.43921568989753723 0.43921568989753723 0.4000000059604645
0.7140393853187561 0.8122532963752747 0.9916995763778687 0.8666666746139526 0.8784313797950745 0.9058823585510254
0.7768473029136658 0.7222485542297363 0.005928853526711464 0.4156862795352936 0.4274509847164154 0.3529411852359772
0.7874384522438049 0.8422548770904541 0.006719367578625679 0.38823530077934265 0.3803921639919281 0.32156863808631897
0.6628078818321228 0.799778938293457 0.992094874382019 1.0 1.0 1.0
0.6802955865859985 0.8556765913963318 0.1770751029253006 0.3176470696926117 0.3490196168422699 0.35686275362968445
0.6467980146408081 0.8427285552024841 0.17588932812213898 0.2823529541492462 0.32156863808631897 0.32549020648002625
0.7869458198547363 0.8446233868598938 0.0071146246045827866 0.3921568691730499 0.38823530077934265 0.30980393290519714
0.7477832436561584 0.8196747303009033 0.9909090995788574 0.4588235318660736 0.45490196347236633 0.43529412150382996
0.8376847505569458 0.7154586911201477 0.005928853526711464 0.6313725709915161 0.6274510025978088 0.5490196347236633
0.6911330223083496 0.8624664545059204 0.24268774688243866 0.21960784494876862 0.23529411852359772 0.24705882370471954
0.6908866763114929 0.8683088421821594 0.186956524848938 0.3019607961177826 0.33725491166114807 0.3333333432674408
0.80147784948349 0.8176220059394836 0.9901185631752014 0.4156862795352936 0.40392157435417175 0.3843137323856354
0.7224137783050537 0.8542554974555969 0.29525691270828247 0.32156863808631897 0.3764705955982208 0.3764705955982208
0.7266010046005249 0.8405179381370544 0.9905138611793518 0.4470588266849518 0.4431372582912445 0.4274509847164154
0.639162540435791 0.7396178841590881 0.29486167430877686 0.5882353186607361 0.6196078658103943 0.6274510025978088
0.68916255235672 0.7560397982597351 0.006719367578625679 0.18039216101169586 0.1882352977991104 0.14509804546833038
0.7618226408958435 0.8651508092880249 0.18300394713878632 0.25882354378700256 0.29411765933036804 0.2823529541492462
0.7399014830589294 0.713721752166748 0.0063241105526685715 0.22745098173618317 0.2235294133424759 0.15294118225574493
0.648522138595581 0.8343597054481506 0.17905138432979584 0.2823529541492462 0.33725491166114807 0.33725491166114807
0.7509852051734924 0.7369335293769836 0.9909090995788574 0.9019607901573181 0.9176470637321472 0.8588235378265381
0.7290640473365784 0.8207800388336182 0.991304337978363 0.46666666865348816 0.45098039507865906 0.4156862795352936
0.6793103218078613 0.8062529563903809 0.992094874382019 1.0 1.0 1.0
0.6967980265617371 0.8673614263534546 0.1984189748764038 0.32549020648002625 0.364705890417099 0.3607843220233917
0.6261083483695984 0.7925153970718384 0.008695651777088642 0.2549019753932953 0.24705882370471954 0.20000000298023224
0.6987684965133667 0.7396178841590881 0.29486167430877686 0.6117647290229797 0.6313725709915161 0.6431372761726379
0.7463054060935974 0.849044680595398 0.0071146246045827866 0.4431372582912445 0.4470588266849518 0.42352941632270813
0.7302955389022827 0.7711985111236572 0.992094874382019 0.9529411792755127 0.9725490212440491 0.9882352948188782
0.6896551847457886 0.7726196050643921 0.9916995763778687 0.9921568632125854 0.9843137264251709 0.9960784316062927
0.8396551609039307 0.8141481280326843 0.006719367578625679 0.3607843220233917 0.3607843220233917 0.3137255012989044
0.7450739145278931 0.7816200852394104 0.9916995763778687 0.9058823585510254 0.9137254953384399 0.9098039269447327
0.8221675157546997 0.7200378775596619 0.005928853526711464 0.5098039507865906 0.5176470875740051 0.42352941632270813
0.8376847505569458 0.7170377373695374 0.005928853526711464 0.47058823704719543 0.46666666865348816 0.38823530077934265
0.7339901328086853 0.8010421395301819 0.9916995763778687 0.8980392217636108 0.9176470637321472 0.9411764740943909
0.6633005142211914 0.8520448207855225 0.007509881630539894 0.3490196168422699 0.3686274588108063 0.34117648005485535
0.7940886616706848 0.7200378775596619 0.005928853526711464 0.5098039507865906 0.5215686559677124 0.43921568989753723
0.681034505367279 0.7901468276977539 0.00830039568245411 0.16862745583057404 0.18039216101169586 0.13725490868091583
0.7640393972396851 0.8468340635299683 0.0071146246045827866 0.4901960790157318 0.4941176474094391 0.42352941632270813
0.7256157398223877 0.816042959690094 0.006719367578625679 0.27450981736183167 0.27450981736183167 0.22745098173618317
0.7918719053268433 0.8152534365653992 0.006719367578625679 0.4274509847164154 0.4274509847164154 0.3803921639919281
0.8596059083938599 0.7203537225723267 0.005928853526711464 0.43529412150382996 0.4313725531101227 0.3490196168422699
0.6731526851654053 0.8646770715713501 0.18023715913295746 0.33725491166114807 0.3686274588108063 0.3803921639919281
0.6963053941726685 0.8664140105247498 0.19367589056491852 0.26274511218070984 0.30588236451148987 0.3137255012989044
0.7674877047538757 0.8550450205802917 0.0071146246045827866 0.47058823704719543 0.4627451002597809 0.4156862795352936
0.8258620500564575 0.7126164436340332 0.9897233247756958 0.43921568989753723 0.4274509847164154 0.40784314274787903
0.684236466884613 0.729985773563385 0.0063241105526685715 0.21960784494876862 0.21568627655506134 0.19607843458652496
0.75 0.8548871278762817 0.0071146246045827866 0.5568627715110779 0.5372549295425415 0.45098039507865906
0.6581280827522278 0.7495657801628113 0.00830039568245411 0.25882354378700256 0.250980406999588 0.20000000298023224
0.626600980758667 0.8360966444015503 0.991304337978363 0.3333333432674408 0.3294117748737335 0.3137255012989044
0.7012315392494202 0.788725733757019 0.006719367578625679 0.30588236451148987 0.30980393290519714 0.2549019753932953
0.6935960650444031 0.8062529563903809 0.007509881630539894 0.29019609093666077 0.2980392277240753 0.24313725531101227
0.7320197224617004 0.8566240072250366 0.9901185631752014 0.4156862795352936 0.40392157435417175 0.3843137323856354
0.6935960650444031 0.8683088421821594 0.1920948624610901 0.2705882489681244 0.3137255012989044 0.32156863808631897
0.6724137663841248 0.843833863735199 0.0071146246045827866 0.35686275362968445 0.37254902720451355 0.3176470696926117
0.7012315392494202 0.7541449666023254 0.992094874382019 0.9686274528503418 0.9882352948188782 1.0
0.8366994857788086 0.8231486082077026 0.006719367578625679 0.37254902720451355 0.3803921639919281 0.3294117748737335
0.815517246723175 0.805147647857666 0.9897233247756958 0.47058823704719543 0.4588235318660736 0.43921568989753723
0.7862069010734558 0.8174640536308289 0.9901185631752014 0.40392157435417175 0.4000000059604645 0.3843137323856354
0.6894088387489319 0.7591978311538696 0.006719367578625679 0.16862745583057404 0.1764705926179886 0.13333334028720856
0.6379310488700867 0.7490920424461365 0.007905138656497002 0.2666666805744171 0.2549019753932953 0.19607843458652496
0.676354706287384 0.7915679812431335 0.29328063130378723 0.45098039507865906 0.46666666865348816 0.4627451002597809
0.6665024757385254 0.8135164976119995 0.16245059669017792 0.18431372940540314 0.1882352977991104 0.16470588743686676
0.6901477575302124 0.8318332433700562 0.1818181872367859 0.4901960790157318 0.4745098054409027 0.3607843220233917
0.7248768210411072 0.7670930027961731 0.992094874382019 0.95686274766922 0.9725490212440491 0.9843137264251709
0.7364531755447388 0.7959892749786377 0.006719367578625679 0.24313725531101227 0.250980406999588 0.2078431397676468
0.7608374357223511 0.8100426197052002 0.006719367578625679 0.3764705955982208 0.3921568691730499 0.3333333432674408
0.8512315154075623 0.7596715688705444 0.9889327883720398 0.4431372582912445 0.4313725531101227 0.3960784375667572
0.6564039587974548 0.8359387516975403 0.1770751029253006 0.2980392277240753 0.3333333432674408 0.3294117748737335
0.8495073914527893 0.849044680595398 0.006719367578625679 0.24313725531101227 0.23137255012989044 0.20392157137393951
0.7911329865455627 0.8019895553588867 0.9905138611793518 0.47058823704719543 0.45098039507865906 0.4274509847164154
0.8307881951332092 0.7741986513137817 0.0063241105526685715 0.4156862795352936 0.43921568989753723 0.3921568691730499
0.8133004903793335 0.7160903215408325 0.005928853526711464 0.48627451062202454 0.48627451062202454 0.3843137323856354
0.7876847386360168 0.7451444864273071 0.0063241105526685715 0.529411792755127 0.5490196347236633 0.47058823704719543
0.6866995096206665 0.7159324288368225 0.0063241105526685715 0.23137255012989044 0.23529411852359772 0.20392157137393951
0.6731526851654053 0.7145112752914429 0.2956521809101105 0.6470588445663452 0.6666666865348816 0.6823529601097107
0.8330049514770508 0.7145112752914429 0.9897233247756958 0.4470588266849518 0.43529412150382996 0.40784314274787903
0.6177340149879456 0.8522027730941772 0.007509881630539894 0.250980406999588 0.22745098173618317 0.1725490242242813
0.823645293712616 0.7513027191162109 0.0063241105526685715 0.4313725531101227 0.45098039507865906 0.3607843220233917
0.8192118406295776 0.7696194648742676 0.0063241105526685715 0.45490196347236633 0.47058823704719543 0.4117647111415863
0.6896551847457886 0.8664140105247498 0.2561264932155609 0.2549019753932953 0.2705882489681244 0.2823529541492462
0.8399015069007874 0.8523606657981873 0.006719367578625679 0.3490196168422699 0.3490196168422699 0.3176470696926117
0.7522167563438416 0.8476235866546631 0.9901185631752014 0.4431372582912445 0.41960784792900085 0.41960784792900085
0.7147783041000366 0.7623559236526489 0.29446640610694885 0.5058823823928833 0.5333333611488342 0.5568627715110779
0.6586207151412964 0.7865150570869446 0.00909090880304575 0.2823529541492462 0.2862745225429535 0.23137255012989044
0.7054187059402466 0.8525185585021973 0.24901185929775238 0.1882352977991104 0.2078431397676468 0.21960784494876862
0.7096059322357178 0.7569872140884399 0.992094874382019 0.95686274766922 0.9882352948188782 1.0
0.6524630784988403 0.8432022929191589 0.0071146246045827866 0.37254902720451355 0.3843137323856354 0.3490196168422699
0.7322660088539124 0.8637296557426453 0.0071146246045827866 0.45098039507865906 0.45490196347236633 0.3921568691730499
0.8169950842857361 0.7105637192726135 0.005928853526711464 0.45098039507865906 0.45098039507865906 0.35686275362968445
0.6539409160614014 0.7258803248405457 0.007509881630539894 0.3019607961177826 0.29019609093666077 0.23137255012989044
0.8598521947860718 0.8223590850830078 0.9881423115730286 0.34117648005485535 0.3137255012989044 0.2823529541492462
0.6211822628974915 0.729354202747345 0.29525691270828247 0.5764706134796143 0.5960784554481506 0.5803921818733215
0.7842364311218262 0.7696194648742676 0.9909090995788574 0.43921568989753723 0.41960784792900085 0.40784314274787903
0.7046797871589661 0.7696194648742676 0.9916995763778687 0.9764705896377563 0.9803921580314636 0.9960784316062927
