0.19507388770580292 0.9363650679588318 0.9893280863761902 0.4470588266849518 0.43921568989753723 0.3803921639919281
0.0071428571827709675 0.794252336025238 0.792094886302948 0.6666666865348816 0.6666666865348816 0.6274510025978088
0.008374384604394436 0.832938551902771 0.4644268751144409 0.6745098233222961 0.6980392336845398 0.6509804129600525
0.1701970398426056 0.9456813335418701 0.2857707440853119 0.250980406999588 0.2549019753932953 0.26274511218070984
0.1704433560371399 0.924838125705719 0.9897233247756958 0.43921568989753723 0.4313725531101227 0.37254902720451355
0.00911330059170723 0.7964629530906677 0.20039525628089905 0.6980392336845398 0.7137255072593689 0.6549019813537598
0.009359605610370636 0.9439443945884705 0.03162055462598801 0.10196078568696976 0.08627451211214066 0.07450980693101883
0.015763547271490097 0.897520899772644 0.186956524848938 0.48627451062202454 0.4941176474094391 0.45098039507865906
0.1701970398426056 0.9016264081001282 0.048616599291563034 0.5215686559677124 0.5333333611488342 0.45098039507865906
0.13842365145683289 0.9103110432624817 0.3636363744735718 0.1725490242242813 0.18039216101169586 0.16078431904315948
0.1943349689245224 0.907784640789032 0.3391304314136505 0.24705882370471954 0.2549019753932953 0.250980406999588
0.18891625106334686 0.8432022929191589 0.9901185631752014 0.3960784375667572 0.38823530077934265 0.3294117748737335
0.008620689623057842 0.8531501889228821 0.47193676233291626 0.6627451181411743 0.6784313917160034 0.6235294342041016
0.1864532083272934 0.8847307562828064 0.9901185631752014 0.43529412150382996 0.4117647111415863 0.3490196168422699
0.009359605610370636 0.9035212397575378 0.425691694021225 0.7137255072593689 0.6941176652908325 0.6196078658103943
0.15591132640838623 0.9261013865470886 0.2924901247024536 0.14901961386203766 0.1568627506494522 0.15294118225574493
0.22955664992332458 0.8673614263534546 0.9905138611793518 0.4000000059604645 0.40784314274787903 0.32549020648002625
0.10886699706315994 0.9068372249603271 0.29367589950561523 0.30980393290519714 0.3333333432674408 0.3333333432674408
0.0071428571827709675 0.8248855471611023 0.9596837759017944 0.3921568691730499 0.3686274588108063 0.3137255012989044
0.14433497190475464 0.913153350353241 0.07509881258010864 0.30588236451148987 0.3294117748737335 0.32156863808631897
0.23891626298427582 0.8965734839439392 0.009486165829002857 0.5215686559677124 0.5137255191802979 0.42352941632270813
0.19310344755649567 0.8057792782783508 0.00830039568245411 0.5921568870544434 0.5882353186607361 0.5058823823928833
0.008374384604394436 0.9199431538581848 0.6683794260025024 0.5686274766921997 0.5607843399047852 0.5098039507865906
0.2384236454963684 0.8765197992324829 0.00909090880304575 0.5921568870544434 0.572549045085907 0.49803921580314636
0.18793103098869324 0.930364727973938 0.9897233247756958 0.4470588266849518 0.43921568989753723 0.38823530077934265
0.008128078654408455 0.8370440602302551 0.5822134613990784 0.658823549747467 0.6666666865348816 0.615686297416687
0.08694580942392349 0.8763619065284729 0.18616600334644318 0.09019608050584793 0.0941176488995552 0.10196078568696976
0.12142857164144516 0.8294647336006165 0.18339921534061432 0.1725490242242813 0.1764705926179886 0.18431372940540314
0.06970443576574326 0.9292594194412231 0.012648221105337143 0.09803921729326248 0.09803921729326248 0.09803921729326248
0.09187192469835281 0.8152534365653992 0.23754940927028656 0.09019608050584793 0.09019608050584793 0.09019608050584793
0.22019705176353455 0.9068372249603271 0.009486165829002857 0.5529412031173706 0.5490196347236633 0.47843137383461
0.02733990177512169 0.8689404726028442 0.22648221254348755 0.08235294371843338 0.09019608050584793 0.08627451211214066
0.007881773635745049 0.9051002860069275 0.8687747120857239 0.4588235318660736 0.4431372582912445 0.3960784375667572
0.0517241396009922 0.9019421935081482 0.1719367653131485 0.125490203499794 0.12156862765550613 0.11372549086809158
0.008128078654408455 0.9208905696868896 0.8031620383262634 0.5058823823928833 0.48627451062202454 0.4627451002597809
0.13300491869449615 0.7974103689193726 0.008695651777088642 0.6745098233222961 0.658823549747467 0.6117647290229797
0.014778325334191322 0.9152060747146606 0.19565217196941376 0.45490196347236633 0.46666666865348816 0.3843137323856354
0.18374384939670563 0.7955155372619629 0.9936758875846863 0.8901960849761963 0.9019607901573181 0.9215686321258545
0.009359605610370636 0.8657823801040649 0.17312252521514893 0.5803921818733215 0.572549045085907 0.5215686559677124
0.010837438516318798 0.9381020069122314 0.41818180680274963 0.6784313917160034 0.6823529601097107 0.6509804129600525
0.009605911560356617 0.9073109030723572 0.365612655878067 0.18039216101169586 0.1725490242242813 0.1764705926179886
0.008866994641721249 0.8245697021484375 0.3600790500640869 0.6784313917160034 0.6941176652908325 0.6392157077789307
0.14605911076068878 0.9196273684501648 0.36205533146858215 0.26274511218070984 0.2666666805744171 0.2823529541492462
0.13965517282485962 0.9292594194412231 0.9897233247756958 0.43921568989753723 0.42352941632270813 0.3764705955982208
0.02931034564971924 0.9046265482902527 0.25335967540740967 0.10980392247438431 0.10980392247438431 0.10980392247438431
0.24285714328289032 0.8252013325691223 0.00830039568245411 0.6117647290229797 0.6235294342041016 0.5490196347236633
0.007389162667095661 0.821885347366333 0.8501976132392883 0.5490196347236633 0.5568627715110779 0.5137255191802979
0.14876846969127655 0.8540976047515869 0.01067193690687418 0.5137255191802979 0.5215686559677124 0.43921568989753723
0.00911330059170723 0.7947260141372681 0.2541502118110657 0.6823529601097107 0.7098039388656616 0.6470588445663452
0.1748768538236618 0.896731436252594 0.015019763261079788 0.6352941393852234 0.6274510025978088 0.5803921818733215
0.06551723927259445 0.8192009925842285 0.239130437374115 0.09803921729326248 0.10588235408067703 0.08627451211214066
0.16970443725585938 0.8681509494781494 0.01067193690687418 0.529411792755127 0.5333333611488342 0.4627451002597809
0.1741379350423813 0.9041528701782227 0.1723320186138153 0.14901961386203766 0.16078431904315948 0.13333334028720856
0.008374384604394436 0.9261013865470886 0.7541502118110657 0.5254902243614197 0.5058823823928833 0.48235294222831726
0.007635468151420355 0.8146218061447144 0.6577075123786926 0.6745098233222961 0.6745098233222961 0.6274510025978088
0.007881773635745049 0.9129953980445862 0.8889328241348267 0.4431372582912445 0.4274509847164154 0.3843137323856354
0.008128078654408455 0.8790462613105774 0.7071146368980408 0.5803921818733215 0.572549045085907 0.5215686559677124
0.026108374819159508 0.8128848671913147 0.009881422854959965 0.21960784494876862 0.21568627655506134 0.19607843458652496
0.055665023624897 0.8976788520812988 0.9889327883720398 0.3803921639919281 0.37254902720451355 0.32549020648002625
0.08399014919996262 0.8354650139808655 0.1826086938381195 0.21568627655506134 0.23529411852359772 0.24705882370471954
0.007881773635745049 0.8544133901596069 0.7043478488922119 0.6117647290229797 0.6117647290229797 0.572549045085907
0.011330049484968185 0.891994297504425 0.1719367653131485 0.125490203499794 0.11764705926179886 0.12941177189350128
0.009359605610370636 0.9152060747146606 0.124901182949543 0.14901961386203766 0.16862745583057404 0.18039216101169586
0.06970443576574326 0.9035212397575378 0.2553359568119049 0.09019608050584793 0.09803921729326248 0.0941176488995552
0.007635468151420355 0.8782567381858826 0.9027668237686157 0.45098039507865906 0.42352941632270813 0.3529411852359772
0.009359605610370636 0.9431549310684204 0.05770751088857651 0.5333333611488342 0.529411792755127 0.45098039507865906
0.01945812813937664 0.822043240070343 0.17351779341697693 0.5529412031173706 0.5607843399047852 0.5490196347236633
0.008620689623057842 0.8447812795639038 0.4529644250869751 0.6745098233222961 0.686274528503418 0.6431372761726379
0.17610837519168854 0.9442602396011353 0.03162055462598801 0.08627451211214066 0.08627451211214066 0.0784313753247261
0.10172414034605026 0.8405179381370544 0.186956524848938 0.1764705926179886 0.18431372940540314 0.18039216101169586
0.02216748706996441 0.8540976047515869 0.011462450958788395 0.10196078568696976 0.10588235408067703 0.07450980693101883
0.012315270490944386 0.9365229606628418 0.022134387865662575 0.08235294371843338 0.0784313753247261 0.062745101749897
0.20911329984664917 0.9262592792510986 0.3387351632118225 0.1764705926179886 0.1764705926179886 0.16862745583057404
0.06477832794189453 0.9095215797424316 0.00830039568245411 0.10588235408067703 0.09019608050584793 0.08627451211214066
0.1669950783252716 0.9254697561264038 0.009486165829002857 0.3529411852359772 0.3450980484485626 0.2980392277240753
0.00911330059170723 0.826780378818512 0.32529643177986145 0.658823549747467 0.6901960968971252 0.6392157077789307
0.24113300442695618 0.9185220003128052 0.9897233247756958 0.4313725531101227 0.42352941632270813 0.3764705955982208
0.019211823120713234 0.9095215797424316 0.24703557789325714 0.1568627506494522 0.16470588743686676 0.15294118225574493
0.07783251255750656 0.8793620467185974 0.007905138656497002 0.30588236451148987 0.29411765933036804 0.27450981736183167
0.007635468151420355 0.8452550172805786 0.8375493884086609 0.5137255191802979 0.5176470875740051 0.45490196347236633
0.008620689623057842 0.8834675550460815 0.5339921116828918 0.6392157077789307 0.6470588445663452 0.6039215922355652
0.008128078654408455 0.8773093223571777 0.6754940748214722 0.5921568870544434 0.6000000238418579 0.545098066329956
0.22807881236076355 0.8027790784835815 0.9928853511810303 0.9333333373069763 0.9372549057006836 0.9450980424880981
0.10221675038337708 0.908100426197052 0.34150198101997375 0.2078431397676468 0.2078431397676468 0.16862745583057404
0.17339901626110077 0.9325754046440125 0.2806324064731598 0.08235294371843338 0.08235294371843338 0.07450980693101883
0.009605911560356617 0.9428390860557556 0.14229248464107513 0.5254902243614197 0.5176470875740051 0.47058823704719543
0.007881773635745049 0.8978367447853088 0.8861660361289978 0.4431372582912445 0.4313725531101227 0.37254902720451355
0.008866994641721249 0.8937312364578247 0.5055335760116577 0.6470588445663452 0.6470588445663452 0.615686297416687
0.0071428571827709675 0.8072003722190857 0.9758893251419067 0.34117648005485535 0.32549020648002625 0.2823529541492462
0.14088669419288635 0.9074687957763672 0.29288536310195923 0.25882354378700256 0.29411765933036804 0.2823529541492462
0.16551724076271057 0.9461550712585449 0.07470355927944183 0.23529411852359772 0.24313725531101227 0.23137255012989044
0.008374384604394436 0.924680233001709 0.11027667671442032 0.5254902243614197 0.5254902243614197 0.47843137383461
0.12536945939064026 0.8365703225135803 0.9889327883720398 0.37254902720451355 0.37254902720451355 0.32549020648002625
0.00911330059170723 0.8454129099845886 0.35691699385643005 0.6745098233222961 0.6980392336845398 0.6509804129600525
0.0071428571827709675 0.8288331031799316 0.9359683990478516 0.43529412150382996 0.42352941632270813 0.3490196168422699
0.00911330059170723 0.8708353042602539 0.3913043439388275 0.686274528503418 0.6705882549285889 0.6352941393852234
0.1630541831254959 0.8962576985359192 0.011462450958788395 0.48235294222831726 0.48235294222831726 0.43529412150382996
0.009852216579020023 0.9073109030723572 0.97826087474823 0.3490196168422699 0.32549020648002625 0.27843138575553894
0.007881773635745049 0.9352597594261169 0.8612648248672485 0.4745098054409027 0.45098039507865906 0.40392157435417175
0.00911330059170723 0.8304121494293213 0.34545454382896423 0.6745098233222961 0.6980392336845398 0.6431372761726379
0.008374384604394436 0.8420969247817993 0.48774704337120056 0.6666666865348816 0.6823529601097107 0.6274510025978088
0.018965518102049828 0.8739933967590332 0.2035573124885559 0.08627451211214066 0.08235294371843338 0.06666667014360428
0.14901477098464966 0.7926732897758484 0.008695651777088642 0.48235294222831726 0.48235294222831726 0.43529412150382996
0.008866994641721249 0.799463152885437 0.13241106271743774 0.6509804129600525 0.658823549747467 0.6039215922355652
0.18768472969532013 0.9295752644538879 0.9897233247756958 0.4470588266849518 0.43921568989753723 0.38823530077934265
0.15985222160816193 0.9032054543495178 0.35217392444610596 0.15294118225574493 0.16862745583057404 0.1725490242242813
0.007881773635745049 0.8604137301445007 0.708695650100708 0.6039215922355652 0.6039215922355652 0.5568627715110779
0.09211822599172592 0.9090478420257568 0.059683796018362045 0.08235294371843338 0.08235294371843338 0.07450980693101883
0.0995073914527893 0.7928311824798584 0.9893280863761902 0.3764705955982208 0.3764705955982208 0.3294117748737335
0.20394088327884674 0.9057318568229675 0.34505927562713623 0.6196078658103943 0.615686297416687 0.5960784554481506
0.12339901179075241 0.8676772713661194 0.011067193932831287 0.5607843399047852 0.5529412031173706 0.47058823704719543
0.015517241321504116 0.8665719032287598 0.013438735157251358 0.08627451211214066 0.08235294371843338 0.07450980693101883
0.21921181678771973 0.9253118634223938 0.34189721941947937 0.18039216101169586 0.18039216101169586 0.1725490242242813
0.0071428571827709675 0.8034107089042664 0.9509881138801575 0.4117647111415863 0.40392157435417175 0.32156863808631897
0.07266009598970413 0.9043107628822327 0.365217387676239 0.11372549086809158 0.09803921729326248 0.0941176488995552
0.009359605610370636 0.816200852394104 0.2964426875114441 0.615686297416687 0.658823549747467 0.6039215922355652
0.12955665588378906 0.9107847809791565 0.35770750045776367 0.1882352977991104 0.21176470816135406 0.20392157137393951
0.15812808275222778 0.8594663143157959 0.9897233247756958 0.3921568691730499 0.3921568691730499 0.3450980484485626
0.01625615730881691 0.8853623867034912 0.1932806372642517 0.501960813999176 0.49803921580314636 0.47843137383461
0.0517241396009922 0.8924680352210999 0.17984189093112946 0.10196078568696976 0.10980392247438431 0.10588235408067703
0.09359605610370636 0.8930996656417847 0.008695651777088642 0.16470588743686676 0.16078431904315948 0.1411764770746231
0.050246305763721466 0.8403600454330444 0.009486165829002857 0.3450980484485626 0.3333333432674408 0.2666666805744171
0.07832512259483337 0.8837833404541016 0.18498024344444275 0.0941176488995552 0.09803921729326248 0.10588235408067703
0.2458128035068512 0.8613611459732056 0.00909090880304575 0.6509804129600525 0.6549019813537598 0.5921568870544434
0.18177339434623718 0.9008368849754333 0.02648221328854561 0.32549020648002625 0.33725491166114807 0.30980393290519714
0.031034482643008232 0.8534659743309021 0.9893280863761902 0.3607843220233917 0.3490196168422699 0.3137255012989044
0.007881773635745049 0.935575544834137 0.8387351632118225 0.4745098054409027 0.46666666865348816 0.41960784792900085
0.04482758790254593 0.8059371709823608 0.9893280863761902 0.3450980484485626 0.3333333432674408 0.30588236451148987
0.008866994641721249 0.8848886489868164 0.508695662021637 0.6392157077789307 0.6509804129600525 0.615686297416687
0.007389162667095661 0.8040423393249512 0.7260869741439819 0.6784313917160034 0.6823529601097107 0.6117647290229797
0.1310344785451889 0.8416232466697693 0.010276679880917072 0.3843137323856354 0.3686274588108063 0.3333333432674408
0.23940886557102203 0.91946941614151 0.35138338804244995 0.18431372940540314 0.18431372940540314 0.18431372940540314
0.01206896547228098 0.8754144906997681 0.16324110329151154 0.14901961386203766 0.14901961386203766 0.1568627506494522
0.23300492763519287 0.8689404726028442 0.9905138611793518 0.3843137323856354 0.38823530077934265 0.32549020648002625
0.14556650817394257 0.930048942565918 0.007509881630539894 0.11372549086809158 0.11372549086809158 0.10588235408067703
0.024384235963225365 0.9049423933029175 0.25691699981689453 0.12941177189350128 0.13725490868091583 0.125490203499794
0.007881773635745049 0.8029369711875916 0.5245059132575989 0.658823549747467 0.6745098233222961 0.6196078658103943
0.15615764260292053 0.8852044939994812 0.011067193932831287 0.658823549747467 0.6470588445663452 0.572549045085907
0.12389162927865982 0.8990999460220337 0.07035572826862335 0.18039216101169586 0.18039216101169586 0.1725490242242813
0.22487685084342957 0.8342018127441406 0.9905138611793518 0.3294117748737335 0.3294117748737335 0.29019609093666077
0.012807881459593773 0.9231011867523193 0.025296442210674286 0.11372549086809158 0.11372549086809158 0.10588235408067703
0.00911330059170723 0.8476235866546631 0.36600789427757263 0.686274528503418 0.6980392336845398 0.6549019813537598
0.23226600885391235 0.9177325367927551 0.9897233247756958 0.43921568989753723 0.4313725531101227 0.3843137323856354
0.14187191426753998 0.9126796126365662 0.36284583806991577 0.26274511218070984 0.2705882489681244 0.250980406999588
0.20911329984664917 0.8016737699508667 0.007905138656497002 0.4627451002597809 0.45490196347236633 0.364705890417099
0.12487684935331345 0.8414653539657593 0.9889327883720398 0.37254902720451355 0.3803921639919281 0.3294117748737335
0.007881773635745049 0.9161534905433655 0.9316205382347107 0.40784314274787903 0.3921568691730499 0.3450980484485626
0.16354680061340332 0.9019421935081482 0.0573122538626194 0.2666666805744171 0.26274511218070984 0.24313725531101227
0.007389162667095661 0.8540976047515869 0.908695638179779 0.43529412150382996 0.4274509847164154 0.3450980484485626
0.016502462327480316 0.8886783719062805 0.291304349899292 0.15294118225574493 0.1568627506494522 0.1725490242242813
0.0071428571827709675 0.7920416593551636 0.8664031624794006 0.5803921818733215 0.5764706134796143 0.5568627715110779
0.00665024621412158 0.9306805729866028 0.24150197207927704 0.47843137383461 0.48627451062202454 0.4431372582912445
0.013793103396892548 0.9172587990760803 0.9845849871635437 0.2823529541492462 0.2666666805744171 0.2235294133424759
0.008374384604394436 0.9161534905433655 0.6201580762863159 0.6000000238418579 0.5921568870544434 0.5333333611488342
0.13177339732646942 0.8139902353286743 0.9905138611793518 0.33725491166114807 0.33725491166114807 0.29019609093666077
0.11477832496166229 0.908258318901062 0.29328063130378723 0.32156863808631897 0.3529411852359772 0.3607843220233917
0.008374384604394436 0.8375177383422852 0.4747035503387451 0.6745098233222961 0.6980392336845398 0.6431372761726379
0.008620689623057842 0.9153639674186707 0.5533596873283386 0.6313725709915161 0.6235294342041016 0.572549045085907
0.06108374521136284 0.929891049861908 0.011462450958788395 0.12156862765550613 0.125490203499794 0.10588235408067703
0.14507389068603516 0.9123638272285461 0.07509881258010864 0.4156862795352936 0.4313725531101227 0.43529412150382996
0.11674876511096954 0.8831517696380615 0.9893280863761902 0.4117647111415863 0.40392157435417175 0.35686275362968445
0.15369458496570587 0.8589925765991211 0.01067193690687418 0.5411764979362488 0.545098066329956 0.4745098054409027
0.17733989655971527 0.9093636274337769 0.28300395607948303 0.1411764770746231 0.1568627506494522 0.15294118225574493
0.14014779031276703 0.8529922366142273 0.01067193690687418 0.5098039507865906 0.501960813999176 0.4117647111415863
0.15541872382164001 0.9032054543495178 0.260869562625885 0.1764705926179886 0.18431372940540314 0.16470588743686676
0.10566502809524536 0.832149088382721 0.18300394713878632 0.2666666805744171 0.27843138575553894 0.2980392277240753
0.008374384604394436 0.9204168915748596 0.6114624738693237 0.5960784554481506 0.6000000238418579 0.529411792755127
0.018965518102049828 0.8193588852882385 0.05928853899240494 0.5333333611488342 0.545098066329956 0.5176470875740051
0.043842364102602005 0.9043107628822327 0.2549407184123993 0.03921568766236305 0.04313725605607033 0.05882352963089943
0.011330049484968185 0.9360492825508118 0.1660079061985016 0.572549045085907 0.5686274766921997 0.5529412031173706
0.0514778308570385 0.9125217199325562 0.009486165829002857 0.0941176488995552 0.09019608050584793 0.07450980693101883
0.008374384604394436 0.8654665946960449 0.5916996002197266 0.6313725709915161 0.6352941393852234 0.6039215922355652
0.01527093630284071 0.8282014727592468 0.9877470135688782 0.26274511218070984 0.250980406999588 0.21568627655506134
0.15147782862186432 0.9382598996162415 0.021739130839705467 0.08627451211214066 0.08627451211214066 0.08627451211214066
0.008866994641721249 0.854729175567627 0.4359683692455292 0.6745098233222961 0.6823529601097107 0.6392157077789307
0.019211823120713234 0.8256750106811523 0.2750988006591797 0.1411764770746231 0.14901961386203766 0.14509804546833038
0.008620689623057842 0.8338859677314758 0.4201580882072449 0.6941176652908325 0.6980392336845398 0.6666666865348816
0.007389162667095661 0.8228327631950378 0.731225311756134 0.6509804129600525 0.658823549747467 0.6039215922355652
0.14581280946731567 0.8291488885879517 0.009881422854959965 0.5058823823928833 0.49803921580314636 0.4470588266849518
0.013793103396892548 0.8291488885879517 0.030830038711428642 0.14901961386203766 0.14509804546833038 0.12941177189350128
0.12019704282283783 0.8450971245765686 0.010276679880917072 0.3490196168422699 0.3529411852359772 0.3333333432674408
0.08645319938659668 0.9398389458656311 0.9893280863761902 0.4313725531101227 0.42352941632270813 0.37254902720451355
0.008620689623057842 0.9368388056755066 0.625296413898468 0.5843137502670288 0.572549045085907 0.5372549295425415
0.09064039587974548 0.9395231604576111 0.9897233247756958 0.4117647111415863 0.40392157435417175 0.35686275362968445
0.007389162667095661 0.8187273144721985 0.7861660122871399 0.6274510025978088 0.6352941393852234 0.5843137502670288
0.008128078654408455 0.9227854013442993 0.8134387135505676 0.5098039507865906 0.48235294222831726 0.45098039507865906
0.01822660118341446 0.8724143505096436 0.20079050958156586 0.15294118225574493 0.1411764770746231 0.11372549086809158
0.008374384604394436 0.8307279348373413 0.47114625573158264 0.686274528503418 0.7019608020782471 0.6470588445663452
0.01822660118341446 0.8185694217681885 0.14703556895256042 0.4627451002597809 0.48235294222831726 0.4588235318660736
0.2224137932062149 0.9392073154449463 0.36245059967041016 0.40784314274787903 0.40784314274787903 0.4156862795352936
0.043842364102602005 0.9395231604576111 0.9889327883720398 0.40392157435417175 0.38823530077934265 0.3450980484485626
0.09359605610370636 0.9178904294967651 0.9893280863761902 0.43529412150382996 0.41960784792900085 0.3764705955982208
0.007389162667095661 0.8319911360740662 0.8241106867790222 0.5568627715110779 0.5647059082984924 0.5215686559677124
0.08448275923728943 0.9292594194412231 0.3691699504852295 0.0784313753247261 0.08627451211214066 0.08235294371843338
0.1785714328289032 0.9123638272285461 0.25335967540740967 0.2823529541492462 0.2705882489681244 0.24313725531101227
0.11576354503631592 0.7950418591499329 0.9893280863761902 0.3960784375667572 0.3960784375667572 0.364705890417099
0.008128078654408455 0.9319437742233276 0.8154150247573853 0.4901960790157318 0.4745098054409027 0.43921568989753723
0.13768473267555237 0.9174166917800903 0.9897233247756958 0.42352941632270813 0.4156862795352936 0.364705890417099
0.24507388472557068 0.9338386058807373 0.9893280863761902 0.47058823704719543 0.45490196347236633 0.41960784792900085
0.008374384604394436 0.9439443945884705 0.687747061252594 0.5529412031173706 0.5372549295425415 0.501960813999176
0.22019705176353455 0.9452076554298401 0.9893280863761902 0.46666666865348816 0.45490196347236633 0.3960784375667572
0.20812807977199554 0.8743091821670532 0.9905138611793518 0.3607843220233917 0.3607843220233917 0.3137255012989044
0.15935960412025452 0.8086215257644653 0.992094874382019 0.3607843220233917 0.37254902720451355 0.3294117748737335
0.039901476353406906 0.9384177923202515 0.9889327883720398 0.38823530077934265 0.37254902720451355 0.33725491166114807
0.11034482717514038 0.8038843870162964 0.00909090880304575 0.5960784554481506 0.5490196347236633 0.501960813999176
0.13300491869449615 0.8664140105247498 0.9893280863761902 0.4156862795352936 0.40784314274787903 0.3490196168422699
0.0071428571827709675 0.8141481280326843 0.9316205382347107 0.4470588266849518 0.43529412150382996 0.3607843220233917
0.011083743534982204 0.9305226802825928 0.31501975655555725 0.20392157137393951 0.1921568661928177 0.1725490242242813
0.20812807977199554 0.7977262139320374 0.9932806491851807 0.9176470637321472 0.9215686321258545 0.9372549057006836
0.008620689623057842 0.8798357844352722 0.5750988125801086 0.6274510025978088 0.6274510025978088 0.5960784554481506
0.14433497190475464 0.9182062149047852 0.33517786860466003 0.19607843458652496 0.21568627655506134 0.20000000298023224
0.02266009896993637 0.9088899493217468 0.34584981203079224 0.21176470816135406 0.19607843458652496 0.18431372940540314
0.023152709007263184 0.8507816195487976 0.011462450958788395 0.10980392247438431 0.11372549086809158 0.09019608050584793
0.00911330059170723 0.8450971245765686 0.34189721941947937 0.6823529601097107 0.7058823704719543 0.658823549747467
0.09704433381557465 0.8935733437538147 0.9893280863761902 0.40392157435417175 0.3921568691730499 0.35686275362968445
0.00911330059170723 0.9268909096717834 0.48735177516937256 0.6431372761726379 0.6509804129600525 0.6000000238418579
0.22709359228610992 0.9381020069122314 0.36126482486724854 0.3764705955982208 0.3843137323856354 0.3803921639919281
0.007635468151420355 0.8072003722190857 0.6154150366783142 0.6823529601097107 0.6705882549285889 0.6352941393852234
0.008128078654408455 0.8907310962677002 0.6541501879692078 0.6039215922355652 0.5960784554481506 0.545098066329956
0.14137931168079376 0.9390494227409363 0.00830039568245411 0.08235294371843338 0.09803921729326248 0.0941176488995552
0.059359606355428696 0.9306805729866028 0.36758893728256226 0.45490196347236633 0.4588235318660736 0.43921568989753723
0.007881773635745049 0.8479393720626831 0.643478274345398 0.6392157077789307 0.6431372761726379 0.6117647290229797
0.008374384604394436 0.9226275086402893 0.7367588877677917 0.529411792755127 0.5137255191802979 0.47843137383461
0.00911330059170723 0.8443076014518738 0.3391304314136505 0.6901960968971252 0.7019608020782471 0.658823549747467
0.07660098373889923 0.9376282691955566 0.059683796018362045 0.08235294371843338 0.08235294371843338 0.08235294371843338
0.07315270602703094 0.8615190386772156 0.00830039568245411 0.21176470816135406 0.20000000298023224 0.1725490242242813
0.12339901179075241 0.9273645877838135 0.28932806849479675 0.16862745583057404 0.1764705926179886 0.1568627506494522
0.17192117869853973 0.924048662185669 0.9897233247756958 0.4000000059604645 0.3921568691730499 0.3333333432674408
0.008128078654408455 0.8842570781707764 0.7260869741439819 0.5568627715110779 0.5607843399047852 0.49803921580314636
0.008866994641721249 0.8166745901107788 0.3584980368614197 0.6549019813537598 0.6784313917160034 0.6235294342041016
0.0071428571827709675 0.7899889349937439 0.700790524482727 0.6823529601097107 0.6941176652908325 0.6274510025978088
0.007635468151420355 0.8462024331092834 0.7636363506317139 0.5882353186607361 0.5921568870544434 0.529411792755127
0.008128078654408455 0.7972524762153625 0.4885375499725342 0.6666666865348816 0.6745098233222961 0.6313725709915161
0.007881773635745049 0.821727454662323 0.5549407005310059 0.6549019813537598 0.6823529601097107 0.6196078658103943
0.05714285746216774 0.8390967845916748 0.1818181872367859 0.0941176488995552 0.10196078568696976 0.09803921729326248
0.06305418908596039 0.9422074556350708 0.9893280863761902 0.3960784375667572 0.3803921639919281 0.33725491166114807
0.1470443308353424 0.9322596192359924 0.07430829852819443 0.32156863808631897 0.34117648005485535 0.32549020648002625
0.09679803252220154 0.9161534905433655 0.06996047496795654 0.1764705926179886 0.18431372940540314 0.1725490242242813
0.10812807828187943 0.8829938173294067 0.01067193690687418 0.2823529541492462 0.2862745225429535 0.23137255012989044
0.1588670015335083 0.9327332973480225 0.0260869562625885 0.08627451211214066 0.08627451211214066 0.08627451211214066
0.15689654648303986 0.8927838206291199 0.9897233247756958 0.4313725531101227 0.42352941632270813 0.37254902720451355
0.1192118227481842 0.8798357844352722 0.011857707053422928 0.3607843220233917 0.37254902720451355 0.29019609093666077
0.1268472969532013 0.8599399924278259 0.18498024344444275 0.21176470816135406 0.21960784494876862 0.21568627655506134
0.008128078654408455 0.8976788520812988 0.7450593113899231 0.545098066329956 0.5333333611488342 0.4745098054409027
0.008866994641721249 0.7936207056045532 0.1766798347234726 0.6901960968971252 0.6941176652908325 0.6313725709915161
0.007881773635745049 0.913942813873291 0.9039525985717773 0.43529412150382996 0.4117647111415863 0.364705890417099
0.009359605610370636 0.8822043538093567 0.3442687690258026 0.6549019813537598 0.658823549747467 0.6274510025978088
0.038669951260089874 0.8990999460220337 0.011067193932831287 0.21176470816135406 0.20000000298023224 0.18039216101169586
0.15270936489105225 0.9039949178695679 0.03913043439388275 0.250980406999588 0.2549019753932953 0.2235294133424759
0.13399015367031097 0.9106268882751465 0.36284583806991577 0.1921568661928177 0.20000000298023224 0.1882352977991104
0.09753694385290146 0.8632559776306152 0.9889327883720398 0.37254902720451355 0.35686275362968445 0.30980393290519714
0.040640395134687424 0.9347860217094421 0.009486165829002857 0.20000000298023224 0.19607843458652496 0.1882352977991104
0.009852216579020023 0.816516637802124 0.2288537621498108 0.6666666865348816 0.6980392336845398 0.615686297416687
0.1982758641242981 0.891678512096405 0.010276679880917072 0.529411792755127 0.5254902243614197 0.4431372582912445
0.007881773635745049 0.9464708566665649 0.2395256906747818 0.3176470696926117 0.30588236451148987 0.2705882489681244
0.037931036204099655 0.8509395122528076 0.1762845814228058 0.05882352963089943 0.06666667014360428 0.054901961237192154
0.030049260705709457 0.8809410929679871 0.011462450958788395 0.16078431904315948 0.14509804546833038 0.13333334028720856
0.08768472820520401 0.9270488023757935 0.07114624232053757 0.23529411852359772 0.250980406999588 0.24705882370471954
0.1071428582072258 0.8814148306846619 0.1881422996520996 0.10980392247438431 0.11372549086809158 0.12156862765550613
0.23719212412834167 0.8552029132843018 0.00909090880304575 0.6000000238418579 0.6039215922355652 0.5411764979362488
0.15000000596046448 0.8264645338058472 0.009486165829002857 0.572549045085907 0.5686274766921997 0.4901960790157318
0.0716748759150505 0.8136743903160095 0.9889327883720398 0.3490196168422699 0.3529411852359772 0.2980392277240753
0.011576354503631592 0.8449392318725586 0.0881422907114029 0.4313725531101227 0.42352941632270813 0.37254902720451355
0.18103447556495667 0.8732038736343384 0.01067193690687418 0.545098066329956 0.5529412031173706 0.47058823704719543
0.05197044461965561 0.8368861675262451 0.1822134405374527 0.11372549086809158 0.11372549086809158 0.11372549086809158
0.01206896547228098 0.8608874082565308 0.02806324139237404 0.10980392247438431 0.10980392247438431 0.10980392247438431
0.008128078654408455 0.9360492825508118 0.8185770511627197 0.4901960790157318 0.4745098054409027 0.43921568989753723
0.007881773635745049 0.9328911900520325 0.8395256996154785 0.4745098054409027 0.46666666865348816 0.41960784792900085
0.24113300442695618 0.9415758848190308 0.35098814964294434 0.18431372940540314 0.18431372940540314 0.18431372940540314
0.23128078877925873 0.9321016669273376 0.3600790500640869 0.3921568691730499 0.3960784375667572 0.4117647111415863
0.008374384604394436 0.9123638272285461 0.6845849752426147 0.572549045085907 0.5568627715110779 0.5098039507865906
0.02068965509533882 0.8659403324127197 0.2810276746749878 0.10588235408067703 0.10588235408067703 0.10588235408067703
0.0071428571827709675 0.8013579845428467 0.8142292499542236 0.6313725709915161 0.6352941393852234 0.6039215922355652
0.062068965286016464 0.9038370251655579 0.24743083119392395 0.04313725605607033 0.05882352963089943 0.07058823853731155
0.2376847267150879 0.9158377051353455 0.009486165829002857 0.6313725709915161 0.6196078658103943 0.5529412031173706
0.21650245785713196 0.9445760250091553 0.00909090880304575 0.43921568989753723 0.4274509847164154 0.3686274588108063
0.008620689623057842 0.8713090419769287 0.5193675756454468 0.6509804129600525 0.6549019813537598 0.6235294342041016
0.022906403988599777 0.815885066986084 0.9893280863761902 0.30980393290519714 0.2980392277240753 0.2705882489681244
0.23571428656578064 0.91946941614151 0.36086955666542053 0.47058823704719543 0.48235294222831726 0.501960813999176
0.02216748706996441 0.8990999460220337 0.16837944090366364 0.1568627506494522 0.1725490242242813 0.16862745583057404
0.007881773635745049 0.9253118634223938 0.9442687630653381 0.4000000059604645 0.3764705955982208 0.3294117748737335
0.24014778435230255 0.8694141507148743 0.9905138611793518 0.3490196168422699 0.3333333432674408 0.2862745225429535
0.14408867061138153 0.9019421935081482 0.04901185631752014 0.35686275362968445 0.3490196168422699 0.3019607961177826
0.2145320177078247 0.9373124837875366 0.3636363744735718 0.364705890417099 0.3803921639919281 0.3764705955982208
0.008374384604394436 0.9021000862121582 0.6513833999633789 0.5960784554481506 0.5921568870544434 0.5098039507865906
0.008128078654408455 0.7970945835113525 0.45494070649147034 0.6745098233222961 0.6784313917160034 0.6549019813537598
0.009605911560356617 0.9009947776794434 0.36205533146858215 0.6196078658103943 0.6274510025978088 0.6235294342041016
0.009605911560356617 0.9065213799476624 0.3375494182109833 0.5764706134796143 0.5764706134796143 0.5764706134796143
0.007881773635745049 0.8746249675750732 0.8063241243362427 0.5176470875740051 0.5137255191802979 0.4431372582912445
0.15960590541362762 0.9033633470535278 0.03241106867790222 0.5490196347236633 0.5529412031173706 0.49803921580314636
0.08768472820520401 0.8719406127929688 0.9889327883720398 0.40784314274787903 0.3960784375667572 0.3607843220233917
0.007635468151420355 0.8177798986434937 0.613043487071991 0.6745098233222961 0.6823529601097107 0.6392157077789307
0.11576354503631592 0.9238907098770142 0.3379446566104889 0.16470588743686676 0.1882352977991104 0.18039216101169586
0.009359605610370636 0.935733437538147 0.4683794379234314 0.6549019813537598 0.6549019813537598 0.6078431606292725
0.0396551713347435 0.7969366908073425 0.009881422854959965 0.4431372582912445 0.4431372582912445 0.4117647111415863
0.19310344755649567 0.8087794184684753 0.992094874382019 0.8784313797950745 0.8980392217636108 0.9137254953384399
0.08423645049333572 0.9095215797424316 0.03952569141983986 0.1568627506494522 0.16078431904315948 0.1411764770746231
0.008374384604394436 0.9396810531616211 0.7264822125434875 0.529411792755127 0.5176470875740051 0.49803921580314636
0.22512315213680267 0.9305226802825928 0.009486165829002857 0.5137255191802979 0.5137255191802979 0.41960784792900085
0.17635467648506165 0.9017843008041382 0.015019763261079788 0.13725490868091583 0.1568627506494522 0.1411764770746231
0.1701970398426056 0.9374703764915466 0.3031620681285858 0.16078431904315948 0.16078431904315948 0.15294118225574493
0.1783251166343689 0.9099952578544617 0.18498024344444275 0.1921568661928177 0.19607843458652496 0.1725490242242813
0.010837438516318798 0.9273645877838135 0.3841897249221802 0.6745098233222961 0.6901960968971252 0.686274528503418
0.024876847863197327 0.8690983653068542 0.2549407184123993 0.07058823853731155 0.0784313753247261 0.07450980693101883
0.009359605610370636 0.7980419993400574 0.24664030969142914 0.686274528503418 0.7098039388656616 0.6549019813537598
0.00911330059170723 0.9145744442939758 0.4569169878959656 0.658823549747467 0.658823549747467 0.6117647290229797
0.009852216579020023 0.9213643074035645 0.4055335819721222 0.6705882549285889 0.6784313917160034 0.6666666865348816
0.20172414183616638 0.9145744442939758 0.3644268810749054 0.43529412150382996 0.4431372582912445 0.43921568989753723
0.033497538417577744 0.8277277946472168 0.17588932812213898 0.0941176488995552 0.0941176488995552 0.0941176488995552
0.20073892176151276 0.83783358335495 0.00909090880304575 0.6117647290229797 0.6117647290229797 0.5176470875740051
0.011822660453617573 0.8386231064796448 0.03438735008239746 0.13725490868091583 0.12156862765550613 0.10980392247438431
0.12980295717716217 0.8462024331092834 0.9893280863761902 0.35686275362968445 0.35686275362968445 0.3176470696926117
0.008620689623057842 0.8454129099845886 0.46086955070495605 0.6745098233222961 0.6901960968971252 0.6352941393852234
0.008866994641721249 0.8643612861633301 0.43992096185684204 0.6745098233222961 0.6784313917160034 0.6470588445663452
0.04532019793987274 0.9369966983795166 0.010276679880917072 0.13333334028720856 0.12941177189350128 0.11372549086809158
0.08054187148809433 0.9227854013442993 0.03320158272981644 0.05882352963089943 0.06666667014360428 0.062745101749897
0.016748769208788872 0.8277277946472168 0.28853756189346313 0.13725490868091583 0.1411764770746231 0.1568627506494522
0.205911323428154 0.7929890751838684 0.007905138656497002 0.46666666865348816 0.4745098054409027 0.3921568691730499
0.0950738936662674 0.8340439200401306 0.00909090880304575 0.3450980484485626 0.3294117748737335 0.2823529541492462
0.006896551698446274 0.7910942435264587 0.8719367384910583 0.572549045085907 0.5686274766921997 0.5529412031173706
0.025123152881860733 0.9065213799476624 0.22490118443965912 0.46666666865348816 0.4588235318660736 0.4117647111415863
0.10640393942594528 0.8387809991836548 0.18656127154827118 0.1725490242242813 0.1882352977991104 0.1921568661928177
0.08472906053066254 0.8705195188522339 0.9889327883720398 0.4156862795352936 0.40392157435417175 0.3686274588108063
0.07586207240819931 0.907784640789032 0.36679843068122864 0.19607843458652496 0.19607843458652496 0.19607843458652496
0.22832512855529785 0.9066792726516724 0.9897233247756958 0.43921568989753723 0.4274509847164154 0.3921568691730499
0.09334975481033325 0.8637296557426453 0.18656127154827118 0.11372549086809158 0.11764705926179886 0.125490203499794
0.10788177698850632 0.8266224265098572 0.9889327883720398 0.3921568691730499 0.3921568691730499 0.3529411852359772
0.04433497413992882 0.8629401326179504 0.9893280863761902 0.3686274588108063 0.35686275362968445 0.32156863808631897
0.08078818023204803 0.8653087019920349 0.9889327883720398 0.35686275362968445 0.3490196168422699 0.2980392277240753
0.02142857201397419 0.8234643936157227 0.0679841861128807 0.5215686559677124 0.529411792755127 0.5098039507865906
0.2068965584039688 0.9141007661819458 0.9897233247756958 0.4274509847164154 0.4117647111415863 0.364705890417099
0.07807882130146027 0.9278383255004883 0.9893280863761902 0.40392157435417175 0.40392157435417175 0.35686275362968445
0.007635468151420355 0.8182535767555237 0.6679841876029968 0.6745098233222961 0.6784313917160034 0.6235294342041016
0.008620689623057842 0.91915363073349 0.5667984485626221 0.6196078658103943 0.6235294342041016 0.5607843399047852
0.008620689623057842 0.8525185585021973 0.4569169878959656 0.6745098233222961 0.686274528503418 0.6431372761726379
0.11871921271085739 0.8627822399139404 0.18932805955410004 0.1882352977991104 0.19607843458652496 0.1921568661928177
0.20566502213478088 0.827411949634552 0.9901185631752014 0.3843137323856354 0.3843137323856354 0.3450980484485626
0.008620689623057842 0.8676772713661194 0.5324110388755798 0.6431372761726379 0.6549019813537598 0.6196078658103943
0.007389162667095661 0.816358745098114 0.8810276389122009 0.5176470875740051 0.5215686559677124 0.46666666865348816
0.026354679837822914 0.8924680352210999 0.22569170594215393 0.0470588244497776 0.062745101749897 0.06666667014360428
0.007881773635745049 0.9049423933029175 0.852173924446106 0.46666666865348816 0.45098039507865906 0.40392157435417175
0.007635468151420355 0.832464873790741 0.6984189748764038 0.6470588445663452 0.6549019813537598 0.6039215922355652
0.06600984930992126 0.9452076554298401 0.9893280863761902 0.4156862795352936 0.4000000059604645 0.35686275362968445
0.0071428571827709675 0.7936207056045532 0.8735178112983704 0.5647059082984924 0.572549045085907 0.529411792755127
0.24334976077079773 0.805305540561676 0.9924901127815247 0.9254902005195618 0.929411768913269 0.9372549057006836
0.07906404137611389 0.913627028465271 0.9893280863761902 0.4000000059604645 0.3921568691730499 0.3450980484485626
0.1665024608373642 0.880783200263977 0.011067193932831287 0.5529412031173706 0.5490196347236633 0.47058823704719543
0.009605911560356617 0.9150481820106506 0.32608696818351746 0.32156863808631897 0.30588236451148987 0.29411765933036804
0.15960590541362762 0.9467867016792297 0.005928853526711464 0.24313725531101227 0.23137255012989044 0.20392157137393951
0.021182265132665634 0.8875730037689209 0.9893280863761902 0.3019607961177826 0.29411765933036804 0.24705882370471954
0.008128078654408455 0.815885066986084 0.48181816935539246 0.686274528503418 0.6941176652908325 0.6392157077789307
0.011576354503631592 0.8465182185173035 0.1039525717496872 0.501960813999176 0.5137255191802979 0.4470588266849518
0.008374384604394436 0.8536238670349121 0.539130449295044 0.6549019813537598 0.6549019813537598 0.6078431606292725
0.007881773635745049 0.8690983653068542 0.7581027746200562 0.5568627715110779 0.5607843399047852 0.5058823823928833
0.20394088327884674 0.843675971031189 0.9901185631752014 0.364705890417099 0.3529411852359772 0.29411765933036804
0.12019704282283783 0.822043240070343 0.18577075004577637 0.20392157137393951 0.2078431397676468 0.21568627655506134
0.2305418699979782 0.8732038736343384 0.9905138611793518 0.40392157435417175 0.38823530077934265 0.3450980484485626
0.22955664992332458 0.8673614263534546 0.9905138611793518 0.4000000059604645 0.40784314274787903 0.32549020648002625
0.0278325118124485 0.8417811393737793 0.22529643774032593 0.08627451211214066 0.0784313753247261 0.08235294371843338
0.009605911560356617 0.8779409527778625 0.32569169998168945 0.6901960968971252 0.6980392336845398 0.6549019813537598
0.010837438516318798 0.9292594194412231 0.38221344351768494 0.6823529601097107 0.686274528503418 0.6941176652908325
0.1741379350423813 0.9013106226921082 0.04426877573132515 0.4901960790157318 0.47843137383461 0.40392157435417175
0.0071428571827709675 0.821885347366333 0.9249011874198914 0.45490196347236633 0.45098039507865906 0.3803921639919281
0.20935960114002228 0.8935733437538147 0.009486165829002857 0.49803921580314636 0.4901960790157318 0.40784314274787903
0.05344827473163605 0.9035212397575378 0.1715414971113205 0.13725490868091583 0.12156862765550613 0.11764705926179886
0.008128078654408455 0.799778938293457 0.45098814368247986 0.6823529601097107 0.686274528503418 0.6549019813537598
0.1667487621307373 0.8839412331581116 0.011067193932831287 0.5686274766921997 0.5647059082984924 0.4941176474094391
0.015517241321504116 0.8987841606140137 0.29169961810112 0.13333334028720856 0.1568627506494522 0.14901961386203766
0.14433497190475464 0.9021000862121582 0.011857707053422928 0.529411792755127 0.5333333611488342 0.47843137383461
0.009359605610370636 0.9401547312736511 0.03952569141983986 0.09803921729326248 0.08235294371843338 0.0784313753247261
0.007389162667095661 0.8637296557426453 0.9727272987365723 0.34117648005485535 0.32549020648002625 0.2823529541492462
0.1864532083272934 0.8411495089530945 0.009486165829002857 0.572549045085907 0.5607843399047852 0.4941176474094391
0.2140394151210785 0.930364727973938 0.34071147441864014 0.18039216101169586 0.18039216101169586 0.1725490242242813
0.1273398995399475 0.9152060747146606 0.07391304522752762 0.2078431397676468 0.21568627655506134 0.20392157137393951
0.06995073705911636 0.9366808533668518 0.0181818176060915 0.09019608050584793 0.09019608050584793 0.08235294371843338
0.08916255831718445 0.8315174579620361 0.9889327883720398 0.34117648005485535 0.3333333432674408 0.2862745225429535
0.09162561595439911 0.9344702363014221 0.9893280863761902 0.42352941632270813 0.3960784375667572 0.35686275362968445
0.12339901179075241 0.9450497627258301 0.072727270424366 0.239215686917305 0.24705882370471954 0.22745098173618317
0.07857143133878708 0.9335228204727173 0.046640317887067795 0.06666667014360428 0.06666667014360428 0.06666667014360428
0.009359605610370636 0.9459971785545349 0.05573122575879097 0.529411792755127 0.5254902243614197 0.4431372582912445
0.035467978566884995 0.8544133901596069 0.9893280863761902 0.3686274588108063 0.35686275362968445 0.32156863808631897
0.007389162667095661 0.8618348240852356 0.9395256638526917 0.40392157435417175 0.3921568691730499 0.32549020648002625
0.15246304869651794 0.9145744442939758 0.9897233247756958 0.3843137323856354 0.3686274588108063 0.32549020648002625
0.10935960710048676 0.8746249675750732 0.9893280863761902 0.3529411852359772 0.3529411852359772 0.3137255012989044
0.03201970458030701 0.8007263541221619 0.9893280863761902 0.34117648005485535 0.3294117748737335 0.29411765933036804
0.009359605610370636 0.9090478420257568 0.4158102869987488 0.3019607961177826 0.2862745225429535 0.250980406999588
0.007881773635745049 0.8501499891281128 0.6960474252700806 0.6196078658103943 0.6196078658103943 0.572549045085907
0.12807881832122803 0.8302541971206665 0.9889327883720398 0.3686274588108063 0.3607843220233917 0.30980393290519714
0.1347290575504303 0.8998894691467285 0.011857707053422928 0.43529412150382996 0.4431372582912445 0.3921568691730499
0.010591132566332817 0.7972524762153625 0.03399209305644035 0.19607843458652496 0.16862745583057404 0.14509804546833038
0.00911330059170723 0.7970945835113525 0.10118576884269714 0.6078431606292725 0.615686297416687 0.5607843399047852
0.007389162667095661 0.8245697021484375 0.7758893370628357 0.6235294342041016 0.6313725709915161 0.5803921818733215
0.21330049633979797 0.8060950636863708 0.007905138656497002 0.5921568870544434 0.5803921818733215 0.5058823823928833
0.06699507683515549 0.8468340635299683 0.18379446864128113 0.0941176488995552 0.10196078568696976 0.09803921729326248
0.008128078654408455 0.8809410929679871 0.7225296497344971 0.572549045085907 0.5647059082984924 0.5137255191802979
0.02660098485648632 0.886309802532196 0.2442687749862671 0.1411764770746231 0.15294118225574493 0.1725490242242813
0.17216749489307404 0.9035212397575378 0.27826085686683655 0.14509804546833038 0.15294118225574493 0.14901961386203766
0.17315271496772766 0.8424127697944641 0.009881422854959965 0.48235294222831726 0.5098039507865906 0.4470588266849518
0.05443349853157997 0.8949944972991943 0.17905138432979584 0.09803921729326248 0.10588235408067703 0.10196078568696976
0.06477832794189453 0.8199905157089233 0.17430830001831055 0.23137255012989044 0.24313725531101227 0.26274511218070984
0.08423645049333572 0.880467414855957 0.007905138656497002 0.250980406999588 0.239215686917305 0.21960784494876862
0.008128078654408455 0.799936830997467 0.4573122560977936 0.6784313917160034 0.6823529601097107 0.658823549747467
0.008620689623057842 0.8610453009605408 0.5051383376121521 0.6470588445663452 0.6705882549285889 0.6313725709915161
0.008128078654408455 0.8679930567741394 0.6138339638710022 0.6352941393852234 0.6352941393852234 0.5882353186607361
0.23201970756053925 0.897363007068634 0.009486165829002857 0.501960813999176 0.5137255191802979 0.43921568989753723
0.008620689623057842 0.9395231604576111 0.1920948624610901 0.06666667014360428 0.062745101749897 0.054901961237192154
0.007635468151420355 0.8738354444503784 0.8537549376487732 0.48627451062202454 0.46666666865348816 0.38823530077934265
0.17266009747982025 0.8365703225135803 0.9897233247756958 0.3764705955982208 0.3764705955982208 0.3294117748737335
