0.5477832555770874 0.4304437041282654 0.007905138656497002 0.3529411852359772 0.3607843220233917 0.34117648005485535
0.7125615477561951 0.4217590391635895 0.006719367578625679 0.054901961237192154 0.062745101749897 0.05098039284348488
0.6339901685714722 0.4710247814655304 0.011462450958788395 0.1411764770746231 0.1411764770746231 0.13333334028720856
0.7174876928329468 0.4533396363258362 0.0071146246045827866 0.4000000059604645 0.40392157435417175 0.37254902720451355
0.6450738906860352 0.518711507320404 0.9901185631752014 0.3686274588108063 0.35686275362968445 0.32156863808631897
0.6918719410896301 0.5430285930633545 0.005928853526711464 0.5058823823928833 0.5098039507865906 0.45490196347236633
0.5497536659240723 0.5032370090484619 0.9889327883720398 0.4274509847164154 0.41960784792900085 0.3686274588108063
0.697044312953949 0.4317069351673126 0.29881423711776733 0.4745098054409027 0.4745098054409027 0.4431372582912445
0.4997536838054657 0.5419232845306396 0.003952569328248501 0.22745098173618317 0.23529411852359772 0.23137255012989044
0.5379310250282288 0.5070266723632812 0.9885375499725342 0.38823530077934265 0.38823530077934265 0.3490196168422699
0.625123143196106 0.48649927973747253 0.006719367578625679 0.2666666805744171 0.27450981736183167 0.2549019753932953
0.5216748714447021 0.45507657527923584 0.9893280863761902 0.4000000059604645 0.38823530077934265 0.3529411852359772
0.6118226647377014 0.49044686555862427 0.9901185631752014 0.40784314274787903 0.4117647111415863 0.35686275362968445
0.5990147590637207 0.5499762892723083 0.9901185631752014 0.40784314274787903 0.4000000059604645 0.3529411852359772
0.6243842244148254 0.40138953924179077 0.9893280863761902 0.3803921639919281 0.364705890417099 0.3607843220233917
0.6706896424293518 0.465182363986969 0.9901185631752014 0.37254902720451355 0.35686275362968445 0.3450980484485626
0.693842351436615 0.5469761490821838 0.9901185631752014 0.3686274588108063 0.35686275362968445 0.33725491166114807
0.6899014711380005 0.4542870819568634 0.29802370071411133 0.5098039507865906 0.5372549295425415 0.5058823823928833
0.6305418610572815 0.5332385897636414 0.006719367578625679 0.20392157137393951 0.21176470816135406 0.2078431397676468
0.6788177490234375 0.4396020770072937 0.008695651777088642 0.5921568870544434 0.5960784554481506 0.5254902243614197
0.6152709126472473 0.5157113671302795 0.005928853526711464 0.2235294133424759 0.23137255012989044 0.21960784494876862
0.5081281065940857 0.42649611830711365 0.9889327883720398 0.40784314274787903 0.3960784375667572 0.3607843220233917
0.5637931227684021 0.5379756689071655 0.9897233247756958 0.40392157435417175 0.3960784375667572 0.3450980484485626
0.5231527090072632 0.5441339015960693 0.004347825888544321 0.3176470696926117 0.34117648005485535 0.3333333432674408
0.6965517401695251 0.40628454089164734 0.005928853526711464 0.30588236451148987 0.3176470696926117 0.29019609093666077
0.7312808036804199 0.4797094464302063 0.9897233247756958 0.3686274588108063 0.364705890417099 0.3490196168422699
0.7046797871589661 0.4312332272529602 0.1774703562259674 0.09019608050584793 0.09019608050584793 0.09019608050584793
0.7369458079338074 0.5223432779312134 0.2343873530626297 0.14901961386203766 0.14901961386203766 0.1411764770746231
0.5830049514770508 0.5026053786277771 0.002766798483207822 0.20392157137393951 0.21176470816135406 0.1921568661928177
0.6775861978530884 0.40896889567375183 0.9901185631752014 0.40784314274787903 0.3921568691730499 0.38823530077934265
0.6972906589508057 0.42365387082099915 0.29881423711776733 0.45490196347236633 0.4745098054409027 0.4588235318660736
0.550000011920929 0.4171798527240753 0.9893280863761902 0.3921568691730499 0.3803921639919281 0.3529411852359772
0.7140393853187561 0.4446549713611603 0.17984189093112946 0.0470588244497776 0.062745101749897 0.06666667014360428
0.5320196747779846 0.5250276327133179 0.9889327883720398 0.37254902720451355 0.3764705955982208 0.32156863808631897
0.5820196866989136 0.40391600131988525 0.28853756189346313 0.05882352963089943 0.07450980693101883 0.0784313753247261
0.6753694415092468 0.42744356393814087 0.9901185631752014 0.34117648005485535 0.32549020648002625 0.32156863808631897
0.4928571283817291 0.5247118473052979 0.005138339940458536 0.1568627506494522 0.1725490242242813 0.18431372940540314
0.6495074033737183 0.5051318407058716 0.005533596966415644 0.43529412150382996 0.43921568989753723 0.40784314274787903
0.6073891520500183 0.4967629909515381 0.9901185631752014 0.3843137323856354 0.3843137323856354 0.33725491166114807
0.5837438702583313 0.5417653322219849 0.9897233247756958 0.3764705955982208 0.3764705955982208 0.33725491166114807
0.6428571343421936 0.5247118473052979 0.2964426875114441 0.6392157077789307 0.6431372761726379 0.6509804129600525
0.7056650519371033 0.49834200739860535 0.9897233247756958 0.3607843220233917 0.3607843220233917 0.3294117748737335
0.6278325319290161 0.4879204034805298 0.9901185631752014 0.4156862795352936 0.40392157435417175 0.3686274588108063
0.6285714507102966 0.523922324180603 0.2964426875114441 0.6431372761726379 0.6509804129600525 0.6470588445663452
0.7320197224617004 0.4077056646347046 0.9909090995788574 0.40392157435417175 0.4000000059604645 0.3843137323856354
0.6751231551170349 0.39807358384132385 0.005533596966415644 0.3137255012989044 0.3333333432674408 0.30980393290519714
0.7251231670379639 0.46170851588249207 0.9897233247756958 0.3803921639919281 0.3764705955982208 0.3607843220233917
0.6536945700645447 0.4168640375137329 0.9897233247756958 0.3803921639919281 0.364705890417099 0.3686274588108063
0.6674876809120178 0.535291314125061 0.005138339940458536 0.10980392247438431 0.11764705926179886 0.11372549086809158
0.6408867239952087 0.5411337614059448 0.9905138611793518 0.3764705955982208 0.364705890417099 0.3294117748737335
0.6948275566101074 0.44970786571502686 0.29802370071411133 0.501960813999176 0.5333333611488342 0.4901960790157318
0.6857143044471741 0.42949628829956055 0.010276679880917072 0.5843137502670288 0.5960784554481506 0.5607843399047852
0.6960591077804565 0.4397599995136261 0.0063241105526685715 0.5607843399047852 0.545098066329956 0.501960813999176
0.6633005142211914 0.4048634171485901 0.006719367578625679 0.21568627655506134 0.23137255012989044 0.22745098173618317
0.7110837697982788 0.4317069351673126 0.0063241105526685715 0.3921568691730499 0.3843137323856354 0.33725491166114807
0.6610837578773499 0.3996526002883911 0.29960474371910095 0.5882353186607361 0.5882353186607361 0.6196078658103943
0.6940886974334717 0.5425548553466797 0.9901185631752014 0.33725491166114807 0.3333333432674408 0.3176470696926117
0.5955665111541748 0.489025741815567 0.9901185631752014 0.3921568691730499 0.3960784375667572 0.34117648005485535
0.5871921181678772 0.5324490666389465 0.2964426875114441 0.5960784554481506 0.5882353186607361 0.5921568870544434
0.5295566320419312 0.47623559832572937 0.9889327883720398 0.3294117748737335 0.3333333432674408 0.3019607961177826
0.6120689511299133 0.419074684381485 0.9897233247756958 0.4000000059604645 0.38823530077934265 0.3607843220233917
0.5610837340354919 0.4476551413536072 0.011462450958788395 0.41960784792900085 0.43921568989753723 0.4156862795352936
0.7312808036804199 0.42996999621391296 0.29881423711776733 0.4941176474094391 0.501960813999176 0.48235294222831726
0.6581280827522278 0.42396968603134155 0.29920947551727295 0.4431372582912445 0.45098039507865906 0.4313725531101227
0.6724137663841248 0.4195483922958374 0.006719367578625679 0.05098039284348488 0.06666667014360428 0.062745101749897
0.7275862097740173 0.418916791677475 0.006719367578625679 0.05098039284348488 0.05098039284348488 0.019607843831181526
0.6539409160614014 0.5449234247207642 0.2968379557132721 0.6078431606292725 0.6117647290229797 0.6196078658103943
0.7241379022598267 0.4940786361694336 0.9897233247756958 0.32549020648002625 0.3176470696926117 0.32156863808631897
0.6751231551170349 0.5389230847358704 0.9901185631752014 0.3450980484485626 0.34117648005485535 0.32549020648002625
0.7142857313156128 0.4763934910297394 0.1723320186138153 0.07058823853731155 0.0784313753247261 0.07450980693101883
0.5266009569168091 0.529291033744812 0.005138339940458536 0.1882352977991104 0.20392157137393951 0.20000000298023224
0.6458128094673157 0.45807674527168274 0.9901185631752014 0.3843137323856354 0.3843137323856354 0.3529411852359772
0.648522138595581 0.5386072993278503 0.2968379557132721 0.6352941393852234 0.6392157077789307 0.6549019813537598
0.732758641242981 0.5108163356781006 0.2968379557132721 0.6000000238418579 0.5960784554481506 0.615686297416687
0.5 0.41575872898101807 0.005533596966415644 0.23137255012989044 0.239215686917305 0.21960784494876862
0.6204433441162109 0.4280751645565033 0.0031620552763342857 0.27450981736183167 0.2666666805744171 0.21568627655506134
0.7219212055206299 0.5485551953315735 0.2972331941127777 0.5372549295425415 0.5529412031173706 0.5568627715110779
0.6290640234947205 0.49518394470214844 0.2972331941127777 0.5960784554481506 0.615686297416687 0.6000000238418579
0.7059113383293152 0.523922324180603 0.9897233247756958 0.32549020648002625 0.3137255012989044 0.29411765933036804
0.5965517163276672 0.4448128938674927 0.01067193690687418 0.22745098173618317 0.23137255012989044 0.21176470816135406
0.5598522424697876 0.40154746174812317 0.004347825888544321 0.3803921639919281 0.3843137323856354 0.3294117748737335
0.7056650519371033 0.4936049282550812 0.007509881630539894 0.30980393290519714 0.3137255012989044 0.29411765933036804
0.5997536778450012 0.483499139547348 0.2976284623146057 0.545098066329956 0.545098066329956 0.5372549295425415
0.5381773114204407 0.4197063148021698 0.0035573123022913933 0.5137255191802979 0.501960813999176 0.43529412150382996
0.6066502332687378 0.5490288734436035 0.004347825888544321 0.21568627655506134 0.2235294133424759 0.21176470816135406
0.7209359407424927 0.45286592841148376 0.1612648218870163 0.08627451211214066 0.08627451211214066 0.08627451211214066
0.6519704461097717 0.43297016620635986 0.29881423711776733 0.4117647111415863 0.4431372582912445 0.4000000059604645
0.4965517222881317 0.5207642316818237 0.9889327883720398 0.4117647111415863 0.40392157435417175 0.3529411852359772
0.6591132879257202 0.4362861216068268 0.006719367578625679 0.32156863808631897 0.3294117748737335 0.2862745225429535
0.6731526851654053 0.40060004591941833 0.005928853526711464 0.13725490868091583 0.13725490868091583 0.1764705926179886
0.6325123310089111 0.4482867419719696 0.9897233247756958 0.3333333432674408 0.32156863808631897 0.3019607961177826
0.4992610812187195 0.41228485107421875 0.004743082914501429 0.21176470816135406 0.21960784494876862 0.20000000298023224
0.6162561774253845 0.44354966282844543 0.010276679880917072 0.062745101749897 0.05882352963089943 0.05098039284348488
0.504679799079895 0.4534975588321686 0.01067193690687418 0.4588235318660736 0.5058823823928833 0.5058823823928833
0.7096059322357178 0.4661298096179962 0.16956521570682526 0.08235294371843338 0.08235294371843338 0.08235294371843338
0.5152709484100342 0.5468182563781738 0.9901185631752014 0.3803921639919281 0.3843137323856354 0.3294117748737335
0.5970443487167358 0.5485551953315735 0.2964426875114441 0.6470588445663452 0.658823549747467 0.686274528503418
0.5726600885391235 0.396968275308609 0.9889327883720398 0.38823530077934265 0.3764705955982208 0.35686275362968445
0.543596088886261 0.43297016620635986 0.00830039568245411 0.41960784792900085 0.4431372582912445 0.4274509847164154
0.7189655303955078 0.5098689198493958 0.9897233247756958 0.37254902720451355 0.3686274588108063 0.3529411852359772
0.697044312953949 0.48681509494781494 0.9897233247756958 0.3764705955982208 0.3607843220233917 0.3490196168422699
0.6541872024536133 0.44733932614326477 0.9901185631752014 0.38823530077934265 0.3843137323856354 0.3686274588108063
0.7029556632041931 0.5259750485420227 0.2968379557132721 0.5921568870544434 0.5882353186607361 0.6078431606292725
0.7266010046005249 0.5166587829589844 0.16956521570682526 0.062745101749897 0.062745101749897 0.062745101749897
0.6428571343421936 0.551713228225708 0.004347825888544321 0.23137255012989044 0.239215686917305 0.21960784494876862
0.697044312953949 0.42649611830711365 0.9901185631752014 0.3764705955982208 0.37254902720451355 0.364705890417099
0.5248768329620361 0.453971266746521 0.01304347813129425 0.47058823704719543 0.5058823823928833 0.501960813999176
0.5716748833656311 0.5310279726982117 0.9893280863761902 0.4000000059604645 0.40392157435417175 0.3490196168422699
0.6337438225746155 0.4462340176105499 0.9897233247756958 0.38823530077934265 0.3764705955982208 0.35686275362968445
0.6288177371025085 0.49613136053085327 0.9901185631752014 0.42352941632270813 0.4313725531101227 0.38823530077934265
0.6302955746650696 0.5097110271453857 0.2968379557132721 0.6313725709915161 0.6392157077789307 0.6274510025978088
0.7012315392494202 0.3993368148803711 0.991304337978363 0.40784314274787903 0.3921568691730499 0.3960784375667572
0.6635468006134033 0.44718143343925476 0.013833992183208466 0.2705882489681244 0.27450981736183167 0.250980406999588
0.6379310488700867 0.46944576501846313 0.011857707053422928 0.10980392247438431 0.10980392247438431 0.10980392247438431
0.4958128035068512 0.45239222049713135 0.9897233247756958 0.4117647111415863 0.40392157435417175 0.35686275362968445
0.6450738906860352 0.5416074395179749 0.2968379557132721 0.615686297416687 0.6274510025978088 0.6627451181411743
0.5470443367958069 0.4765513837337494 0.004743082914501429 0.4274509847164154 0.45490196347236633 0.42352941632270813
0.6088669896125793 0.5086057186126709 0.9901185631752014 0.37254902720451355 0.3764705955982208 0.32156863808631897
0.5480295419692993 0.4462340176105499 0.011462450958788395 0.47058823704719543 0.4941176474094391 0.48627451062202454
0.6445812582969666 0.48160430788993835 0.009486165829002857 0.4000000059604645 0.3843137323856354 0.34117648005485535
0.5940886735916138 0.39775776863098145 0.9893280863761902 0.37254902720451355 0.3686274588108063 0.3607843220233917
0.6724137663841248 0.5008684396743774 0.005928853526711464 0.501960813999176 0.5058823823928833 0.48627451062202454
0.7083743810653687 0.546186625957489 0.9897233247756958 0.34117648005485535 0.32549020648002625 0.3137255012989044
0.601477861404419 0.49913153052330017 0.9901185631752014 0.4313725531101227 0.42352941632270813 0.37254902720451355
0.628078818321228 0.48444655537605286 0.007509881630539894 0.2862745225429535 0.29411765933036804 0.27450981736183167
0.6822659969329834 0.4708668887615204 0.2976284623146057 0.6039215922355652 0.6274510025978088 0.6117647290229797
0.6862068772315979 0.3964945375919342 0.005533596966415644 0.3921568691730499 0.4117647111415863 0.38823530077934265
0.6401478052139282 0.5177640914916992 0.2964426875114441 0.6392157077789307 0.6470588445663452 0.6431372761726379
0.6967980265617371 0.43249645829200745 0.005928853526711464 0.5686274766921997 0.5647059082984924 0.4941176474094391
0.5519704222679138 0.4774988293647766 0.004347825888544321 0.40392157435417175 0.4313725531101227 0.4000000059604645
0.5748768448829651 0.44907626509666443 0.9897233247756958 0.41960784792900085 0.4117647111415863 0.364705890417099
0.5288177132606506 0.4309174120426178 0.9893280863761902 0.3764705955982208 0.3764705955982208 0.3450980484485626
0.4965517222881317 0.5247118473052979 0.2972331941127777 0.5764706134796143 0.6000000238418579 0.6000000238418579
0.5758620500564575 0.4767093062400818 0.9897233247756958 0.4117647111415863 0.40392157435417175 0.35686275362968445
0.7103448510169983 0.4367598295211792 0.18102766573429108 0.05882352963089943 0.07450980693101883 0.07058823853731155
0.6103448271751404 0.47007736563682556 0.9901185631752014 0.40784314274787903 0.4000000059604645 0.3529411852359772
0.6229063868522644 0.47576189041137695 0.2976284623146057 0.5254902243614197 0.5333333611488342 0.5215686559677124
0.6613300442695618 0.48413074016571045 0.2972331941127777 0.6392157077789307 0.6509804129600525 0.6235294342041016
0.5445812940597534 0.4138638973236084 0.0035573123022913933 0.4901960790157318 0.46666666865348816 0.40392157435417175
0.6894088387489319 0.49044686555862427 0.9901185631752014 0.3607843220233917 0.35686275362968445 0.33725491166114807
0.5071428418159485 0.5261329412460327 0.9889327883720398 0.3921568691730499 0.40392157435417175 0.33725491166114807
0.6290640234947205 0.41860097646713257 0.9897233247756958 0.3921568691730499 0.37254902720451355 0.3607843220233917
0.7362068891525269 0.5056055784225464 0.007905138656497002 0.29019609093666077 0.250980406999588 0.21568627655506134
0.615517258644104 0.5525027513504028 0.2964426875114441 0.6352941393852234 0.6470588445663452 0.6823529601097107
0.6918719410896301 0.47797253727912903 0.2972331941127777 0.6823529601097107 0.686274528503418 0.6549019813537598
0.6152709126472473 0.4542870819568634 0.29841896891593933 0.4470588266849518 0.4588235318660736 0.4156862795352936
0.6078817844390869 0.4247592091560364 0.9897233247756958 0.364705890417099 0.364705890417099 0.3333333432674408
0.6211822628974915 0.46676141023635864 0.9901185631752014 0.3960784375667572 0.3843137323856354 0.35686275362968445
0.5859605669975281 0.5033949017524719 0.2964426875114441 0.11764705926179886 0.11764705926179886 0.125490203499794
0.5376847386360168 0.5365545749664307 0.0063241105526685715 0.34117648005485535 0.3686274588108063 0.34117648005485535
0.5243842601776123 0.4771830141544342 0.9889327883720398 0.3176470696926117 0.32156863808631897 0.2666666805744171
0.5830049514770508 0.4544449746608734 0.9897233247756958 0.3921568691730499 0.3921568691730499 0.3607843220233917
0.5327585935592651 0.5438181161880493 0.004743082914501429 0.3529411852359772 0.3764705955982208 0.3607843220233917
0.7357142567634583 0.49297332763671875 0.00830039568245411 0.21960784494876862 0.21960784494876862 0.1882352977991104
0.7352216839790344 0.4223906397819519 0.21581028401851654 0.14901961386203766 0.14901961386203766 0.14901961386203766
0.6024630665779114 0.4451286792755127 0.29841896891593933 0.4156862795352936 0.43921568989753723 0.4000000059604645
0.5938423871994019 0.5152376294136047 0.2968379557132721 0.5960784554481506 0.6117647290229797 0.615686297416687
0.5214285850524902 0.39523133635520935 0.9885375499725342 0.38823530077934265 0.3764705955982208 0.35686275362968445
0.6869457960128784 0.4572872221469879 0.0063241105526685715 0.48627451062202454 0.47843137383461 0.4313725531101227
0.6704433560371399 0.4159166216850281 0.9897233247756958 0.35686275362968445 0.3529411852359772 0.3450980484485626
0.7337438464164734 0.49028897285461426 0.2968379557132721 0.6627451181411743 0.6627451181411743 0.6941176652908325
0.624876856803894 0.5324490666389465 0.9901185631752014 0.40392157435417175 0.40392157435417175 0.35686275362968445
0.6699507236480713 0.4187588691711426 0.29920947551727295 0.43529412150382996 0.4745098054409027 0.43921568989753723
0.5184729099273682 0.5471340417861938 0.004743082914501429 0.33725491166114807 0.3607843220233917 0.3529411852359772
0.6418719291687012 0.41812726855278015 0.005138339940458536 0.15294118225574493 0.14901961386203766 0.12941177189350128
0.6347290873527527 0.48681509494781494 0.9901185631752014 0.4117647111415863 0.4117647111415863 0.3803921639919281
0.5662561655044556 0.49265751242637634 0.9897233247756958 0.4274509847164154 0.4117647111415863 0.3764705955982208
0.517241358757019 0.5262908339500427 0.003952569328248501 0.125490203499794 0.12941177189350128 0.13725490868091583
0.49778324365615845 0.3968103528022766 0.0023715414572507143 0.13333334028720856 0.1411764770746231 0.13725490868091583
0.5682265758514404 0.419232577085495 0.005533596966415644 0.24705882370471954 0.23529411852359772 0.2078431397676468
0.6034482717514038 0.43281224370002747 0.9897233247756958 0.38823530077934265 0.3764705955982208 0.3490196168422699
0.7073891758918762 0.5109742879867554 0.2968379557132721 0.6509804129600525 0.6470588445663452 0.6705882549285889
0.5068965554237366 0.534817636013031 0.28893280029296875 0.11372549086809158 0.11372549086809158 0.12156862765550613
0.6677339673042297 0.44986578822135925 0.29841896891593933 0.4627451002597809 0.48627451062202454 0.43921568989753723
0.5054187178611755 0.5079740881919861 0.2972331941127777 0.5607843399047852 0.5686274766921997 0.5568627715110779
0.7155172228813171 0.524238109588623 0.007509881630539894 0.4431372582912445 0.4156862795352936 0.3921568691730499
0.6770936250686646 0.5142902135848999 0.2964426875114441 0.6549019813537598 0.6549019813537598 0.6549019813537598
0.6960591077804565 0.5483973026275635 0.9901185631752014 0.3450980484485626 0.3333333432674408 0.3137255012989044
0.6332512497901917 0.5360808372497559 0.9905138611793518 0.4000000059604645 0.38823530077934265 0.3607843220233917
0.5 0.54018634557724 0.003952569328248501 0.19607843458652496 0.20392157137393951 0.20000000298023224
0.5374384522438049 0.5172904133796692 0.9885375499725342 0.4000000059604645 0.3921568691730499 0.34117648005485535
0.673399031162262 0.42696982622146606 0.29881423711776733 0.4470588266849518 0.4588235318660736 0.4313725531101227
0.4931034445762634 0.4509710967540741 0.2960474193096161 0.572549045085907 0.5764706134796143 0.5960784554481506
0.509605884552002 0.41860097646713257 0.2964426875114441 0.5960784554481506 0.6039215922355652 0.5921568870544434
0.5827586054801941 0.4765513837337494 0.9897233247756958 0.43529412150382996 0.4274509847164154 0.3803921639919281
0.5278325080871582 0.46376124024391174 0.9889327883720398 0.3176470696926117 0.32156863808631897 0.29019609093666077
0.5120689868927002 0.45033949613571167 0.011067193932831287 0.4627451002597809 0.501960813999176 0.5058823823928833
0.6864532232284546 0.5506079196929932 0.9901185631752014 0.33725491166114807 0.32549020648002625 0.30588236451148987
0.5812807679176331 0.4624980390071869 0.01067193690687418 0.27843138575553894 0.2823529541492462 0.26274511218070984
0.5822660326957703 0.4252329170703888 0.9893280863761902 0.40392157435417175 0.3921568691730499 0.37254902720451355
0.6445812582969666 0.4546028673648834 0.013438735157251358 0.10588235408067703 0.10588235408067703 0.10588235408067703
0.6593596339225769 0.4452866017818451 0.29841896891593933 0.43921568989753723 0.45098039507865906 0.4156862795352936
0.5310344696044922 0.4201800227165222 0.9889327883720398 0.35686275362968445 0.32549020648002625 0.3137255012989044
0.7332512140274048 0.3991788923740387 0.14822134375572205 0.08235294371843338 0.08627451211214066 0.0941176488995552
0.6216748952865601 0.4367598295211792 0.9897233247756958 0.4117647111415863 0.4000000059604645 0.37254902720451355
0.6113300323486328 0.4201800227165222 0.0035573123022913933 0.13333334028720856 0.12156862765550613 0.10196078568696976
0.7293103337287903 0.4187588691711426 0.18893280625343323 0.03529411926865578 0.03921568766236305 0.0470588244497776
0.6586207151412964 0.4744986593723297 0.005533596966415644 0.3490196168422699 0.3450980484485626 0.3294117748737335
0.706403911113739 0.47339335083961487 0.17312252521514893 0.0784313753247261 0.0784313753247261 0.0784313753247261
0.6596059203147888 0.534817636013031 0.005138339940458536 0.16470588743686676 0.16470588743686676 0.1568627506494522
0.7231526970863342 0.4853939712047577 0.1822134405374527 0.09019608050584793 0.0941176488995552 0.10196078568696976
0.676354706287384 0.4910784661769867 0.0063241105526685715 0.49803921580314636 0.48235294222831726 0.47058823704719543
0.5650246143341064 0.45002368092536926 0.9897233247756958 0.4117647111415863 0.4000000059604645 0.364705890417099
0.6374384164810181 0.5427127480506897 0.9905138611793518 0.37254902720451355 0.3607843220233917 0.32549020648002625
0.7221674919128418 0.5285015106201172 0.9897233247756958 0.34117648005485535 0.3294117748737335 0.3019607961177826
0.732758641242981 0.3994947075843811 0.17312252521514893 0.062745101749897 0.062745101749897 0.054901961237192154
0.49827587604522705 0.5420811772346497 0.003952569328248501 0.21960784494876862 0.22745098173618317 0.2235294133424759
0.6504926085472107 0.45255014300346375 0.014229249209165573 0.12156862765550613 0.12941177189350128 0.125490203499794
0.6307882070541382 0.5313437581062317 0.2964426875114441 0.6392157077789307 0.6509804129600525 0.6705882549285889
0.6751231551170349 0.41575872898101807 0.9901185631752014 0.4000000059604645 0.3960784375667572 0.38823530077934265
0.7123152613639832 0.5362387299537659 0.9897233247756958 0.35686275362968445 0.34117648005485535 0.3294117748737335
0.7135468125343323 0.41291648149490356 0.0071146246045827866 0.04313725605607033 0.03921568766236305 0.0313725508749485
0.496798038482666 0.41212695837020874 0.9885375499725342 0.4000000059604645 0.38823530077934265 0.3686274588108063
0.639162540435791 0.5483973026275635 0.005928853526711464 0.2078431397676468 0.21568627655506134 0.20392157137393951
0.7014778256416321 0.5002368688583374 0.2964426875114441 0.6823529601097107 0.6745098233222961 0.6784313917160034
0.7362068891525269 0.4798673689365387 0.19683794677257538 0.0784313753247261 0.0784313753247261 0.0784313753247261
0.5795566439628601 0.41196906566619873 0.291304349899292 0.0470588244497776 0.0470588244497776 0.03921568766236305
0.7369458079338074 0.5267645716667175 0.19565217196941376 0.062745101749897 0.062745101749897 0.062745101749897
0.6635468006134033 0.4542870819568634 0.9901185631752014 0.3921568691730499 0.3803921639919281 0.3607843220233917
0.5349753499031067 0.3990209996700287 0.9889327883720398 0.3764705955982208 0.364705890417099 0.33725491166114807
0.7120689749717712 0.43218064308166504 0.1972332000732422 0.04313725605607033 0.0470588244497776 0.054901961237192154
0.5366995334625244 0.49913153052330017 0.9885375499725342 0.3450980484485626 0.3450980484485626 0.3137255012989044
0.6179803013801575 0.48476237058639526 0.9901185631752014 0.3960784375667572 0.3960784375667572 0.35686275362968445
0.6940886974334717 0.4996052384376526 0.0071146246045827866 0.3803921639919281 0.3607843220233917 0.3450980484485626
0.5029556751251221 0.41560080647468567 0.005138339940458536 0.26274511218070984 0.2705882489681244 0.250980406999588
0.6830049157142639 0.424601286649704 0.0063241105526685715 0.1568627506494522 0.16470588743686676 0.21568627655506134
0.610837459564209 0.4691299498081207 0.9901185631752014 0.40392157435417175 0.3960784375667572 0.3490196168422699
0.6568965315818787 0.4992894232273102 0.004347825888544321 0.34117648005485535 0.33725491166114807 0.3176470696926117
0.6157635450363159 0.5427127480506897 0.005138339940458536 0.19607843458652496 0.21960784494876862 0.20392157137393951
0.5396551489830017 0.43502289056777954 0.008695651777088642 0.4470588266849518 0.47058823704719543 0.4627451002597809
0.624876856803894 0.4795515537261963 0.9901185631752014 0.3960784375667572 0.3843137323856354 0.35686275362968445
0.7125615477561951 0.4662877023220062 0.9897233247756958 0.40784314274787903 0.3921568691730499 0.3803921639919281
0.6847290396690369 0.4340754747390747 0.011857707053422928 0.48627451062202454 0.47843137383461 0.4313725531101227
0.5502462983131409 0.5011842846870422 0.9889327883720398 0.4117647111415863 0.4117647111415863 0.364705890417099
0.7379310131072998 0.40644243359565735 0.006719367578625679 0.18431372940540314 0.1725490242242813 0.15294118225574493
0.6133005023002625 0.4910784661769867 0.005138339940458536 0.2235294133424759 0.23137255012989044 0.22745098173618317
0.7157635688781738 0.3998105227947235 0.17312252521514893 0.0470588244497776 0.05098039284348488 0.05882352963089943
0.6443349719047546 0.48681509494781494 0.009486165829002857 0.4313725531101227 0.41960784792900085 0.3921568691730499
0.6817734241485596 0.4771830141544342 0.2972331941127777 0.6627451181411743 0.6705882549285889 0.658823549747467
0.7214285731315613 0.43786513805389404 0.16363635659217834 0.09019608050584793 0.09019608050584793 0.09019608050584793
0.5647783279418945 0.5423969626426697 0.9897233247756958 0.37254902720451355 0.3803921639919281 0.3294117748737335
0.7371920943260193 0.4201800227165222 0.15810276567935944 0.08627451211214066 0.09019608050584793 0.09803921729326248
0.7174876928329468 0.47907784581184387 0.1770751029253006 0.07058823853731155 0.07058823853731155 0.07058823853731155
0.5295566320419312 0.47623559832572937 0.9889327883720398 0.3294117748737335 0.3333333432674408 0.3019607961177826
0.6408867239952087 0.5119217038154602 0.9901185631752014 0.3921568691730499 0.4000000059604645 0.35686275362968445
0.6561576128005981 0.40360018610954285 0.29960474371910095 0.5529412031173706 0.5529412031173706 0.5843137502670288
0.6246305704116821 0.5040265321731567 0.9901185631752014 0.34117648005485535 0.3294117748737335 0.29411765933036804
0.6130542159080505 0.5259750485420227 0.005928853526711464 0.20392157137393951 0.21176470816135406 0.20000000298023224
0.6940886974334717 0.5423969626426697 0.2968379557132721 0.5411764979362488 0.545098066329956 0.5607843399047852
0.6147783398628235 0.5171324610710144 0.005928853526711464 0.2235294133424759 0.23137255012989044 0.21960784494876862
0.7192118167877197 0.40912678837776184 0.0063241105526685715 0.18039216101169586 0.16470588743686676 0.16078431904315948
0.5716748833656311 0.42065373063087463 0.004743082914501429 0.16470588743686676 0.14509804546833038 0.12941177189350128
0.7359606027603149 0.5026053786277771 0.007905138656497002 0.24705882370471954 0.23529411852359772 0.21568627655506134
0.5246305465698242 0.45807674527168274 0.2964426875114441 0.08627451211214066 0.08627451211214066 0.08627451211214066
0.6118226647377014 0.4980262219905853 0.9901185631752014 0.3843137323856354 0.38823530077934265 0.3333333432674408
0.7246305346488953 0.5141323208808899 0.007905138656497002 0.26274511218070984 0.26274511218070984 0.2235294133424759
0.7024630308151245 0.3974419832229614 0.29960474371910095 0.6235294342041016 0.6274510025978088 0.6352941393852234
0.6046798229217529 0.4591820538043976 0.29802370071411133 0.45098039507865906 0.4627451002597809 0.4274509847164154
0.5133004784584045 0.524238109588623 0.0031620552763342857 0.10980392247438431 0.11372549086809158 0.12156862765550613
0.6697044372558594 0.40044212341308594 0.29960474371910095 0.5803921818733215 0.5803921818733215 0.6196078658103943
0.5371921062469482 0.5160271525382996 0.004743082914501429 0.1921568661928177 0.21176470816135406 0.19607843458652496
0.49729064106941223 0.44102320075035095 0.01067193690687418 0.3607843220233917 0.3960784375667572 0.3921568691730499
0.501477837562561 0.5209221243858337 0.2972331941127777 0.5921568870544434 0.6078431606292725 0.6039215922355652
0.6967980265617371 0.5269224643707275 0.2968379557132721 0.5960784554481506 0.5921568870544434 0.615686297416687
0.6423645615577698 0.5068687796592712 0.008695651777088642 0.3764705955982208 0.3803921639919281 0.3607843220233917
0.5480295419692993 0.42160114645957947 0.9893280863761902 0.4117647111415863 0.3843137323856354 0.3529411852359772
0.5866994857788086 0.507342517375946 0.0035573123022913933 0.20000000298023224 0.20392157137393951 0.18431372940540314
0.7266010046005249 0.45033949613571167 0.18893280625343323 0.5921568870544434 0.5764706134796143 0.5333333611488342
0.5268473029136658 0.5419232845306396 0.9897233247756958 0.3843137323856354 0.38823530077934265 0.3333333432674408
0.5549260973930359 0.396968275308609 0.0035573123022913933 0.09803921729326248 0.10980392247438431 0.07450980693101883
0.6852216720581055 0.5041844248771667 0.006719367578625679 0.4745098054409027 0.4745098054409027 0.4431372582912445
0.5162561535835266 0.5168166756629944 0.005533596966415644 0.5686274766921997 0.5921568870544434 0.4901960790157318
0.616995096206665 0.4367598295211792 0.29881423711776733 0.4156862795352936 0.4274509847164154 0.4000000059604645
0.7123152613639832 0.5305542349815369 0.18379446864128113 0.062745101749897 0.06666667014360428 0.07450980693101883
0.6731526851654053 0.4833412170410156 0.9901185631752014 0.3490196168422699 0.3529411852359772 0.3294117748737335
0.5364531874656677 0.534975528717041 0.9893280863761902 0.3803921639919281 0.37254902720451355 0.32549020648002625
0.7081280946731567 0.4345491826534271 0.1719367653131485 0.08627451211214066 0.08627451211214066 0.08627451211214066
0.5857142806053162 0.5368703603744507 0.29328063130378723 0.1411764770746231 0.14901961386203766 0.14509804546833038
0.5283251404762268 0.4737091362476349 0.0063241105526685715 0.48627451062202454 0.529411792755127 0.5058823823928833
0.7278324961662292 0.4714984893798828 0.9897233247756958 0.364705890417099 0.3607843220233917 0.3450980484485626
0.5943349599838257 0.4514448046684265 0.2976284623146057 0.529411792755127 0.5372549295425415 0.5176470875740051
0.6866995096206665 0.42444339394569397 0.0071146246045827866 0.14901961386203766 0.14901961386203766 0.19607843458652496
0.6854679584503174 0.453971266746521 0.29802370071411133 0.4901960790157318 0.5333333611488342 0.501960813999176
0.6174876689910889 0.4422864317893982 0.29881423711776733 0.41960784792900085 0.4431372582912445 0.40392157435417175
0.5389162302017212 0.5283436179161072 0.9893280863761902 0.38823530077934265 0.3803921639919281 0.3333333432674408
0.5667487978935242 0.46139270067214966 0.9897233247756958 0.4117647111415863 0.4117647111415863 0.364705890417099
0.5140393972396851 0.41244277358055115 0.9889327883720398 0.38823530077934265 0.3764705955982208 0.34117648005485535
0.6618226766586304 0.5141323208808899 0.2964426875114441 0.6549019813537598 0.6627451181411743 0.658823549747467
0.5965517163276672 0.4830254316329956 0.0063241105526685715 0.1725490242242813 0.18039216101169586 0.16862745583057404
0.5775862336158752 0.5256592631340027 0.9893280863761902 0.364705890417099 0.35686275362968445 0.30980393290519714
0.5679802894592285 0.4939207434654236 0.9897233247756958 0.4000000059604645 0.3921568691730499 0.3450980484485626
0.7288177609443665 0.4917100965976715 0.00830039568245411 0.07058823853731155 0.07058823853731155 0.0313725508749485
0.5174877047538757 0.47576189041137695 0.2968379557132721 0.07450980693101883 0.07450980693101883 0.08235294371843338
0.6039409041404724 0.494552344083786 0.2972331941127777 0.572549045085907 0.5803921818733215 0.5686274766921997
0.6300492882728577 0.48065686225891113 0.9901185631752014 0.43529412150382996 0.42352941632270813 0.3960784375667572
0.5241379141807556 0.49881571531295776 0.9881423115730286 0.2980392277240753 0.30588236451148987 0.2549019753932953
0.6253694295883179 0.40707406401634216 0.008695651777088642 0.07450980693101883 0.07058823853731155 0.062745101749897
0.6384236216545105 0.4144954979419708 0.006719367578625679 0.11372549086809158 0.10980392247438431 0.09019608050584793
0.7068965435028076 0.41781145334243774 0.006719367578625679 0.03529411926865578 0.04313725605607033 0.0313725508749485
0.6729063987731934 0.5032370090484619 0.2968379557132721 0.6666666865348816 0.6745098233222961 0.6705882549285889
0.6477832794189453 0.39791569113731384 0.006719367578625679 0.125490203499794 0.1568627506494522 0.11372549086809158
0.5652709603309631 0.5207642316818237 0.002766798483207822 0.2823529541492462 0.30980393290519714 0.27843138575553894
0.5455664992332458 0.4017053544521332 0.0035573123022913933 0.14901961386203766 0.13333334028720856 0.09803921729326248
0.5083743929862976 0.5450813174247742 0.28814229369163513 0.06666667014360428 0.09019608050584793 0.08235294371843338
0.49876847863197327 0.5308700203895569 0.29407113790512085 0.5843137502670288 0.5882353186607361 0.5686274766921997
0.5201970338821411 0.4077056646347046 0.2964426875114441 0.08627451211214066 0.09019608050584793 0.10588235408067703
0.6583743691444397 0.5397126078605652 0.2968379557132721 0.6039215922355652 0.615686297416687 0.6352941393852234
0.6896551847457886 0.4489183723926544 0.29841896891593933 0.47843137383461 0.5176470875740051 0.4745098054409027
0.6854679584503174 0.4288646876811981 0.009881422854959965 0.5764706134796143 0.5960784554481506 0.572549045085907
0.5692118406295776 0.5414495468139648 0.008695651777088642 0.29019609093666077 0.30588236451148987 0.3019607961177826
0.5177339911460876 0.44670772552490234 0.9897233247756958 0.3803921639919281 0.3686274588108063 0.3333333432674408
0.682758629322052 0.45586609840393066 0.005928853526711464 0.3921568691730499 0.3803921639919281 0.3529411852359772
0.5921182036399841 0.48113059997558594 0.006719367578625679 0.1882352977991104 0.19607843458652496 0.1921568661928177
0.5199507474899292 0.396968275308609 0.2964426875114441 0.08627451211214066 0.09019608050584793 0.09803921729326248
0.7226601243019104 0.45586609840393066 0.29802370071411133 0.5490196347236633 0.572549045085907 0.5647059082984924
0.7004926204681396 0.42981210350990295 0.29881423711776733 0.45490196347236633 0.4745098054409027 0.45098039507865906
0.562561571598053 0.46707722544670105 0.9897233247756958 0.4156862795352936 0.4156862795352936 0.3686274588108063
0.6086207032203674 0.4883941113948822 0.9901185631752014 0.3686274588108063 0.37254902720451355 0.3176470696926117
0.6315270662307739 0.5195010304450989 0.2964426875114441 0.6235294342041016 0.6470588445663452 0.6392157077789307
0.7108374238014221 0.5032370090484619 0.2968379557132721 0.658823549747467 0.6627451181411743 0.6784313917160034
0.5874384045600891 0.49202588200569153 0.0019762846641242504 0.18431372940540314 0.1921568661928177 0.1882352977991104
0.5536946058273315 0.44670772552490234 0.9897233247756958 0.41960784792900085 0.4117647111415863 0.364705890417099
0.7140393853187561 0.54034423828125 0.9897233247756958 0.3607843220233917 0.3450980484485626 0.3333333432674408
0.5568965673446655 0.5119217038154602 0.9889327883720398 0.41960784792900085 0.4117647111415863 0.3607843220233917
0.6389162540435791 0.443075954914093 0.012252964079380035 0.10196078568696976 0.10588235408067703 0.11372549086809158
0.7201970219612122 0.48365703225135803 0.2968379557132721 0.6705882549285889 0.6705882549285889 0.6705882549285889
0.6536945700645447 0.5340281128883362 0.004743082914501429 0.10588235408067703 0.10588235408067703 0.09803921729326248
0.7229064106941223 0.3999684154987335 0.991304337978363 0.3686274588108063 0.3607843220233917 0.3803921639919281
0.5206896662712097 0.5289751887321472 0.004347825888544321 0.1411764770746231 0.1568627506494522 0.16078431904315948
0.7179803252220154 0.44402337074279785 0.19960474967956543 0.6705882549285889 0.6784313917160034 0.5921568870544434
0.5221675038337708 0.5220274925231934 0.005138339940458536 0.125490203499794 0.1411764770746231 0.14509804546833038
0.6990147829055786 0.3987051844596863 0.16284584999084473 0.05882352963089943 0.06666667014360428 0.062745101749897
0.5825123190879822 0.4546028673648834 0.291304349899292 0.33725491166114807 0.34117648005485535 0.3490196168422699
0.5948275923728943 0.5338702201843262 0.9897233247756958 0.4000000059604645 0.3921568691730499 0.3450980484485626
0.5985221862792969 0.4688141345977783 0.01067193690687418 0.21176470816135406 0.21568627655506134 0.19607843458652496
0.49359604716300964 0.4144954979419708 0.005928853526711464 0.1882352977991104 0.19607843458652496 0.18431372940540314
0.6044334769248962 0.413548082113266 0.9893280863761902 0.35686275362968445 0.3529411852359772 0.33725491166114807
0.7174876928329468 0.3999684154987335 0.005928853526711464 0.0784313753247261 0.07450980693101883 0.054901961237192154
0.5633004903793335 0.42933839559555054 0.9893280863761902 0.41960784792900085 0.40784314274787903 0.3803921639919281
0.7091132998466492 0.5217116475105286 0.9897233247756958 0.364705890417099 0.3490196168422699 0.33725491166114807
0.6586207151412964 0.4744986593723297 0.2976284623146057 0.5529412031173706 0.572549045085907 0.5568627715110779
0.496798038482666 0.5427127480506897 0.29486167430877686 0.5764706134796143 0.5843137502670288 0.572549045085907
0.6822659969329834 0.4571293294429779 0.0063241105526685715 0.4274509847164154 0.4156862795352936 0.3803921639919281
0.5517241358757019 0.45507657527923584 0.011462450958788395 0.4901960790157318 0.5137255191802979 0.49803921580314636
0.5990147590637207 0.47323542833328247 0.9897233247756958 0.3764705955982208 0.364705890417099 0.3294117748737335
0.5630542039871216 0.4419706165790558 0.011462450958788395 0.4156862795352936 0.43529412150382996 0.40784314274787903
0.6238916516304016 0.5135006904602051 0.0063241105526685715 0.239215686917305 0.24705882370471954 0.23529411852359772
0.6049261093139648 0.5250276327133179 0.005138339940458536 0.18431372940540314 0.18431372940540314 0.1764705926179886
0.5729063749313354 0.4110216200351715 0.005533596966415644 0.25882354378700256 0.25882354378700256 0.22745098173618317
0.706403911113739 0.46455076336860657 0.0071146246045827866 0.5215686559677124 0.5058823823928833 0.501960813999176
0.4963054060935974 0.40944260358810425 0.004743082914501429 0.1764705926179886 0.18431372940540314 0.18039216101169586
0.7184728980064392 0.4770251214504242 0.007905138656497002 0.3137255012989044 0.30588236451148987 0.25882354378700256
0.6100985407829285 0.4462340176105499 0.29841896891593933 0.4313725531101227 0.43529412150382996 0.40392157435417175
0.6916255950927734 0.4912363886833191 0.9901185631752014 0.3607843220233917 0.35686275362968445 0.34117648005485535
0.7330049276351929 0.4568135142326355 0.9901185631752014 0.3803921639919281 0.364705890417099 0.3529411852359772
0.7298029661178589 0.4691299498081207 0.007905138656497002 0.2705882489681244 0.26274511218070984 0.21568627655506134
0.6916255950927734 0.5491868257522583 0.005928853526711464 0.5882353186607361 0.5803921818733215 0.5333333611488342
0.5330049395561218 0.5258171558380127 0.9889327883720398 0.3686274588108063 0.37254902720451355 0.3176470696926117
0.5147783160209656 0.5120795965194702 0.9885375499725342 0.3921568691730499 0.3960784375667572 0.32549020648002625
0.5524630546569824 0.5149218440055847 0.9889327883720398 0.40784314274787903 0.4117647111415863 0.3490196168422699
0.49852216243743896 0.5395547151565552 0.003952569328248501 0.18431372940540314 0.1921568661928177 0.1882352977991104
0.7386699318885803 0.42902258038520813 0.25177866220474243 0.14509804546833038 0.14509804546833038 0.13725490868091583
0.4931034445762634 0.42349597811698914 0.00909090880304575 0.239215686917305 0.24705882370471954 0.24313725531101227
0.6199507117271423 0.5150797367095947 0.0063241105526685715 0.2235294133424759 0.24313725531101227 0.22745098173618317
0.5073891878128052 0.5365545749664307 0.0035573123022913933 0.1725490242242813 0.1882352977991104 0.1921568661928177
0.68916255235672 0.5015000700950623 0.2964426875114441 0.6745098233222961 0.6745098233222961 0.6745098233222961
0.7039408683776855 0.4476551413536072 0.006719367578625679 0.5960784554481506 0.6000000238418579 0.5372549295425415
0.6554186940193176 0.4427601397037506 0.014229249209165573 0.0941176488995552 0.0941176488995552 0.10196078568696976
0.6640394330024719 0.4880783259868622 0.9901185631752014 0.3529411852359772 0.35686275362968445 0.3333333432674408
0.6472906470298767 0.5433443784713745 0.004743082914501429 0.26274511218070984 0.2705882489681244 0.25882354378700256
0.5403940677642822 0.5502921342849731 0.9901185631752014 0.364705890417099 0.364705890417099 0.3176470696926117
0.5938423871994019 0.4419706165790558 0.01067193690687418 0.2705882489681244 0.27450981736183167 0.2549019753932953
0.7024630308151245 0.5416074395179749 0.9897233247756958 0.3529411852359772 0.35686275362968445 0.32549020648002625
0.7110837697982788 0.46407705545425415 0.2976284623146057 0.6039215922355652 0.6274510025978088 0.6196078658103943
0.6854679584503174 0.5267645716667175 0.9901185631752014 0.364705890417099 0.3529411852359772 0.3176470696926117
0.567241370677948 0.44670772552490234 0.011067193932831287 0.4000000059604645 0.4117647111415863 0.3843137323856354
0.7364531755447388 0.5109742879867554 0.9897233247756958 0.3921568691730499 0.37254902720451355 0.3607843220233917
0.5169950723648071 0.4887099266052246 0.2968379557132721 0.07058823853731155 0.07058823853731155 0.07058823853731155
0.7263546586036682 0.41765356063842773 0.29920947551727295 0.5921568870544434 0.5960784554481506 0.6039215922355652
0.6270936131477356 0.48713091015815735 0.006719367578625679 0.27843138575553894 0.2862745225429535 0.2666666805744171
0.5935960412025452 0.49313122034072876 0.9901185631752014 0.3921568691730499 0.3960784375667572 0.3333333432674408
0.7036945819854736 0.545870840549469 0.2972331941127777 0.5215686559677124 0.5372549295425415 0.5490196347236633
0.6256157755851746 0.4631296396255493 0.012252964079380035 0.11372549086809158 0.11372549086809158 0.10588235408067703
0.7076354622840881 0.4165482521057129 0.9905138611793518 0.40784314274787903 0.3921568691730499 0.3803921639919281
0.6945812702178955 0.5120795965194702 0.9901185631752014 0.3921568691730499 0.3803921639919281 0.3607843220233917
0.56083744764328 0.4389704763889313 0.011857707053422928 0.4470588266849518 0.46666666865348816 0.4431372582912445
0.5714285969734192 0.49281540513038635 0.9897233247756958 0.3921568691730499 0.3803921639919281 0.3450980484485626
0.5842364430427551 0.5179219841957092 0.28814229369163513 0.3921568691730499 0.4313725531101227 0.3960784375667572
0.601477861404419 0.4100742042064667 0.29881423711776733 0.5843137502670288 0.5960784554481506 0.6235294342041016
0.6573891639709473 0.5168166756629944 0.9901185631752014 0.37254902720451355 0.3607843220233917 0.34117648005485535
0.5192118287086487 0.43186482787132263 0.9893280863761902 0.38823530077934265 0.3764705955982208 0.34117648005485535
0.49334976077079773 0.4197063148021698 0.007905138656497002 0.21568627655506134 0.2235294133424759 0.21176470816135406
0.5842364430427551 0.4482867419719696 0.29407113790512085 0.11372549086809158 0.12941177189350128 0.13333334028720856
0.6137930750846863 0.3993368148803711 0.007905138656497002 0.0941176488995552 0.09803921729326248 0.07450980693101883
0.6573891639709473 0.5395547151565552 0.9901185631752014 0.38823530077934265 0.38823530077934265 0.3490196168422699
0.6142857074737549 0.5367124676704407 0.2964426875114441 0.6352941393852234 0.6470588445663452 0.6666666865348816
0.648522138595581 0.5169745683670044 0.007509881630539894 0.07450980693101883 0.09019608050584793 0.0941176488995552
0.517241358757019 0.5255013704299927 0.003952569328248501 0.12156862765550613 0.125490203499794 0.13333334028720856
0.5852216482162476 0.40375807881355286 0.9893280863761902 0.38823530077934265 0.3686274588108063 0.35686275362968445
0.5815271139144897 0.5365545749664307 0.9897233247756958 0.40784314274787903 0.3921568691730499 0.3450980484485626
0.5332512259483337 0.5228170156478882 0.9889327883720398 0.3960784375667572 0.38823530077934265 0.3294117748737335
0.7091132998466492 0.4389704763889313 0.006719367578625679 0.4588235318660736 0.4470588266849518 0.3803921639919281
0.5891625881195068 0.546344518661499 0.9901185631752014 0.3686274588108063 0.3607843220233917 0.3137255012989044
0.6066502332687378 0.4088110029697418 0.9893280863761902 0.3686274588108063 0.35686275362968445 0.3294117748737335
0.7128078937530518 0.47813042998313904 0.2972331941127777 0.6823529601097107 0.686274528503418 0.6627451181411743
0.7192118167877197 0.46123480796813965 0.18063241243362427 0.05882352963089943 0.062745101749897 0.07058823853731155
0.7268472909927368 0.4716564118862152 0.1873517781496048 0.35686275362968445 0.3294117748737335 0.29019609093666077
0.6147783398628235 0.499921053647995 0.9901185631752014 0.40392157435417175 0.40392157435417175 0.364705890417099
0.6724137663841248 0.453971266746521 0.29802370071411133 0.47843137383461 0.501960813999176 0.4627451002597809
0.7379310131072998 0.4257066249847412 0.2501976191997528 0.14509804546833038 0.14509804546833038 0.14509804546833038
