0.984236478805542 0.6226117014884949 0.8304347991943359 0.5647059082984924 0.5607843399047852 0.48235294222831726
0.9844827651977539 0.6815095543861389 0.8509881496429443 0.5921568870544434 0.572549045085907 0.49803921580314636
0.9738916158676147 0.637454628944397 0.0063241105526685715 0.4117647111415863 0.3843137323856354 0.32156863808631897
0.753201961517334 0.6631928086280823 0.3114624619483948 0.4941176474094391 0.6196078658103943 0.7098039388656616
0.8665024638175964 0.5663982033729553 0.9897233247756958 0.3843137323856354 0.37254902720451355 0.3450980484485626
0.9337438344955444 0.6762987375259399 0.9901185631752014 0.4274509847164154 0.4117647111415863 0.3686274588108063
0.9817733764648438 0.6366651058197021 0.023320158943533897 0.2235294133424759 0.1882352977991104 0.15294118225574493
0.9002463221549988 0.6084004640579224 0.9901185631752014 0.4274509847164154 0.41960784792900085 0.3686274588108063
0.9633004665374756 0.6417179703712463 0.9905138611793518 0.4431372582912445 0.4156862795352936 0.3764705955982208
0.9746305346488953 0.6006631851196289 0.33596837520599365 0.6823529601097107 0.7176470756530762 0.6980392336845398
0.9768472909927368 0.6118742823600769 0.5905138254165649 0.6470588445663452 0.6627451181411743 0.6666666865348816
0.7431034445762634 0.6903521418571472 0.17786560952663422 0.10588235408067703 0.10588235408067703 0.11372549086809158
0.9778324961662292 0.6226117014884949 0.6822134256362915 0.6235294342041016 0.6470588445663452 0.6470588445663452
0.9839901328086853 0.573661744594574 0.8509881496429443 0.5254902243614197 0.5137255191802979 0.3921568691730499
0.7918719053268433 0.6906679272651672 0.9901185631752014 0.41960784792900085 0.41960784792900085 0.38823530077934265
0.9576354622840881 0.6864045262336731 0.9901185631752014 0.4117647111415863 0.3960784375667572 0.3529411852359772
0.8455665111541748 0.5616611242294312 0.0063241105526685715 0.5490196347236633 0.545098066329956 0.4274509847164154
0.9761083722114563 0.5842412710189819 0.47154149413108826 0.6745098233222961 0.6980392336845398 0.6980392336845398
0.9766010046005249 0.5930838584899902 0.425691694021225 0.6823529601097107 0.7058823704719543 0.7058823704719543
0.984236478805542 0.5783988833427429 0.918181836605072 0.4588235318660736 0.4313725531101227 0.35686275362968445
0.9822660088539124 0.6396652460098267 0.8047431111335754 0.572549045085907 0.5764706134796143 0.5215686559677124
0.7820196747779846 0.637612521648407 0.0071146246045827866 0.45490196347236633 0.4470588266849518 0.3490196168422699
0.9783251285552979 0.6699826121330261 0.7075098752975464 0.6549019813537598 0.6705882549285889 0.6666666865348816
0.9822660088539124 0.6617716550827026 0.07114624232053757 0.7019608020782471 0.7058823704719543 0.6352941393852234
0.9770935773849487 0.6924048662185669 0.49683794379234314 0.7019608020782471 0.7215686440467834 0.7372549176216125
0.7743842601776123 0.6243486404418945 0.9893280863761902 0.4313725531101227 0.42352941632270813 0.3764705955982208
0.9241379499435425 0.5867677330970764 0.9901185631752014 0.4000000059604645 0.3843137323856354 0.34117648005485535
0.9719212055206299 0.6747197508811951 0.3383399248123169 0.6980392336845398 0.7372549176216125 0.7450980544090271
0.9756157398223877 0.5673456788063049 0.49762845039367676 0.6666666865348816 0.6901960968971252 0.6823529601097107
0.7391625642776489 0.5700299739837646 0.29960474371910095 0.027450980618596077 0.03529411926865578 0.0235294122248888
0.9822660088539124 0.7088267803192139 0.2660079002380371 0.686274528503418 0.6980392336845398 0.6313725709915161
0.7795566320419312 0.6166114211082458 0.007509881630539894 0.364705890417099 0.35686275362968445 0.25882354378700256
0.9238916039466858 0.5703458189964294 0.0063241105526685715 0.4156862795352936 0.42352941632270813 0.34117648005485535
0.9788177609443665 0.5902416110038757 0.7731225490570068 0.5607843399047852 0.5882353186607361 0.5568627715110779
0.9825122952461243 0.5891362428665161 0.19090908765792847 0.6666666865348816 0.6745098233222961 0.5921568870544434
0.9766010046005249 0.6751934289932251 0.5039525628089905 0.6980392336845398 0.7176470756530762 0.7411764860153198
0.9753694534301758 0.5877151489257812 0.5098814368247986 0.6784313917160034 0.7019608020782471 0.7019608020782471
0.9780788421630859 0.6401389837265015 0.012648221105337143 0.27843138575553894 0.24705882370471954 0.19607843458652496
0.9837438464164734 0.7039318084716797 0.104347825050354 0.729411780834198 0.7176470756530762 0.658823549747467
0.9775862097740173 0.627190887928009 0.6640316247940063 0.6431372761726379 0.6666666865348816 0.6666666865348816
0.7628079056739807 0.5998736619949341 0.00830039568245411 0.3803921639919281 0.3764705955982208 0.29411765933036804
0.9849753975868225 0.6518237590789795 0.8810276389122009 0.5411764979362488 0.5215686559677124 0.43529412150382996
0.9770935773849487 0.6589294075965881 0.448221355676651 0.6901960968971252 0.7176470756530762 0.7568627595901489
0.9766010046005249 0.6658771634101868 0.4675889313220978 0.6980392336845398 0.7137255072593689 0.7568627595901489
0.8677340149879456 0.5774514675140381 0.9901185631752014 0.32549020648002625 0.3137255012989044 0.2862745225429535
0.9002463221549988 0.5752407908439636 0.9901185631752014 0.3607843220233917 0.3490196168422699 0.3137255012989044
0.8551723957061768 0.6933522820472717 0.005928853526711464 0.4941176474094391 0.501960813999176 0.4156862795352936
0.9519704580307007 0.6930364966392517 0.9901185631752014 0.43529412150382996 0.42352941632270813 0.38823530077934265
0.7637931108474731 0.5952944755554199 0.9893280863761902 0.3490196168422699 0.3490196168422699 0.3176470696926117
0.7660098671913147 0.5577135682106018 0.005928853526711464 0.45098039507865906 0.4470588266849518 0.3764705955982208
0.9783251285552979 0.5578714609146118 0.7545454502105713 0.5529412031173706 0.5568627715110779 0.5254902243614197
0.9768472909927368 0.6612979769706726 0.4628458619117737 0.686274528503418 0.7098039388656616 0.7568627595901489
0.796798050403595 0.6578240990638733 0.9893280863761902 0.4117647111415863 0.40392157435417175 0.3529411852359772
0.9825122952461243 0.6900362968444824 0.1972332000732422 0.7215686440467834 0.7333333492279053 0.658823549747467
0.9770935773849487 0.6909837126731873 0.4960474371910095 0.7019608020782471 0.7215686440467834 0.7372549176216125
0.8500000238418579 0.6290857195854187 0.9901185631752014 0.45098039507865906 0.43921568989753723 0.40392157435417175
0.9766010046005249 0.6112427115440369 0.4328063130378723 0.686274528503418 0.7098039388656616 0.7098039388656616
0.9778324961662292 0.6208747625350952 0.6818181872367859 0.6274510025978088 0.6431372761726379 0.6470588445663452
0.9665024876594543 0.6475604176521301 0.005928853526711464 0.6196078658103943 0.6078431606292725 0.5411764979362488
0.8834975361824036 0.573188066482544 0.005928853526711464 0.4274509847164154 0.42352941632270813 0.34117648005485535
0.9556650519371033 0.5633980631828308 0.0063241105526685715 0.4588235318660736 0.4588235318660736 0.364705890417099
0.9773399233818054 0.6960366368293762 0.45533597469329834 0.7019608020782471 0.7333333492279053 0.7450980544090271
0.8618226647377014 0.7040897011756897 0.005928853526711464 0.5372549295425415 0.5254902243614197 0.45098039507865906
0.9844827651977539 0.5817148089408875 0.8754940629005432 0.5098039507865906 0.4941176474094391 0.3803921639919281
0.9113300442695618 0.6892467737197876 0.9897233247756958 0.4431372582912445 0.4313725531101227 0.3960784375667572
0.935960590839386 0.5817148089408875 0.9901185631752014 0.40784314274787903 0.3921568691730499 0.3450980484485626
0.9802955389022827 0.5559766292572021 0.9383399486541748 0.4470588266849518 0.42352941632270813 0.3607843220233917
0.7450739145278931 0.5580293536186218 0.18498024344444275 0.11764705926179886 0.11764705926179886 0.10980392247438431
0.9832512140274048 0.6800884008407593 0.8169960379600525 0.6235294342041016 0.615686297416687 0.5686274766921997
0.748275876045227 0.6513500809669495 0.312648206949234 0.46666666865348816 0.4901960790157318 0.4901960790157318
0.9820197224617004 0.5877151489257812 0.07628458738327026 0.6666666865348816 0.6823529601097107 0.5843137502670288
0.9844827651977539 0.6876677870750427 0.8395256996154785 0.5960784554481506 0.6000000238418579 0.545098066329956
0.9785714149475098 0.6933522820472717 0.6747035384178162 0.686274528503418 0.7058823704719543 0.6901960968971252
0.8682265877723694 0.6682456731796265 0.005533596966415644 0.4000000059604645 0.43921568989753723 0.3450980484485626
0.9812808036804199 0.5897678732872009 0.3023715317249298 0.5215686559677124 0.5176470875740051 0.43921568989753723
0.9822660088539124 0.6492973566055298 0.16324110329151154 0.7176470756530762 0.7098039388656616 0.6509804129600525
0.7443349957466125 0.6335070133209229 0.17470355331897736 0.08627451211214066 0.0941176488995552 0.09019608050584793
0.9349753856658936 0.654666006565094 0.9905138611793518 0.43529412150382996 0.41960784792900085 0.3764705955982208
0.9763546586036682 0.5652928948402405 0.01067193690687418 0.4470588266849518 0.43529412150382996 0.3607843220233917
0.8330049514770508 0.5761882066726685 0.9897233247756958 0.3803921639919281 0.3686274588108063 0.34117648005485535
0.9778324961662292 0.6905100345611572 0.42885375022888184 0.6941176652908325 0.7254902124404907 0.7372549176216125
0.9726601243019104 0.6633507013320923 0.9905138611793518 0.3843137323856354 0.3686274588108063 0.32549020648002625
0.9758620858192444 0.5905573964118958 0.54347825050354 0.658823549747467 0.6823529601097107 0.6823529601097107
0.7847290635108948 0.5943470597267151 0.9897233247756958 0.3843137323856354 0.3843137323856354 0.3529411852359772
0.9768472909927368 0.6328754425048828 0.5984189510345459 0.6941176652908325 0.729411780834198 0.7254902124404907
0.9756157398223877 0.5940312743186951 0.520948588848114 0.6666666865348816 0.6901960968971252 0.6823529601097107
0.9793103337287903 0.6586136221885681 0.015415019355714321 0.239215686917305 0.2078431397676468 0.16470588743686676
0.9766010046005249 0.5597662925720215 0.41304346919059753 0.6784313917160034 0.7019608020782471 0.7019608020782471
0.7834975123405457 0.5834517478942871 0.9897233247756958 0.30980393290519714 0.30588236451148987 0.2862745225429535
0.8012315034866333 0.7007737159729004 0.9901185631752014 0.42352941632270813 0.42352941632270813 0.3921568691730499
0.7524630427360535 0.5787146687507629 0.0071146246045827866 0.4000000059604645 0.3960784375667572 0.3137255012989044
0.8310344815254211 0.7009316086769104 0.9897233247756958 0.43529412150382996 0.4274509847164154 0.3803921639919281
0.9753694534301758 0.648823618888855 0.312648206949234 0.5254902243614197 0.5333333611488342 0.45098039507865906
0.9839901328086853 0.6042949557304382 0.8324110507965088 0.5568627715110779 0.5529412031173706 0.4431372582912445
0.9820197224617004 0.6114006042480469 0.22252964973449707 0.6705882549285889 0.6823529601097107 0.6078431606292725
0.945320188999176 0.643297016620636 0.005928853526711464 0.46666666865348816 0.4588235318660736 0.3764705955982208
0.9761083722114563 0.5738196969032288 0.46126481890678406 0.6823529601097107 0.7058823704719543 0.7058823704719543
0.9822660088539124 0.6575083136558533 0.8027667999267578 0.5254902243614197 0.5372549295425415 0.4941176474094391
0.7684729099273682 0.6960366368293762 0.005928853526711464 0.29411765933036804 0.2823529541492462 0.2078431397676468
0.8573891520500183 0.638086199760437 0.9901185631752014 0.43921568989753723 0.4274509847164154 0.3921568691730499
0.9817733764648438 0.5607137084007263 0.249802365899086 0.658823549747467 0.6666666865348816 0.6117647290229797
0.8214285969734192 0.5907152891159058 0.9897233247756958 0.35686275362968445 0.35686275362968445 0.32549020648002625
0.8435960412025452 0.6802463531494141 0.9893280863761902 0.43529412150382996 0.41960784792900085 0.3764705955982208
0.8928571343421936 0.5820306539535522 0.9901185631752014 0.4000000059604645 0.3843137323856354 0.3490196168422699
0.9366995096206665 0.5913469195365906 0.0063241105526685715 0.5529412031173706 0.5411764979362488 0.4745098054409027
0.751477837562561 0.6564029455184937 0.2972331941127777 0.12156862765550613 0.1411764770746231 0.11764705926179886
0.9770935773849487 0.6194536685943604 0.4051383435726166 0.686274528503418 0.7058823704719543 0.7176470756530762
0.7918719053268433 0.6695089340209961 0.9897233247756958 0.3686274588108063 0.3764705955982208 0.32549020648002625
0.9330049157142639 0.6287699341773987 0.005928853526711464 0.4313725531101227 0.4156862795352936 0.3176470696926117
0.9793103337287903 0.7094584107398987 0.7217391133308411 0.615686297416687 0.6392157077789307 0.6392157077789307
0.9273399114608765 0.7063003182411194 0.005928853526711464 0.529411792755127 0.5058823823928833 0.41960784792900085
0.7719211578369141 0.6565608978271484 0.0063241105526685715 0.32549020648002625 0.3137255012989044 0.2549019753932953
0.984236478805542 0.7025106549263 0.046640317887067795 0.7764706015586853 0.7686274647712708 0.6784313917160034
0.9812808036804199 0.6467708945274353 0.7924901247024536 0.5960784554481506 0.6117647290229797 0.6235294342041016
0.74064040184021 0.670930027961731 0.2501976191997528 0.09803921729326248 0.09803921729326248 0.09803921729326248
0.7519704699516296 0.6535606980323792 0.006719367578625679 0.1725490242242813 0.16078431904315948 0.125490203499794
0.982758641242981 0.6780356764793396 0.06837944686412811 0.6980392336845398 0.7058823704719543 0.6117647290229797
0.9839901328086853 0.6050844788551331 0.8316205739974976 0.5607843399047852 0.5568627715110779 0.4470588266849518
0.7943349480628967 0.7088267803192139 0.9901185631752014 0.42352941632270813 0.41960784792900085 0.4000000059604645
0.9783251285552979 0.6870361566543579 0.40316206216812134 0.7058823704719543 0.7215686440467834 0.7568627595901489
0.8761083483695984 0.610295295715332 0.9901185631752014 0.4470588266849518 0.43529412150382996 0.4000000059604645
0.871921181678772 0.5986104607582092 0.9901185631752014 0.3529411852359772 0.34117648005485535 0.30588236451148987
0.934236466884613 0.5540817975997925 0.9901185631752014 0.34117648005485535 0.32549020648002625 0.2823529541492462
0.9142857193946838 0.6950892210006714 0.9893280863761902 0.46666666865348816 0.45098039507865906 0.40784314274787903
0.7551724314689636 0.5632401704788208 0.2762845754623413 0.13725490868091583 0.13333334028720856 0.125490203499794
0.9820197224617004 0.654508113861084 0.2296442687511444 0.7098039388656616 0.7137255072593689 0.6431372761726379
0.7746305465698242 0.6846675872802734 0.9901185631752014 0.3921568691730499 0.3921568691730499 0.3607843220233917
0.9839901328086853 0.7047212719917297 0.04387351870536804 0.7882353067398071 0.7450980544090271 0.6666666865348816
0.9768472909927368 0.6287699341773987 0.58339923620224 0.658823549747467 0.6784313917160034 0.6901960968971252
0.9785714149475098 0.6693510413169861 0.7221344113349915 0.6392157077789307 0.6549019813537598 0.6509804129600525
0.9852216839790344 0.6840360164642334 0.9707509875297546 0.4156862795352936 0.3843137323856354 0.3333333432674408
0.9226601123809814 0.6998263001441956 0.005533596966415644 0.43921568989753723 0.4274509847164154 0.3607843220233917
0.8401477932929993 0.5954523682594299 0.9897233247756958 0.3764705955982208 0.3764705955982208 0.33725491166114807
0.8137931227684021 0.6987209916114807 0.9897233247756958 0.4313725531101227 0.4313725531101227 0.4000000059604645
0.7487684488296509 0.6398231387138367 0.9924901127815247 0.7921568751335144 0.8117647171020508 0.8274509906768799
0.9780788421630859 0.7034580707550049 0.6047430634498596 0.6823529601097107 0.6941176652908325 0.7137255072593689
0.8032019734382629 0.6762987375259399 0.9897233247756958 0.40784314274787903 0.4117647111415863 0.3803921639919281
0.9495074152946472 0.6526132822036743 0.9905138611793518 0.4274509847164154 0.41960784792900085 0.3686274588108063
0.9793103337287903 0.7102479338645935 0.7387351989746094 0.615686297416687 0.6392157077789307 0.6392157077789307
0.8546798229217529 0.5970314145088196 0.005928853526711464 0.5137255191802979 0.5098039507865906 0.4000000059604645
0.8017241358757019 0.604926586151123 0.9897233247756958 0.3803921639919281 0.3803921639919281 0.34117648005485535
0.9605911374092102 0.6717195510864258 0.9905138611793518 0.4313725531101227 0.3960784375667572 0.3686274588108063
0.8206896781921387 0.6582977771759033 0.9893280863761902 0.42352941632270813 0.4274509847164154 0.37254902720451355
0.9674876928329468 0.6455076336860657 0.3229249119758606 0.38823530077934265 0.3843137323856354 0.30588236451148987
0.8881773352622986 0.6661929488182068 0.9897233247756958 0.4588235318660736 0.4431372582912445 0.40784314274787903
0.9778324961662292 0.6882993578910828 0.3494071066379547 0.772549033164978 0.8078431487083435 0.8039215803146362
0.9761083722114563 0.5528185963630676 0.44426876306533813 0.6666666865348816 0.6823529601097107 0.686274528503418
0.9807881712913513 0.5826622247695923 0.05296442657709122 0.6901960968971252 0.6980392336845398 0.6039215922355652
0.8135467767715454 0.638086199760437 0.005928853526711464 0.5215686559677124 0.49803921580314636 0.43529412150382996
0.9766010046005249 0.5692405104637146 0.4154150187969208 0.6784313917160034 0.7019608020782471 0.6941176652908325
0.982758641242981 0.5599241852760315 0.9201580882072449 0.3686274588108063 0.3490196168422699 0.27450981736183167
0.9733990430831909 0.6123480200767517 0.33478260040283203 0.6941176652908325 0.7333333492279053 0.729411780834198
0.7931034564971924 0.5589767694473267 0.0071146246045827866 0.6509804129600525 0.6235294342041016 0.5529412031173706
0.9820197224617004 0.6245065331459045 0.20118577778339386 0.6627451181411743 0.6823529601097107 0.5960784554481506
0.8421182036399841 0.627190887928009 0.9901185631752014 0.43529412150382996 0.42352941632270813 0.364705890417099
0.9751231670379639 0.5927680134773254 0.0063241105526685715 0.5137255191802979 0.501960813999176 0.43529412150382996
0.9667487740516663 0.6126638054847717 0.9905138611793518 0.40784314274787903 0.3764705955982208 0.32549020648002625
0.8339901566505432 0.7034580707550049 0.9897233247756958 0.4431372582912445 0.45098039507865906 0.4000000059604645
0.9817733764648438 0.6497710347175598 0.2541502118110657 0.686274528503418 0.6980392336845398 0.6313725709915161
0.9822660088539124 0.6551397442817688 0.13913042843341827 0.7176470756530762 0.7058823704719543 0.6470588445663452
0.9822660088539124 0.6511921882629395 0.15533596277236938 0.7215686440467834 0.7058823704719543 0.658823549747467
0.9773399233818054 0.5990841388702393 0.3754940629005432 0.6941176652908325 0.7137255072593689 0.7254902124404907
0.982758641242981 0.70235276222229 0.15296442806720734 0.7137255072593689 0.7254902124404907 0.6509804129600525
0.9775862097740173 0.6084004640579224 0.3683794438838959 0.6980392336845398 0.7176470756530762 0.7333333492279053
0.9825122952461243 0.6987209916114807 0.24782608449459076 0.6901960968971252 0.7019608020782471 0.6352941393852234
0.9300492405891418 0.649139404296875 0.9905138611793518 0.4470588266849518 0.42352941632270813 0.3764705955982208
0.9832512140274048 0.6843518018722534 0.0573122538626194 0.7490196228027344 0.7568627595901489 0.6705882549285889
0.9768472909927368 0.6785094141960144 0.5501976013183594 0.6901960968971252 0.7098039388656616 0.7215686440467834
0.9684728980064392 0.6166114211082458 0.005928853526711464 0.4431372582912445 0.4156862795352936 0.3529411852359772
0.984236478805542 0.6240328550338745 0.8517786264419556 0.5529412031173706 0.5254902243614197 0.42352941632270813
0.9825122952461243 0.6264013648033142 0.1667984127998352 0.6745098233222961 0.6823529601097107 0.5960784554481506
0.9790640473365784 0.6928785443305969 0.7324110865592957 0.6196078658103943 0.6392157077789307 0.6509804129600525
0.9817733764648438 0.6450339555740356 0.26837944984436035 0.6823529601097107 0.6941176652908325 0.6196078658103943
0.9775862097740173 0.648349940776825 0.4075098931789398 0.6901960968971252 0.7176470756530762 0.7490196228027344
0.9820197224617004 0.6259276866912842 0.21067193150520325 0.6666666865348816 0.6784313917160034 0.6039215922355652
0.9780788421630859 0.6657192707061768 0.6750988364219666 0.658823549747467 0.6784313917160034 0.6901960968971252
0.9761083722114563 0.5645033717155457 0.0071146246045827866 0.42352941632270813 0.40392157435417175 0.3176470696926117
0.7413793206214905 0.6717195510864258 0.24268774688243866 0.10196078568696976 0.10196078568696976 0.10196078568696976
0.9768472909927368 0.6565608978271484 0.582608699798584 0.7019608020782471 0.7137255072593689 0.7411764860153198
0.9775862097740173 0.6144007444381714 0.3798418939113617 0.6823529601097107 0.7176470756530762 0.7137255072593689
0.8995074033737183 0.7033001780509949 0.9893280863761902 0.4627451002597809 0.45490196347236633 0.3960784375667572
0.9475369453430176 0.6942996978759766 0.9901185631752014 0.43529412150382996 0.41960784792900085 0.3843137323856354
0.9817733764648438 0.5693984031677246 0.13122530281543732 0.6509804129600525 0.6705882549285889 0.5803921818733215
0.7736453413963318 0.6750355362892151 0.9901185631752014 0.3960784375667572 0.4000000059604645 0.3686274588108063
0.9051724076271057 0.6744039058685303 0.9897233247756958 0.4156862795352936 0.40784314274787903 0.3607843220233917
0.9825122952461243 0.6849834322929382 0.134782612323761 0.7137255072593689 0.7215686440467834 0.6352941393852234
0.8142856955528259 0.5539239048957825 0.9897233247756958 0.30588236451148987 0.3019607961177826 0.2823529541492462
0.8539409041404724 0.5783988833427429 0.9897233247756958 0.4156862795352936 0.40392157435417175 0.3764705955982208
0.9790640473365784 0.6401389837265015 0.7735177874565125 0.5882353186607361 0.6039215922355652 0.615686297416687
0.9770935773849487 0.62166428565979 0.6225296258926392 0.6431372761726379 0.6666666865348816 0.6666666865348816
0.9780788421630859 0.6903521418571472 0.4169960618019104 0.6980392336845398 0.7176470756530762 0.7411764860153198
0.9825122952461243 0.5960839986801147 0.9743083119392395 0.2823529541492462 0.2549019753932953 0.18431372940540314
0.9770935773849487 0.6148744821548462 0.34545454382896423 0.772549033164978 0.7882353067398071 0.800000011920929
0.9768472909927368 0.5802937150001526 0.6177865862846375 0.5960784554481506 0.6117647290229797 0.6078431606292725
0.8741379380226135 0.6093478798866272 0.9901185631752014 0.42352941632270813 0.4117647111415863 0.3764705955982208
0.9672414064407349 0.6714037656784058 0.3272727131843567 0.40784314274787903 0.40784314274787903 0.3607843220233917
0.9820197224617004 0.6150323748588562 0.06679841876029968 0.6784313917160034 0.6784313917160034 0.5764706134796143
0.9783251285552979 0.5545554757118225 0.7557312250137329 0.5490196347236633 0.5607843399047852 0.5254902243614197
0.928078830242157 0.6644560098648071 0.9901185631752014 0.45098039507865906 0.4274509847164154 0.3803921639919281
0.9822660088539124 0.6982472538948059 0.26245060563087463 0.6823529601097107 0.6941176652908325 0.6274510025978088
0.9815270900726318 0.6085583567619324 0.8011857867240906 0.5176470875740051 0.5254902243614197 0.4745098054409027
0.979556679725647 0.6822990775108337 0.7762845754623413 0.6235294342041016 0.6313725709915161 0.6196078658103943
0.9756157398223877 0.6848255395889282 0.9861660003662109 0.27450981736183167 0.25882354378700256 0.21568627655506134
0.8357142806053162 0.5798199772834778 0.9897233247756958 0.35686275362968445 0.3450980484485626 0.3176470696926117
0.9766010046005249 0.6041370630264282 0.5774703621864319 0.6509804129600525 0.6627451181411743 0.6823529601097107
0.834482729434967 0.6835622787475586 0.005928853526711464 0.5058823823928833 0.49803921580314636 0.40784314274787903
0.8115763664245605 0.5659245252609253 0.9897233247756958 0.3529411852359772 0.34117648005485535 0.3137255012989044
0.8209359645843506 0.6562450528144836 0.9893280863761902 0.4274509847164154 0.4313725531101227 0.3764705955982208
0.9768472909927368 0.5817148089408875 0.4003952443599701 0.686274528503418 0.7098039388656616 0.7098039388656616
0.8199507594108582 0.6835622787475586 0.005928853526711464 0.5686274766921997 0.5647059082984924 0.48235294222831726
0.8852216601371765 0.7010895013809204 0.005928853526711464 0.46666666865348816 0.4627451002597809 0.3803921639919281
0.8615763783454895 0.5714511275291443 0.0063241105526685715 0.5803921818733215 0.5803921818733215 0.48627451062202454
0.7440886497497559 0.6388757228851318 0.1774703562259674 0.10588235408067703 0.10588235408067703 0.10588235408067703
0.738916277885437 0.6843518018722534 0.22569170594215393 0.12156862765550613 0.12156862765550613 0.11372549086809158
0.9822660088539124 0.6838781237602234 0.1715414971113205 0.7176470756530762 0.729411780834198 0.6549019813537598
0.9672414064407349 0.6144007444381714 0.005928853526711464 0.5333333611488342 0.5137255191802979 0.43529412150382996
0.9785714149475098 0.6805621385574341 0.7252964377403259 0.6235294342041016 0.6392157077789307 0.6431372761726379
0.8100985288619995 0.599242091178894 0.9897233247756958 0.38823530077934265 0.3764705955982208 0.34117648005485535
0.9130541682243347 0.6355597376823425 0.9905138611793518 0.4470588266849518 0.4313725531101227 0.3960784375667572
0.8492611050605774 0.5837675929069519 0.9897233247756958 0.3921568691730499 0.3803921639919281 0.3529411852359772
0.9817733764648438 0.5780830383300781 0.8035573363304138 0.6000000238418579 0.615686297416687 0.5568627715110779
0.9822660088539124 0.6769303679466248 0.12252964079380035 0.7137255072593689 0.7058823704719543 0.6235294342041016
0.9768472909927368 0.62134850025177 0.5976284742355347 0.6431372761726379 0.6745098233222961 0.6823529601097107
0.9825122952461243 0.7029843926429749 0.18142291903495789 0.729411780834198 0.7411764860153198 0.6666666865348816
0.9822660088539124 0.6524553894996643 0.07747035473585129 0.6941176652908325 0.6901960968971252 0.6117647290229797
0.9120689630508423 0.6557713747024536 0.9901185631752014 0.45098039507865906 0.4431372582912445 0.3921568691730499
0.951724112033844 0.6221380233764648 0.005928853526711464 0.4274509847164154 0.4156862795352936 0.35686275362968445
0.7490147948265076 0.5632401704788208 0.16403162479400635 0.1411764770746231 0.16078431904315948 0.13725490868091583
0.818965494632721 0.5618190169334412 0.0071146246045827866 0.6470588445663452 0.6470588445663452 0.5372549295425415
0.9812808036804199 0.5686088800430298 0.29328063130378723 0.5372549295425415 0.5372549295425415 0.4431372582912445
0.9775862097740173 0.6292436718940735 0.6660078763961792 0.6431372761726379 0.658823549747467 0.6627451181411743
0.982758641242981 0.6813516616821289 0.0833992063999176 0.7215686440467834 0.7019608020782471 0.6274510025978088
0.982758641242981 0.7091425657272339 0.14150197803974152 0.7176470756530762 0.7254902124404907 0.6431372761726379
0.9770935773849487 0.6860887408256531 0.54347825050354 0.6941176652908325 0.7137255072593689 0.729411780834198
0.7849753499031067 0.6950892210006714 0.005928853526711464 0.5529412031173706 0.5215686559677124 0.43921568989753723
0.9768472909927368 0.6294015645980835 0.30988141894340515 0.5333333611488342 0.529411792755127 0.45098039507865906
0.9822660088539124 0.6732985973358154 0.10355731099843979 0.7098039388656616 0.7058823704719543 0.6274510025978088
0.9790640473365784 0.6335070133209229 0.7727272510528564 0.5764706134796143 0.5921568870544434 0.5960784554481506
0.7921182513237 0.6587715148925781 0.9897233247756958 0.4117647111415863 0.4117647111415863 0.364705890417099
0.7391625642776489 0.627348780632019 0.16047431528568268 0.05882352963089943 0.05882352963089943 0.05098039284348488
0.9847290515899658 0.5856624245643616 0.9256917238235474 0.45490196347236633 0.4313725531101227 0.3450980484485626
0.9839901328086853 0.5875572562217712 0.8814229369163513 0.49803921580314636 0.47058823704719543 0.35686275362968445
0.9761083722114563 0.5641875863075256 0.46166008710861206 0.6705882549285889 0.6941176652908325 0.6941176652908325
0.8546798229217529 0.5657666325569153 0.9897233247756958 0.3686274588108063 0.35686275362968445 0.3294117748737335
0.9758620858192444 0.5782409310340881 0.5561264753341675 0.6509804129600525 0.6745098233222961 0.6745098233222961
0.9790640473365784 0.6834043860435486 0.760869562625885 0.615686297416687 0.6313725709915161 0.6274510025978088
0.7881773114204407 0.5651350021362305 0.9897233247756958 0.3607843220233917 0.3490196168422699 0.32156863808631897
0.8396551609039307 0.642981231212616 0.9897233247756958 0.4274509847164154 0.4313725531101227 0.3764705955982208
0.9793103337287903 0.6881414651870728 0.752964437007904 0.6196078658103943 0.6352941393852234 0.6313725709915161
0.9768472909927368 0.5758724212646484 0.4007905125617981 0.6823529601097107 0.7019608020782471 0.7137255072593689
0.9753694534301758 0.573503851890564 0.3391304314136505 0.6117647290229797 0.6352941393852234 0.6196078658103943
0.809359610080719 0.6050844788551331 0.006719367578625679 0.6509804129600525 0.658823549747467 0.572549045085907
0.8041871786117554 0.6123480200767517 0.9897233247756958 0.40392157435417175 0.38823530077934265 0.3529411852359772
0.9672414064407349 0.6537185907363892 0.9909090995788574 0.40784314274787903 0.3843137323856354 0.33725491166114807
0.9815270900726318 0.604768693447113 0.2861660122871399 0.5921568870544434 0.5921568870544434 0.49803921580314636
0.9756157398223877 0.6188220381736755 0.5090909004211426 0.686274528503418 0.7019608020782471 0.7058823704719543
0.9785714149475098 0.6985630989074707 0.6577075123786926 0.729411780834198 0.7490196228027344 0.7254902124404907
0.7490147948265076 0.6614558696746826 0.9924901127815247 0.843137264251709 0.8666666746139526 0.8666666746139526
0.9640393853187561 0.6811937689781189 0.005533596966415644 0.5098039507865906 0.5137255191802979 0.4588235318660736
0.767241358757019 0.5905573964118958 0.00830039568245411 0.3960784375667572 0.3960784375667572 0.3019607961177826
0.800000011920929 0.562608540058136 0.9897233247756958 0.3490196168422699 0.33725491166114807 0.3019607961177826
0.9766010046005249 0.6257697939872742 0.5656126737594604 0.6745098233222961 0.6784313917160034 0.6941176652908325
0.9714285731315613 0.5534501671791077 0.31462451815605164 0.545098066329956 0.5529412031173706 0.46666666865348816
0.9820197224617004 0.6347702741622925 0.2023715376853943 0.6784313917160034 0.686274528503418 0.6039215922355652
0.9766010046005249 0.556924045085907 0.343873530626297 0.6627451181411743 0.686274528503418 0.686274528503418
0.8091133236885071 0.6530870199203491 0.005928853526711464 0.4313725531101227 0.4313725531101227 0.33725491166114807
0.9820197224617004 0.6120322346687317 0.050197627395391464 0.6666666865348816 0.6745098233222961 0.5803921818733215
0.9822660088539124 0.5902416110038757 0.11818181723356247 0.6509804129600525 0.658823549747467 0.572549045085907
0.9761083722114563 0.5667140483856201 0.581818163394928 0.6392157077789307 0.6627451181411743 0.6549019813537598
0.7896551489830017 0.5949786901473999 0.007509881630539894 0.47058823704719543 0.46666666865348816 0.3843137323856354
0.984236478805542 0.5561345219612122 0.8735178112983704 0.501960813999176 0.4901960790157318 0.3686274588108063
0.9674876928329468 0.6941418051719666 0.3241106867790222 0.41960784792900085 0.4156862795352936 0.33725491166114807
0.9780788421630859 0.6552976369857788 0.30909091234207153 0.5490196347236633 0.545098066329956 0.46666666865348816
0.8091133236885071 0.6530870199203491 0.005928853526711464 0.4313725531101227 0.4313725531101227 0.33725491166114807
0.9817733764648438 0.665561318397522 0.28853756189346313 0.5921568870544434 0.5921568870544434 0.4901960790157318
0.9753694534301758 0.5551871061325073 0.5328063368797302 0.6470588445663452 0.6705882549285889 0.6705882549285889
0.7800492644309998 0.6174009442329407 0.007509881630539894 0.4313725531101227 0.42352941632270813 0.32549020648002625
0.9780788421630859 0.6718774437904358 0.6865612864494324 0.6549019813537598 0.6745098233222961 0.686274528503418
0.7637931108474731 0.6415600776672363 0.007509881630539894 0.3450980484485626 0.3294117748737335 0.2862745225429535
0.765763521194458 0.6391915082931519 0.9897233247756958 0.42352941632270813 0.4313725531101227 0.3803921639919281
0.7522167563438416 0.6507184505462646 0.30395257472991943 0.5803921818733215 0.545098066329956 0.47843137383461
0.9822660088539124 0.6278225183486938 0.13992094993591309 0.6784313917160034 0.686274528503418 0.6000000238418579
0.7399014830589294 0.6641402244567871 0.30434781312942505 0.30980393290519714 0.2980392277240753 0.27843138575553894
0.9187192320823669 0.6775619983673096 0.005533596966415644 0.5333333611488342 0.5137255191802979 0.43529412150382996
0.7581281065940857 0.6677719950675964 0.9901185631752014 0.3803921639919281 0.38823530077934265 0.3843137323856354
0.7408866882324219 0.562608540058136 0.23794466257095337 0.13725490868091583 0.1411764770746231 0.12156862765550613
0.9820197224617004 0.5744512677192688 0.1770751029253006 0.6627451181411743 0.6784313917160034 0.5803921818733215
0.9761083722114563 0.6420338153839111 0.52173912525177 0.686274528503418 0.7058823704719543 0.7215686440467834
0.8044335246086121 0.5633980631828308 0.007509881630539894 0.5058823823928833 0.48627451062202454 0.40784314274787903
0.9778324961662292 0.5562924146652222 0.7213438749313354 0.5686274766921997 0.5882353186607361 0.5607843399047852
0.942118227481842 0.5761882066726685 0.9901185631752014 0.38823530077934265 0.3803921639919281 0.3294117748737335
0.9790640473365784 0.5765040516853333 0.038735177367925644 0.29019609093666077 0.27843138575553894 0.20392157137393951
0.9701970219612122 0.627032995223999 0.3272727131843567 0.37254902720451355 0.3764705955982208 0.32156863808631897
0.9820197224617004 0.659561038017273 0.1932806372642517 0.7254902124404907 0.729411780834198 0.658823549747467
0.7492610812187195 0.654192328453064 0.9924901127815247 0.8078431487083435 0.8235294222831726 0.8588235378265381
0.9785714149475098 0.6985630989074707 0.38260868191719055 0.6980392336845398 0.7215686440467834 0.7215686440467834
0.9817733764648438 0.6286120414733887 0.2181818187236786 0.6705882549285889 0.6745098233222961 0.6039215922355652
0.9773399233818054 0.6412442922592163 0.6371541619300842 0.6627451181411743 0.6745098233222961 0.6941176652908325
0.7953202128410339 0.5641875863075256 0.007905138656497002 0.48235294222831726 0.4627451002597809 0.3843137323856354
0.7413793206214905 0.6802463531494141 0.27747035026550293 0.09019608050584793 0.09019608050584793 0.09019608050584793
0.8524630665779114 0.5537660121917725 0.0063241105526685715 0.6196078658103943 0.6196078658103943 0.5176470875740051
0.7394088506698608 0.562608540058136 0.21067193150520325 0.1921568661928177 0.19607843458652496 0.1764705926179886
0.9044334888458252 0.5896099805831909 0.9901185631752014 0.3960784375667572 0.3843137323856354 0.3490196168422699
0.9788177609443665 0.5880309343338013 0.3063241243362427 0.5215686559677124 0.5254902243614197 0.45490196347236633
0.9790640473365784 0.6409284472465515 0.3075098693370819 0.5215686559677124 0.529411792755127 0.4470588266849518
0.9825122952461243 0.6895626187324524 0.14782609045505524 0.7254902124404907 0.7372549176216125 0.6549019813537598
0.9822660088539124 0.615664005279541 0.11699604988098145 0.6823529601097107 0.6901960968971252 0.5960784554481506
0.9822660088539124 0.6505605578422546 0.09802371263504028 0.6980392336845398 0.7019608020782471 0.6392157077789307
0.9825122952461243 0.659876823425293 0.8035573363304138 0.5607843399047852 0.5764706134796143 0.5215686559677124
0.8332512378692627 0.6292436718940735 0.9897233247756958 0.4431372582912445 0.4313725531101227 0.3960784375667572
0.7623152732849121 0.6308226585388184 0.9897233247756958 0.41960784792900085 0.41960784792900085 0.38823530077934265
0.9763546586036682 0.561976969242096 0.426086962223053 0.6705882549285889 0.7098039388656616 0.7058823704719543
0.9817733764648438 0.6229275465011597 0.25652173161506653 0.6745098233222961 0.6784313917160034 0.615686297416687
0.9825122952461243 0.5910311341285706 0.16916996240615845 0.6509804129600525 0.6627451181411743 0.5803921818733215
0.984236478805542 0.6142428517341614 0.8478260636329651 0.5529412031173706 0.5137255191802979 0.4156862795352936
0.8268473148345947 0.5739775896072388 0.9897233247756958 0.3529411852359772 0.3529411852359772 0.3137255012989044
0.9773399233818054 0.616295576095581 0.6328063011169434 0.6392157077789307 0.6627451181411743 0.6549019813537598
0.9039409160614014 0.6063476800918579 0.9901185631752014 0.42352941632270813 0.41960784792900085 0.3490196168422699
0.9820197224617004 0.5783988833427429 0.1201581060886383 0.6509804129600525 0.6666666865348816 0.5686274766921997
0.8908867239952087 0.6226117014884949 0.005928853526711464 0.4745098054409027 0.46666666865348816 0.3686274588108063
0.9780788421630859 0.5976630449295044 0.7071146368980408 0.5960784554481506 0.6117647290229797 0.6235294342041016
0.9820197224617004 0.6567187905311584 0.249802365899086 0.6980392336845398 0.7019608020782471 0.6313725709915161
0.7903940677642822 0.6835622787475586 0.005928853526711464 0.4941176474094391 0.5137255191802979 0.3960784375667572
0.9822660088539124 0.6575083136558533 0.07549407333135605 0.7058823704719543 0.7019608020782471 0.6235294342041016
0.7426108121871948 0.6249802708625793 0.14980237185955048 0.0470588244497776 0.0313725508749485 0.03529411926865578
0.9770935773849487 0.5561345219612122 0.30553358793258667 0.5568627715110779 0.5529412031173706 0.48235294222831726
0.9756157398223877 0.6069793105125427 0.33992093801498413 0.7215686440467834 0.7411764860153198 0.7254902124404907
0.9773399233818054 0.5843991637229919 0.3798418939113617 0.686274528503418 0.7098039388656616 0.7098039388656616
0.9167487621307373 0.599399983882904 0.9901185631752014 0.45098039507865906 0.4431372582912445 0.3843137323856354
0.9768472909927368 0.5858203172683716 0.6217391490936279 0.6039215922355652 0.6078431606292725 0.615686297416687
0.934236466884613 0.7009316086769104 0.9897233247756958 0.4470588266849518 0.41960784792900085 0.38823530077934265
0.9852216839790344 0.6052423715591431 0.925296425819397 0.47843137383461 0.4470588266849518 0.364705890417099
0.9608374238014221 0.610453188419342 0.005928853526711464 0.5176470875740051 0.49803921580314636 0.42352941632270813
0.9775862097740173 0.6200852394104004 0.6501976251602173 0.6549019813537598 0.658823549747467 0.6745098233222961
0.9815270900726318 0.6061897873878479 0.9762845635414124 0.35686275362968445 0.3294117748737335 0.2549019753932953
0.8894088864326477 0.6155060529708862 0.005928853526711464 0.501960813999176 0.48627451062202454 0.38823530077934265
0.8391625881195068 0.6605084538459778 0.9893280863761902 0.4274509847164154 0.41960784792900085 0.3607843220233917
0.8948276042938232 0.6519817113876343 0.005928853526711464 0.4156862795352936 0.4156862795352936 0.3137255012989044
0.9788177609443665 0.6169272065162659 0.7569169998168945 0.572549045085907 0.5960784554481506 0.5960784554481506
0.8182265758514404 0.6979314684867859 0.9897233247756958 0.40784314274787903 0.41960784792900085 0.3764705955982208
0.9817733764648438 0.5542396903038025 0.21581028401851654 0.6705882549285889 0.686274528503418 0.5960784554481506
0.9246305227279663 0.6527711749076843 0.9905138611793518 0.4274509847164154 0.4117647111415863 0.364705890417099
0.9793103337287903 0.6980893611907959 0.7545454502105713 0.615686297416687 0.6392157077789307 0.6313725709915161
0.8206896781921387 0.6958787441253662 0.9897233247756958 0.4313725531101227 0.4156862795352936 0.3803921639919281
0.8923645615577698 0.6688773036003113 0.005533596966415644 0.48235294222831726 0.4745098054409027 0.3843137323856354
0.8502463102340698 0.5899257659912109 0.005928853526711464 0.501960813999176 0.4941176474094391 0.40392157435417175
0.738916277885437 0.5618190169334412 0.18853755295276642 0.062745101749897 0.0784313753247261 0.07450980693101883
0.9812808036804199 0.5652928948402405 0.3011857569217682 0.529411792755127 0.5254902243614197 0.4431372582912445
0.8628078699111938 0.6519817113876343 0.9897233247756958 0.4431372582912445 0.4274509847164154 0.3803921639919281
0.8162561655044556 0.5697141885757446 0.0071146246045827866 0.6000000238418579 0.5960784554481506 0.48627451062202454
0.7832512259483337 0.6702984571456909 0.9897233247756958 0.4000000059604645 0.40784314274787903 0.364705890417099
0.7628079056739807 0.5585030913352966 0.31501975655555725 0.25882354378700256 0.2549019753932953 0.239215686917305
0.9413793087005615 0.599399983882904 0.9905138611793518 0.4313725531101227 0.41960784792900085 0.3529411852359772
0.9758620858192444 0.6892467737197876 0.9861660003662109 0.30588236451148987 0.29019609093666077 0.2549019753932953
0.9775862097740173 0.6120322346687317 0.6521739363670349 0.6313725709915161 0.6509804129600525 0.6745098233222961
0.9820197224617004 0.6090320348739624 0.04624506086111069 0.6823529601097107 0.6901960968971252 0.6039215922355652
0.9770935773849487 0.6096636652946472 0.9833992123603821 0.30588236451148987 0.2823529541492462 0.22745098173618317
0.982758641242981 0.6516658663749695 0.8063241243362427 0.6078431606292725 0.6000000238418579 0.5529412031173706
0.984236478805542 0.610611081123352 0.8422924876213074 0.5568627715110779 0.5333333611488342 0.4470588266849518
0.9768472909927368 0.6224538087844849 0.5845849514007568 0.6509804129600525 0.6666666865348816 0.6784313917160034
0.9600985050201416 0.6474024653434753 0.005928853526711464 0.5607843399047852 0.5372549295425415 0.48235294222831726
0.9773399233818054 0.7088267803192139 0.5288537740707397 0.7137255072593689 0.729411780834198 0.7411764860153198
0.745320200920105 0.5880309343338013 0.007905138656497002 0.27450981736183167 0.26274511218070984 0.22745098173618317
0.9817733764648438 0.5537660121917725 0.08260869234800339 0.6823529601097107 0.7176470756530762 0.5960784554481506
0.9775862097740173 0.6031896471977234 0.36640316247940063 0.7019608020782471 0.7215686440467834 0.7333333492279053
0.9849753975868225 0.6252960562705994 0.904347836971283 0.5098039507865906 0.48627451062202454 0.4000000059604645
0.8445813059806824 0.6069793105125427 0.005928853526711464 0.4901960790157318 0.501960813999176 0.41960784792900085
0.9825122952461243 0.5866098403930664 0.20434781908988953 0.6666666865348816 0.6784313917160034 0.6039215922355652
0.979556679725647 0.5722406506538391 0.04308300465345383 0.2980392277240753 0.26274511218070984 0.19607843458652496
0.815763533115387 0.6297173500061035 0.9897233247756958 0.4313725531101227 0.42352941632270813 0.37254902720451355
0.7416256070137024 0.6726669669151306 0.20671936869621277 0.10196078568696976 0.10196078568696976 0.10196078568696976
0.8453202247619629 0.6554555296897888 0.005533596966415644 0.4470588266849518 0.45490196347236633 0.37254902720451355
0.9822660088539124 0.5709774494171143 0.23201580345630646 0.6666666865348816 0.6784313917160034 0.6117647290229797
0.7761083841323853 0.6297173500061035 0.9893280863761902 0.41960784792900085 0.41960784792900085 0.38823530077934265
0.9837438464164734 0.5605558156967163 0.8300395011901855 0.5254902243614197 0.5098039507865906 0.40392157435417175
0.9258620738983154 0.6186641454696655 0.9905138611793518 0.4156862795352936 0.4000000059604645 0.35686275362968445
0.9125615954399109 0.6698247194290161 0.9897233247756958 0.40784314274787903 0.4000000059604645 0.34117648005485535
0.878078818321228 0.654034435749054 0.005533596966415644 0.4431372582912445 0.4627451002597809 0.3764705955982208
0.9820197224617004 0.6200852394104004 0.10237154364585876 0.6509804129600525 0.658823549747467 0.5647059082984924
0.7810344696044922 0.6511921882629395 0.0063241105526685715 0.4470588266849518 0.4470588266849518 0.3450980484485626
0.7433497309684753 0.6521396040916443 0.3067193627357483 0.3686274588108063 0.3803921639919281 0.33725491166114807
0.9763546586036682 0.6197694540023804 0.5592885613441467 0.6745098233222961 0.6784313917160034 0.686274528503418
0.7960591316223145 0.6537185907363892 0.9893280863761902 0.4000000059604645 0.40392157435417175 0.3490196168422699
0.9756157398223877 0.5559766292572021 0.0071146246045827866 0.3529411852359772 0.3450980484485626 0.26274511218070984
0.7635468244552612 0.6319279670715332 0.007905138656497002 0.3333333432674408 0.32156863808631897 0.24705882370471954
0.9822660088539124 0.6282961964607239 0.11660078912973404 0.6784313917160034 0.6745098233222961 0.5921568870544434
0.7677339911460876 0.6946154832839966 0.9905138611793518 0.40784314274787903 0.40784314274787903 0.40784314274787903
0.8349753618240356 0.62150639295578 0.005928853526711464 0.4156862795352936 0.4156862795352936 0.30588236451148987
0.9820197224617004 0.5755566358566284 0.11620553582906723 0.6470588445663452 0.6627451181411743 0.5647059082984924
0.9783251285552979 0.6938260197639465 0.396047443151474 0.7019608020782471 0.7215686440467834 0.7372549176216125
0.9822660088539124 0.708037257194519 0.2561264932155609 0.686274528503418 0.6941176652908325 0.6392157077789307
0.9770935773849487 0.6252960562705994 0.40909090638160706 0.6823529601097107 0.7019608020782471 0.7176470756530762
0.9770935773849487 0.6492973566055298 0.43399208784103394 0.6784313917160034 0.7137255072593689 0.7490196228027344
0.8571428656578064 0.562450647354126 0.9897233247756958 0.3803921639919281 0.3686274588108063 0.34117648005485535
0.802955687046051 0.6169272065162659 0.9897233247756958 0.4000000059604645 0.3686274588108063 0.35686275362968445
0.9004926085472107 0.5534501671791077 0.0063241105526685715 0.658823549747467 0.6666666865348816 0.5843137502670288
0.8761083483695984 0.5831359624862671 0.005928853526711464 0.5529412031173706 0.5607843399047852 0.4745098054409027
0.9768472909927368 0.5687667727470398 0.4098814129829407 0.6823529601097107 0.7058823704719543 0.6980392336845398
0.8874384164810181 0.6881414651870728 0.005533596966415644 0.5490196347236633 0.5568627715110779 0.4627451002597809
0.9770935773849487 0.6166114211082458 0.40830039978027344 0.6901960968971252 0.7058823704719543 0.7176470756530762
0.9699507355690002 0.5700299739837646 0.0063241105526685715 0.47058823704719543 0.4588235318660736 0.3843137323856354
0.9352216720581055 0.6349281668663025 0.005928853526711464 0.4588235318660736 0.45098039507865906 0.3921568691730499
0.9763546586036682 0.6237170100212097 0.45612648129463196 0.6823529601097107 0.7019608020782471 0.7176470756530762
0.9766010046005249 0.6275067329406738 0.34545454382896423 0.7647058963775635 0.7803921699523926 0.7921568751335144
0.9847290515899658 0.6369808912277222 0.8758893013000488 0.5411764979362488 0.529411792755127 0.40784314274787903
0.7445812821388245 0.6589294075965881 0.16324110329151154 0.08627451211214066 0.0941176488995552 0.09019608050584793
0.7822660207748413 0.6011369228363037 0.9897233247756958 0.3607843220233917 0.3607843220233917 0.3294117748737335
0.8162561655044556 0.6737722754478455 0.005928853526711464 0.4274509847164154 0.4470588266849518 0.35686275362968445
0.9783251285552979 0.6950892210006714 0.6494070887565613 0.6431372761726379 0.6627451181411743 0.6745098233222961
0.9167487621307373 0.5946629047393799 0.9901185631752014 0.4000000059604645 0.38823530077934265 0.3294117748737335
0.9748768210411072 0.5900837182998657 0.3118577003479004 0.5372549295425415 0.545098066329956 0.45098039507865906
0.8869457840919495 0.6365072131156921 0.005928853526711464 0.5215686559677124 0.5215686559677124 0.41960784792900085
0.9837438464164734 0.708037257194519 0.11818181723356247 0.7254902124404907 0.7137255072593689 0.6470588445663452
0.9825122952461243 0.7047212719917297 0.1873517781496048 0.7333333492279053 0.7450980544090271 0.6705882549285889
