0.9216748476028442 0.040423180907964706 0.7667984366416931 0.43921568989753723 0.32156863808631897 0.21960784494876862
0.942364513874054 0.1550607979297638 0.0063241105526685715 0.5764706134796143 0.5843137502670288 0.501960813999176
0.798275887966156 0.08305700123310089 0.15217390656471252 0.08235294371843338 0.08235294371843338 0.07450980693101883
0.8741379380226135 0.04279172420501709 0.22213438153266907 0.6784313917160034 0.42352941632270813 0.20392157137393951
0.8083744049072266 0.0977419838309288 0.006719367578625679 0.4156862795352936 0.4156862795352936 0.3843137323856354
0.8800492882728577 0.06205589696764946 0.007509881630539894 0.5176470875740051 0.5411764979362488 0.4941176474094391
0.9689655303955078 0.11605873703956604 0.9861660003662109 0.2823529541492462 0.25882354378700256 0.19607843458652496
0.745320200920105 0.05573977530002594 0.9893280863761902 0.2078431397676468 0.1921568661928177 0.14901961386203766
0.9820197224617004 0.1092689111828804 0.9063240885734558 0.48235294222831726 0.45098039507865906 0.3686274588108063
0.8982758522033691 0.14700773358345032 0.0063241105526685715 0.5176470875740051 0.5882353186607361 0.501960813999176
0.7682266235351562 0.041844308376312256 0.08063241094350815 0.27843138575553894 0.30588236451148987 0.3294117748737335
0.9152709245681763 0.005684509873390198 0.8976284861564636 0.2078431397676468 0.16078431904315948 0.11372549086809158
0.874876856803894 0.06789831072092056 0.9889327883720398 0.33725491166114807 0.30980393290519714 0.24705882370471954
0.7669950723648071 0.04547607898712158 0.31897231936454773 0.38823530077934265 0.3294117748737335 0.24705882370471954
0.9371921420097351 0.1064266562461853 0.0063241105526685715 0.5333333611488342 0.545098066329956 0.501960813999176
0.7465517520904541 0.013105953112244606 0.00909090880304575 0.27843138575553894 0.2705882489681244 0.21960784494876862
0.9527093768119812 0.1121111661195755 0.005928853526711464 0.5058823823928833 0.5372549295425415 0.48627451062202454
0.9305418729782104 0.036633506417274475 0.9877470135688782 0.32156863808631897 0.29411765933036804 0.2235294133424759
0.8911330103874207 0.04263382405042648 0.1667984127998352 0.5921568870544434 0.3686274588108063 0.16078431904315948
0.979556679725647 0.03568609058856964 0.95652174949646 0.4000000059604645 0.3686274588108063 0.27843138575553894
0.7682266235351562 0.004421285353600979 0.5 0.3450980484485626 0.2549019753932953 0.13333334028720856
0.7524630427360535 0.04137059673666954 0.5786561369895935 0.5254902243614197 0.32156863808631897 0.13333334028720856
0.8214285969734192 0.004579188302159309 0.908695638179779 0.3176470696926117 0.239215686917305 0.14509804546833038
0.7733989953994751 0.038054633885622025 0.9885375499725342 0.3137255012989044 0.29019609093666077 0.24313725531101227
0.7534482479095459 0.04389704763889313 0.7422924637794495 0.4117647111415863 0.239215686917305 0.08627451211214066
0.9674876928329468 0.040423180907964706 0.04071146249771118 0.5215686559677124 0.35686275362968445 0.16862745583057404
0.8578817844390869 0.04737091436982155 0.9885375499725342 0.27450981736183167 0.2705882489681244 0.20000000298023224
0.8790640234947205 0.04247592017054558 0.5573122501373291 0.6274510025978088 0.4588235318660736 0.32549020648002625
0.8197044134140015 0.11826938390731812 0.9909090995788574 0.2823529541492462 0.27450981736183167 0.22745098173618317
0.9576354622840881 0.1291646957397461 0.9865612387657166 0.32156863808631897 0.29019609093666077 0.239215686917305
0.7480295300483704 0.045949786901474 0.32490119338035583 0.6196078658103943 0.49803921580314636 0.2862745225429535
0.823645293712616 0.004579188302159309 0.6173912882804871 0.125490203499794 0.09803921729326248 0.06666667014360428
0.8923645615577698 0.057634610682725906 0.9885375499725342 0.24705882370471954 0.21960784494876862 0.14901961386203766
0.931034505367279 0.14763934910297394 0.9873517751693726 0.32156863808631897 0.2980392277240753 0.24313725531101227
0.7445812821388245 0.004263382405042648 0.6695652008056641 0.5764706134796143 0.41960784792900085 0.22745098173618317
0.8955665230751038 0.04231801629066467 0.31541502475738525 0.7450980544090271 0.501960813999176 0.26274511218070984
0.7418718934059143 0.14748144149780273 0.005533596966415644 0.5647059082984924 0.5686274766921997 0.5058823823928833
0.8423645496368408 0.031738512217998505 0.9877470135688782 0.3294117748737335 0.30588236451148987 0.24313725531101227
0.8059113025665283 0.004421285353600979 0.6735177636146545 0.12156862765550613 0.0941176488995552 0.07058823853731155
0.9472906589508057 0.017685141414403915 0.9869565367698669 0.239215686917305 0.21568627655506134 0.16862745583057404
0.7463054060935974 0.004263382405042648 0.5478261113166809 0.572549045085907 0.41960784792900085 0.19607843458652496
0.8805418610572815 0.041844308376312256 0.7636363506317139 0.5137255191802979 0.3764705955982208 0.29019609093666077
0.9623152613639832 0.11353228986263275 0.9861660003662109 0.3176470696926117 0.29019609093666077 0.22745098173618317
0.8541871905326843 0.1525343507528305 0.006719367578625679 0.545098066329956 0.5607843399047852 0.501960813999176
0.9519704580307007 0.03331754356622696 0.9869565367698669 0.32156863808631897 0.3019607961177826 0.22745098173618317
0.8773398995399475 0.15079741179943085 0.006719367578625679 0.6235294342041016 0.6274510025978088 0.5647059082984924
0.7716748714447021 0.10595294833183289 0.0063241105526685715 0.5372549295425415 0.529411792755127 0.4470588266849518
0.8741379380226135 0.12269067019224167 0.9893280863761902 0.30980393290519714 0.27843138575553894 0.22745098173618317
0.7933497428894043 0.004263382405042648 0.395652174949646 0.18431372940540314 0.13725490868091583 0.09019608050584793
0.9068965315818787 0.04216011241078377 0.27233201265335083 0.6274510025978088 0.4117647111415863 0.1921568661928177
0.8073891401290894 0.044370755553245544 0.40434783697128296 0.6823529601097107 0.46666666865348816 0.2549019753932953
0.9179803133010864 0.04168640449643135 0.5387351512908936 0.5647059082984924 0.4274509847164154 0.2705882489681244
0.7394088506698608 0.12774357199668884 0.005533596966415644 0.6117647290229797 0.615686297416687 0.5607843399047852
0.7682266235351562 0.04405495151877403 0.5458498001098633 0.7098039388656616 0.5411764979362488 0.37254902720451355
0.9682266116142273 0.05037107318639755 0.9861660003662109 0.2980392277240753 0.27843138575553894 0.20000000298023224
0.9091132879257202 0.04105479270219803 0.7158102989196777 0.5176470875740051 0.3960784375667572 0.27450981736183167
0.7512315511703491 0.1035844013094902 0.0063241105526685715 0.4627451002597809 0.4588235318660736 0.3764705955982208
0.9224137663841248 0.04058108478784561 0.7415019869804382 0.49803921580314636 0.3686274588108063 0.24705882370471954
0.817241370677948 0.004579188302159309 0.06086956337094307 0.08627451211214066 0.07450980693101883 0.054901961237192154
0.7633004784584045 0.004421285353600979 0.7774703502655029 0.364705890417099 0.2705882489681244 0.16862745583057404
0.8068965673446655 0.044370755553245544 0.22015810012817383 0.3137255012989044 0.23529411852359772 0.1411764770746231
0.798275887966156 0.05321332812309265 0.007905138656497002 0.364705890417099 0.3137255012989044 0.27843138575553894
0.8544334769248962 0.04279172420501709 0.6849802136421204 0.7215686440467834 0.6470588445663452 0.5803921818733215
0.8273398876190186 0.04373914375901222 0.2873517870903015 0.6823529601097107 0.4470588266849518 0.20392157137393951
0.7931034564971924 0.004421285353600979 0.03478260710835457 0.13333334028720856 0.11372549086809158 0.09019608050584793
0.7536945939064026 0.040423180907964706 0.5865612626075745 0.47058823704719543 0.2980392277240753 0.15294118225574493
0.7805418968200684 0.132480651140213 0.005928853526711464 0.6431372761726379 0.6313725709915161 0.5960784554481506
0.8960590958595276 0.041212696582078934 0.7830039262771606 0.45098039507865906 0.3176470696926117 0.21176470816135406
0.7849753499031067 0.004263382405042648 0.3075098693370819 0.21568627655506134 0.16470588743686676 0.10196078568696976
0.7539408802986145 0.05826622620224953 0.20671936869621277 0.4117647111415863 0.30980393290519714 0.21176470816135406
0.9780788421630859 0.026369808241724968 0.9861660003662109 0.24313725531101227 0.2078431397676468 0.14901961386203766
0.8088669776916504 0.04421285167336464 0.4272727370262146 0.7450980544090271 0.529411792755127 0.30980393290519714
0.9534482955932617 0.0775303989648819 0.9865612387657166 0.3333333432674408 0.30588236451148987 0.23137255012989044
0.9822660088539124 0.13990209996700287 0.9193676114082336 0.4627451002597809 0.43529412150382996 0.364705890417099
0.7716748714447021 0.05368703603744507 0.20553359389305115 0.09019608050584793 0.0784313753247261 0.05882352963089943
0.8165024518966675 0.04389704763889313 0.28300395607948303 0.686274528503418 0.45098039507865906 0.20392157137393951
0.9672414064407349 0.04200221225619316 0.12173912674188614 0.6078431606292725 0.4000000059604645 0.19607843458652496
0.7568965554237366 0.004421285353600979 0.7411067485809326 0.45490196347236633 0.32549020648002625 0.14901961386203766
0.7549260854721069 0.040423180907964706 0.6312252879142761 0.6000000238418579 0.37254902720451355 0.18431372940540314
0.9576354622840881 0.041528500616550446 0.10316205769777298 0.572549045085907 0.3450980484485626 0.14901961386203766
0.7401477694511414 0.08653087168931961 0.9901185631752014 0.2980392277240753 0.2862745225429535 0.250980406999588
0.7529556751251221 0.04279172420501709 0.6695652008056641 0.4431372582912445 0.26274511218070984 0.13333334028720856
0.9812808036804199 0.05258171632885933 0.9146245121955872 0.4745098054409027 0.4313725531101227 0.3450980484485626
0.9071428775787354 0.04168640449643135 0.6126482486724854 0.6039215922355652 0.47058823704719543 0.364705890417099
0.8448275923728943 0.04342333972454071 0.072727270424366 0.5843137502670288 0.3764705955982208 0.20392157137393951
0.7800492644309998 0.04452865943312645 0.5292490124702454 0.686274528503418 0.5137255191802979 0.3607843220233917
0.809359610080719 0.04405495151877403 0.24901185929775238 0.5176470875740051 0.3294117748737335 0.14901961386203766
0.9800492525100708 0.03821253776550293 0.4956521689891815 0.24705882370471954 0.20000000298023224 0.14509804546833038
0.9435960650444031 0.03994946926832199 0.7375494241714478 0.4627451002597809 0.34117648005485535 0.23137255012989044
0.9706896543502808 0.05368703603744507 0.9861660003662109 0.2980392277240753 0.27450981736183167 0.1882352977991104
0.9573891758918762 0.03963366523385048 0.7703557014465332 0.4627451002597809 0.34117648005485535 0.21960784494876862
0.9495074152946472 0.0892152190208435 0.006719367578625679 0.43921568989753723 0.43921568989753723 0.3921568691730499
0.7539408802986145 0.004421285353600979 0.8750988245010376 0.34117648005485535 0.250980406999588 0.12941177189350128
0.9039409160614014 0.11005842685699463 0.0071146246045827866 0.48627451062202454 0.4941176474094391 0.43921568989753723
0.8502463102340698 0.04263382405042648 0.7790513634681702 0.5098039507865906 0.37254902720451355 0.2549019753932953
0.8704433441162109 0.04279172420501709 0.5280632376670837 0.6509804129600525 0.48627451062202454 0.3294117748737335
0.7842364311218262 0.044686563313007355 0.26758894324302673 0.1921568661928177 0.13725490868091583 0.08627451211214066
0.9603448510169983 0.007421443238854408 0.9355731010437012 0.16470588743686676 0.125490203499794 0.09019608050584793
0.8958128094673157 0.04231801629066467 0.22292490303516388 0.658823549747467 0.4156862795352936 0.21568627655506134
0.8825123310089111 0.00473709125071764 0.9434782862663269 0.18039216101169586 0.1411764770746231 0.10196078568696976
0.8539409041404724 0.06410863995552063 0.007905138656497002 0.572549045085907 0.5843137502670288 0.5176470875740051
0.7866995334625244 0.004421285353600979 0.6758893132209778 0.15294118225574493 0.11764705926179886 0.08235294371843338
0.9645320177078247 0.12758566439151764 0.005138339940458536 0.4431372582912445 0.4588235318660736 0.4000000059604645
0.8778325319290161 0.04247592017054558 0.6458498239517212 0.6549019813537598 0.5176470875740051 0.43921568989753723
0.9086207151412964 0.062213800847530365 0.0071146246045827866 0.501960813999176 0.4941176474094391 0.4431372582912445
0.9354679584503174 0.0833728089928627 0.0071146246045827866 0.5215686559677124 0.529411792755127 0.48627451062202454
0.9477832317352295 0.04105479270219803 0.4280632436275482 0.5882353186607361 0.3686274588108063 0.16862745583057404
0.9817733764648438 0.11621664464473724 0.9019762873649597 0.48627451062202454 0.45490196347236633 0.37254902720451355
0.9810344576835632 0.15063950419425964 0.8561264872550964 0.25882354378700256 0.25882354378700256 0.29019609093666077
0.748522162437439 0.004421285353600979 0.8407114744186401 0.4313725531101227 0.33725491166114807 0.20392157137393951
0.7871921062469482 0.04500236734747887 0.2245059311389923 0.16470588743686676 0.1725490242242813 0.16078431904315948
0.9807881712913513 0.034107059240341187 0.10632411390542984 0.6352941393852234 0.45490196347236633 0.250980406999588
0.7857142686843872 0.061897993087768555 0.3019762933254242 0.24705882370471954 0.27843138575553894 0.29019609093666077
0.923399031162262 0.041844308376312256 0.19367589056491852 0.6000000238418579 0.3803921639919281 0.1568627506494522
0.798275887966156 0.06379283219575882 0.261264830827713 0.16078431904315948 0.16862745583057404 0.16470588743686676
0.9783251285552979 0.02494868077337742 0.9723320007324219 0.3803921639919281 0.3490196168422699 0.27450981736183167
0.883004903793335 0.0344228632748127 0.9877470135688782 0.2823529541492462 0.2549019753932953 0.1921568661928177
0.7921182513237 0.12284857034683228 0.0063241105526685715 0.5647059082984924 0.5843137502670288 0.5058823823928833
0.8302955627441406 0.04405495151877403 0.13241106271743774 0.6274510025978088 0.3921568691730499 0.18039216101169586
0.9726601243019104 0.040423180907964706 0.19051383435726166 0.6431372761726379 0.40392157435417175 0.1568627506494522
0.9051724076271057 0.04200221225619316 0.4683794379234314 0.5921568870544434 0.43921568989753723 0.27843138575553894
0.7953202128410339 0.10279488563537598 0.15375493466854095 0.10588235408067703 0.10588235408067703 0.09803921729326248
0.7694581151008606 0.13895468413829803 0.005928853526711464 0.6431372761726379 0.6509804129600525 0.6078431606292725
0.9822660088539124 0.08479394018650055 0.9573122262954712 0.40392157435417175 0.37254902720451355 0.2980392277240753
0.9623152613639832 0.04137059673666954 0.26403161883354187 0.6509804129600525 0.4117647111415863 0.1882352977991104
0.9522167444229126 0.03994946926832199 0.699999988079071 0.4627451002597809 0.32549020648002625 0.20000000298023224
0.7931034564971924 0.11921679973602295 0.16916996240615845 0.13333334028720856 0.13333334028720856 0.125490203499794
0.8270936012268066 0.04373914375901222 0.3118577003479004 0.7215686440467834 0.47843137383461 0.24705882370471954
0.7674877047538757 0.07531975209712982 0.17549407482147217 0.29019609093666077 0.3490196168422699 0.3764705955982208
0.823399007320404 0.004579188302159309 0.9351778626441956 0.250980406999588 0.18431372940540314 0.11372549086809158
0.7975369691848755 0.038054633885622025 0.9881423115730286 0.29019609093666077 0.2666666805744171 0.21176470816135406
0.9812808036804199 0.06852992624044418 0.9715415239334106 0.364705890417099 0.3333333432674408 0.250980406999588
0.9642857313156128 0.039475761353969574 0.738339900970459 0.4117647111415863 0.2980392277240753 0.1725490242242813
0.9369457960128784 0.08668877184391022 0.9869565367698669 0.32549020648002625 0.2980392277240753 0.22745098173618317
0.7763546705245972 0.004421285353600979 0.8071146011352539 0.3137255012989044 0.23529411852359772 0.13725490868091583
0.7527093887329102 0.004263382405042648 0.48221343755722046 0.6274510025978088 0.45490196347236633 0.2078431397676468
0.931034505367279 0.041212696582078934 0.5426877737045288 0.5882353186607361 0.4117647111415863 0.250980406999588
0.8032019734382629 0.04452865943312645 0.05691699683666229 0.3450980484485626 0.21176470816135406 0.11372549086809158
0.7839901447296143 0.044686563313007355 0.574703574180603 0.6745098233222961 0.48235294222831726 0.32549020648002625
0.8396551609039307 0.006789830978959799 0.969565212726593 0.1411764770746231 0.12156862765550613 0.09803921729326248
0.7487684488296509 0.08226748555898666 0.16996046900749207 0.27450981736183167 0.32156863808631897 0.30588236451148987
0.7931034564971924 0.004105479456484318 0.2181818187236786 0.1764705926179886 0.13725490868091583 0.09019608050584793
0.8487684726715088 0.03268593177199364 0.9877470135688782 0.32156863808631897 0.29411765933036804 0.23137255012989044
0.9347290396690369 0.04137059673666954 0.4636363685131073 0.615686297416687 0.4470588266849518 0.239215686917305
0.7763546705245972 0.004579188302159309 0.8837944865226746 0.35686275362968445 0.26274511218070984 0.12156862765550613
0.7480295300483704 0.03852834179997444 0.007509881630539894 0.20000000298023224 0.18431372940540314 0.1725490242242813
0.8524630665779114 0.010737407021224499 0.9873517751693726 0.0941176488995552 0.07450980693101883 0.062745101749897
0.9741379022598267 0.036949314177036285 0.8505929112434387 0.32549020648002625 0.29019609093666077 0.2549019753932953
0.7763546705245972 0.004421285353600979 0.6343873739242554 0.23529411852359772 0.18431372940540314 0.11764705926179886
0.8369458317756653 0.09805779159069061 0.0063241105526685715 0.4156862795352936 0.41960784792900085 0.35686275362968445
0.889162540435791 0.005052897613495588 0.9114624261856079 0.2078431397676468 0.15294118225574493 0.10980392247438431
0.8950738906860352 0.09805779159069061 0.9885375499725342 0.3137255012989044 0.2823529541492462 0.23137255012989044
0.7960591316223145 0.044370755553245544 0.5387351512908936 0.6941176652908325 0.5098039507865906 0.3294117748737335
0.8600985407829285 0.04342333972454071 0.16956521570682526 0.6470588445663452 0.3921568691730499 0.18039216101169586
0.953201949596405 0.04105479270219803 0.43399208784103394 0.5960784554481506 0.4156862795352936 0.21960784494876862
0.9211822748184204 0.005684509873390198 0.9379446506500244 0.16862745583057404 0.12941177189350128 0.09019608050584793
0.7701970338821411 0.004421285353600979 0.8509881496429443 0.41960784792900085 0.30980393290519714 0.15294118225574493
0.9527093768119812 0.041844308376312256 0.18300394713878632 0.5960784554481506 0.37254902720451355 0.16470588743686676
0.9600985050201416 0.007737249135971069 0.8996047377586365 0.1882352977991104 0.13725490868091583 0.10196078568696976
0.8581280708312988 0.13279646635055542 0.9897233247756958 0.30980393290519714 0.27450981736183167 0.239215686917305
0.88768470287323 0.04263382405042648 0.13320158421993256 0.5333333611488342 0.30980393290519714 0.1411764770746231
0.7899014949798584 0.12726984918117523 0.991304337978363 0.3019607961177826 0.2823529541492462 0.2666666805744171
0.8182265758514404 0.04389704763889313 0.1039525717496872 0.4588235318660736 0.29411765933036804 0.20000000298023224
0.7667487859725952 0.04531817510724068 0.01462450623512268 0.3529411852359772 0.2705882489681244 0.1882352977991104
0.817241370677948 0.004579188302159309 0.7604743242263794 0.14509804546833038 0.11764705926179886 0.08627451211214066
0.8199507594108582 0.004579188302159309 0.6351778507232666 0.10980392247438431 0.09019608050584793 0.06666667014360428
0.7655172348022461 0.04358123987913132 0.43478259444236755 0.729411780834198 0.47843137383461 0.2980392277240753
0.9465517401695251 0.04105479270219803 0.4671936631202698 0.5921568870544434 0.4156862795352936 0.250980406999588
0.7980295419692993 0.04421285167336464 0.5766798257827759 0.6470588445663452 0.4745098054409027 0.33725491166114807
0.823645293712616 0.04421285167336464 0.12924900650978088 0.545098066329956 0.34117648005485535 0.19607843458652496
0.9763546586036682 0.1552186906337738 0.9861660003662109 0.2980392277240753 0.2705882489681244 0.2078431397676468
0.8775861859321594 0.04279172420501709 0.22213438153266907 0.6705882549285889 0.43529412150382996 0.20000000298023224
0.9766010046005249 0.061108481138944626 0.8509881496429443 0.07058823853731155 0.06666667014360428 0.05882352963089943
0.7950738668441772 0.15363965928554535 0.991304337978363 0.24313725531101227 0.239215686917305 0.23137255012989044
0.9463053941726685 0.039791569113731384 0.7881422638893127 0.4156862795352936 0.2980392277240753 0.1882352977991104
0.8278325200080872 0.03505447506904602 0.9877470135688782 0.2980392277240753 0.2705882489681244 0.2078431397676468
0.7652709484100342 0.004421285353600979 0.6324110627174377 0.40784314274787903 0.3019607961177826 0.18431372940540314
0.7758620977401733 0.08826780319213867 0.0063241105526685715 0.42352941632270813 0.40392157435417175 0.3176470696926117
0.9399014711380005 0.04137059673666954 0.30039525032043457 0.5372549295425415 0.3450980484485626 0.11764705926179886
0.9455664753913879 0.04137059673666954 0.2873517870903015 0.6078431606292725 0.37254902720451355 0.1764705926179886
0.8662561774253845 0.042949628084897995 0.42332014441490173 0.6431372761726379 0.45490196347236633 0.26274511218070984
0.9034482836723328 0.004894994664937258 0.9332015514373779 0.1921568661928177 0.1411764770746231 0.10588235408067703
0.9546797871589661 0.03994946926832199 0.06047431007027626 0.5647059082984924 0.35686275362968445 0.15294118225574493
0.8625615835189819 0.08668877184391022 0.9897233247756958 0.3137255012989044 0.2862745225429535 0.21568627655506134
0.8167487978935242 0.01784304529428482 0.9877470135688782 0.27450981736183167 0.24313725531101227 0.1921568661928177
0.9275861978530884 0.05226590856909752 0.9877470135688782 0.33725491166114807 0.30980393290519714 0.23529411852359772
0.825123131275177 0.004579188302159309 0.9067193865776062 0.2980392277240753 0.22745098173618317 0.1411764770746231
0.8039408922195435 0.12237486243247986 0.0063241105526685715 0.24705882370471954 0.23529411852359772 0.2078431397676468
0.8913792967796326 0.08732038736343384 0.006719367578625679 0.4941176474094391 0.49803921580314636 0.4274509847164154
0.93916255235672 0.1004263386130333 0.9869565367698669 0.3450980484485626 0.3176470696926117 0.2549019753932953
0.8884236216545105 0.04247592017054558 0.21581028401851654 0.6627451181411743 0.4313725531101227 0.20392157137393951
0.9539408683776855 0.10200536996126175 0.9865612387657166 0.3294117748737335 0.3019607961177826 0.239215686917305
0.9226601123809814 0.02494868077337742 0.9873517751693726 0.2549019753932953 0.22745098173618317 0.16470588743686676
0.9192118048667908 0.040423180907964706 0.7818182110786438 0.4627451002597809 0.32156863808631897 0.21960784494876862
0.9300492405891418 0.04216011241078377 0.11146245151758194 0.5647059082984924 0.364705890417099 0.14901961386203766
0.9411330223083496 0.15127111971378326 0.005928853526711464 0.5529412031173706 0.5568627715110779 0.4941176474094391
0.8536945581436157 0.043265435844659805 0.34545454382896423 0.615686297416687 0.364705890417099 0.18431372940540314
0.8118226528167725 0.04358123987913132 0.738339900970459 0.5960784554481506 0.4588235318660736 0.3490196168422699
0.7448275685310364 0.004421285353600979 0.2399209439754486 0.4901960790157318 0.35686275362968445 0.1764705926179886
0.9539408683776855 0.040423180907964706 0.5525691509246826 0.529411792755127 0.3529411852359772 0.1921568661928177
0.7891625761985779 0.04452865943312645 0.5948616862297058 0.6509804129600525 0.4588235318660736 0.3019607961177826
0.8453202247619629 0.043265435844659805 0.5762845873832703 0.6901960968971252 0.5137255191802979 0.3843137323856354
0.7391625642776489 0.05195010080933571 0.30513834953308105 0.2549019753932953 0.2862745225429535 0.2980392277240753
0.9770935773849487 0.14416548609733582 0.9861660003662109 0.3019607961177826 0.27450981736183167 0.20392157137393951
0.8933497667312622 0.025738196447491646 0.9873517751693726 0.250980406999588 0.2235294133424759 0.16078431904315948
0.7549260854721069 0.04200221225619316 0.7636363506317139 0.5490196347236633 0.34117648005485535 0.18431372940540314
0.9298029541969299 0.14163903892040253 0.005533596966415644 0.5098039507865906 0.5215686559677124 0.43921568989753723
0.7480295300483704 0.08858361095190048 0.9901185631752014 0.2705882489681244 0.2549019753932953 0.21960784494876862
0.8325123190879822 0.004263382405042648 0.21739129722118378 0.11764705926179886 0.09803921729326248 0.07450980693101883
0.8147783279418945 0.13958629965782166 0.0063241105526685715 0.6549019813537598 0.658823549747467 0.6352941393852234
0.7458128333091736 0.004263382405042648 0.40869563817977905 0.5647059082984924 0.40784314274787903 0.2078431397676468
0.7470443248748779 0.02810674160718918 0.008695651777088642 0.22745098173618317 0.2078431397676468 0.13333334028720856
0.7714285850524902 0.14811305701732635 0.992094874382019 0.24705882370471954 0.2235294133424759 0.2235294133424759
0.9428571462631226 0.040423180907964706 0.6332015991210938 0.5215686559677124 0.3960784375667572 0.24313725531101227
0.9825122952461243 0.03331754356622696 0.1612648218870163 0.3294117748737335 0.25882354378700256 0.1725490242242813
0.8051724433898926 0.04373914375901222 0.7260869741439819 0.6352941393852234 0.4941176474094391 0.3921568691730499
0.762561559677124 0.0718458890914917 0.9893280863761902 0.3019607961177826 0.27450981736183167 0.23529411852359772
0.9780788421630859 0.01089530996978283 0.9494071006774902 0.5254902243614197 0.3921568691730499 0.2549019753932953
0.8568965792655945 0.09158376604318619 0.006719367578625679 0.6039215922355652 0.6000000238418579 0.529411792755127
0.9440886974334717 0.041212696582078934 0.43517786264419556 0.6627451181411743 0.4588235318660736 0.23529411852359772
0.807635486125946 0.004421285353600979 0.5478261113166809 0.12941177189350128 0.10196078568696976 0.062745101749897
0.7694581151008606 0.07058266550302505 0.006719367578625679 0.5411764979362488 0.5254902243614197 0.47843137383461
0.7527093887329102 0.04105479270219803 0.014229249209165573 0.18431372940540314 0.1725490242242813 0.13725490868091583
0.8847290873527527 0.04263382405042648 0.07905138283967972 0.5686274766921997 0.364705890417099 0.16862745583057404
0.876600980758667 0.04689720645546913 0.00830039568245411 0.545098066329956 0.5411764979362488 0.41960784792900085
0.7832512259483337 0.06410863995552063 0.28418973088264465 0.21176470816135406 0.23137255012989044 0.24705882370471954
0.802955687046051 0.004421285353600979 0.9371541738510132 0.250980406999588 0.1882352977991104 0.125490203499794
0.9165024757385254 0.1177956759929657 0.9877470135688782 0.3019607961177826 0.2705882489681244 0.21960784494876862
0.8950738906860352 0.09805779159069061 0.9885375499725342 0.3137255012989044 0.2823529541492462 0.23137255012989044
0.943842351436615 0.1435338705778122 0.005533596966415644 0.572549045085907 0.5764706134796143 0.5058823823928833
0.9448275566101074 0.04200221225619316 0.13715414702892303 0.5686274766921997 0.3607843220233917 0.1568627506494522
0.9399014711380005 0.04137059673666954 0.40395256876945496 0.6235294342041016 0.41960784792900085 0.2235294133424759
0.9455664753913879 0.04216011241078377 0.12094862014055252 0.572549045085907 0.3529411852359772 0.16078431904315948
0.8694581389427185 0.12316437810659409 0.9893280863761902 0.2980392277240753 0.2666666805744171 0.2235294133424759
0.825123131275177 0.004421285353600979 0.3916996121406555 0.12941177189350128 0.10196078568696976 0.07058823853731155
0.7716748714447021 0.04389704763889313 0.48142293095588684 0.7372549176216125 0.5529412031173706 0.37254902720451355
0.9369457960128784 0.041844308376312256 0.1972332000732422 0.615686297416687 0.3843137323856354 0.16470588743686676
0.8066502213478088 0.004579188302159309 0.05691699683666229 0.0941176488995552 0.08235294371843338 0.054901961237192154
0.8320196866989136 0.04389704763889313 0.2027667909860611 0.7019608020782471 0.4470588266849518 0.18039216101169586
0.9256157875061035 0.10942681133747101 0.9873517751693726 0.3450980484485626 0.30980393290519714 0.250980406999588
0.75935959815979 0.06489815562963486 0.17588932812213898 0.2235294133424759 0.24313725531101227 0.2549019753932953
0.8455665111541748 0.15285015106201172 0.006719367578625679 0.6235294342041016 0.6196078658103943 0.5490196347236633
0.800000011920929 0.04358123987913132 0.8197628259658813 0.501960813999176 0.3607843220233917 0.25882354378700256
0.834482729434967 0.00473709125071764 0.87312251329422 0.3490196168422699 0.2705882489681244 0.1411764770746231
0.7726600766181946 0.004421285353600979 0.5758893489837646 0.29411765933036804 0.21568627655506134 0.12156862765550613
0.8716748952865601 0.04200221225619316 0.8086956739425659 0.4313725531101227 0.30980393290519714 0.1882352977991104
0.8386699557304382 0.07547765970230103 0.9893280863761902 0.3137255012989044 0.2823529541492462 0.23137255012989044
0.9802955389022827 0.02842254936695099 0.9047430753707886 0.3921568691730499 0.2823529541492462 0.19607843458652496
0.864039421081543 0.13737565279006958 0.9897233247756958 0.27450981736183167 0.250980406999588 0.20392157137393951
0.9817733764648438 0.12332227826118469 0.8893280625343323 0.5137255191802979 0.47058823704719543 0.3843137323856354
0.9039409160614014 0.04910784959793091 0.007905138656497002 0.5960784554481506 0.5843137502670288 0.5490196347236633
0.756157636642456 0.04373914375901222 0.5695652365684509 0.46666666865348816 0.2980392277240753 0.16470588743686676
0.8894088864326477 0.020527396351099014 0.9873517751693726 0.24313725531101227 0.21568627655506134 0.1764705926179886
0.8605911135673523 0.10247907787561417 0.9897233247756958 0.3137255012989044 0.2823529541492462 0.23137255012989044
0.8576354384422302 0.0431075319647789 0.5505928993225098 0.7058823704719543 0.5333333611488342 0.34117648005485535
0.8201970458030701 0.04405495151877403 0.42411068081855774 0.7098039388656616 0.48627451062202454 0.2705882489681244
0.8556650280952454 0.04279172420501709 0.6905138492584229 0.7215686440467834 0.6352941393852234 0.5803921818733215
0.8231527209281921 0.004579188302159309 0.6276679635047913 0.11372549086809158 0.0941176488995552 0.07058823853731155
0.7874384522438049 0.004421285353600979 0.6766798496246338 0.15294118225574493 0.11764705926179886 0.08235294371843338
0.8049260973930359 0.004579188302159309 0.9098814129829407 0.32156863808631897 0.24705882370471954 0.12941177189350128
0.81083744764328 0.04405495151877403 0.5478261113166809 0.6627451181411743 0.4901960790157318 0.33725491166114807
0.7660098671913147 0.06395073235034943 0.25138339400291443 0.18431372940540314 0.20000000298023224 0.19607843458652496
0.9120689630508423 0.022264329716563225 0.9873517751693726 0.239215686917305 0.20392157137393951 0.14509804546833038
0.9825122952461243 0.12995420396327972 0.9561265110969543 0.3921568691730499 0.3607843220233917 0.2862745225429535
0.7970443367958069 0.05479235574603081 0.007509881630539894 0.30588236451148987 0.2705882489681244 0.24313725531101227
0.7701970338821411 0.04421285167336464 0.9885375499725342 0.32549020648002625 0.29411765933036804 0.24313725531101227
0.8261083960533142 0.004579188302159309 0.9458497762680054 0.23137255012989044 0.18039216101169586 0.11764705926179886
0.8290640115737915 0.004263382405042648 0.24308300018310547 0.125490203499794 0.09803921729326248 0.06666667014360428
0.8327586054801941 0.043265435844659805 0.6754940748214722 0.6627451181411743 0.5490196347236633 0.4313725531101227
0.9738916158676147 0.03900205343961716 0.3861660063266754 0.7882353067398071 0.4941176474094391 0.2705882489681244
0.7889162302017212 0.004421285353600979 0.45494070649147034 0.1764705926179886 0.1411764770746231 0.08235294371843338
0.7970443367958069 0.044370755553245544 0.2501976191997528 0.2705882489681244 0.19607843458652496 0.12941177189350128
0.9556650519371033 0.0402652770280838 0.5865612626075745 0.5176470875740051 0.3686274588108063 0.1921568661928177
0.7460591197013855 0.02131691202521324 0.9885375499725342 0.25882354378700256 0.24705882370471954 0.1882352977991104
0.9625615477561951 0.041844308376312256 0.16324110329151154 0.5960784554481506 0.3764705955982208 0.1764705926179886
0.7975369691848755 0.09632086008787155 0.9905138611793518 0.26274511218070984 0.24313725531101227 0.21960784494876862
0.7928571701049805 0.04089688882231712 0.05059288442134857 0.3490196168422699 0.21960784494876862 0.16078431904315948
0.7426108121871948 0.06252960860729218 0.25335967540740967 0.20000000298023224 0.20392157137393951 0.21960784494876862
0.9384236335754395 0.06426654011011124 0.0071146246045827866 0.6470588445663452 0.6470588445663452 0.6078431606292725
0.8753694295883179 0.00473709125071764 0.9324110746383667 0.18431372940540314 0.13333334028720856 0.09803921729326248
0.8147783279418945 0.05052897706627846 0.007905138656497002 0.2549019753932953 0.22745098173618317 0.19607843458652496
0.9812808036804199 0.0487920418381691 0.9019762873649597 0.23137255012989044 0.20392157137393951 0.18039216101169586
0.9504926204681396 0.040423180907964706 0.0782608687877655 0.572549045085907 0.3450980484485626 0.16470588743686676
0.9413793087005615 0.09395231306552887 0.9869565367698669 0.3176470696926117 0.29019609093666077 0.21960784494876862
0.9502463340759277 0.13011211156845093 0.9869565367698669 0.3176470696926117 0.2862745225429535 0.23529411852359772
0.9051724076271057 0.04168640449643135 0.6241106986999512 0.5647059082984924 0.43921568989753723 0.34117648005485535
0.80147784948349 0.15316595137119293 0.0063241105526685715 0.6000000238418579 0.6039215922355652 0.5490196347236633
0.898522138595581 0.041212696582078934 0.7604743242263794 0.501960813999176 0.37254902720451355 0.24313725531101227
0.8354679942131042 0.10863729566335678 0.0063241105526685715 0.5137255191802979 0.5333333611488342 0.5098039507865906
0.7766009569168091 0.1496920883655548 0.9916995763778687 0.2666666805744171 0.24313725531101227 0.24313725531101227
0.802955687046051 0.14874467253684998 0.991304337978363 0.24705882370471954 0.23137255012989044 0.21960784494876862
0.915517270565033 0.04216011241078377 0.12450592964887619 0.5921568870544434 0.37254902720451355 0.1725490242242813
0.765763521194458 0.04516027122735977 0.015810277312994003 0.3803921639919281 0.27843138575553894 0.18039216101169586
0.8694581389427185 0.0431075319647789 0.1505928784608841 0.6235294342041016 0.38823530077934265 0.1764705926179886
0.7830049395561218 0.11321648210287094 0.005928853526711464 0.5058823823928833 0.49803921580314636 0.43921568989753723
0.823399007320404 0.004421285353600979 0.1561264842748642 0.09803921729326248 0.08627451211214066 0.06666667014360428
0.807881772518158 0.04421285167336464 0.2806324064731598 0.6509804129600525 0.4274509847164154 0.1568627506494522
0.8024630546569824 0.004105479456484318 0.18853755295276642 0.1411764770746231 0.11372549086809158 0.07450980693101883
0.8741379380226135 0.0431075319647789 0.03754940629005432 0.529411792755127 0.3294117748737335 0.15294118225574493
0.8004925847053528 0.01894836500287056 0.9881423115730286 0.2823529541492462 0.250980406999588 0.20000000298023224
0.8807882070541382 0.04263382405042648 0.37114623188972473 0.6313725709915161 0.4000000059604645 0.18039216101169586
0.9100984930992126 0.0690036341547966 0.006719367578625679 0.4588235318660736 0.45098039507865906 0.40392157435417175
0.9822660088539124 0.11621664464473724 0.8826087117195129 0.529411792755127 0.48627451062202454 0.4000000059604645
0.9157635569572449 0.04073898494243622 0.7371541261672974 0.4901960790157318 0.35686275362968445 0.24705882370471954
0.9815270900726318 0.03821253776550293 0.5387351512908936 0.0784313753247261 0.0784313753247261 0.08627451211214066
0.7889162302017212 0.004579188302159309 0.8320158123970032 0.4117647111415863 0.3137255012989044 0.15294118225574493
0.9785714149475098 0.042949628084897995 0.8743082880973816 0.47843137383461 0.45490196347236633 0.3686274588108063
0.953201949596405 0.12111163884401321 0.005533596966415644 0.43529412150382996 0.47058823704719543 0.40392157435417175
0.953201949596405 0.0402652770280838 0.5992094874382019 0.5529412031173706 0.4156862795352936 0.25882354378700256
0.7729064226150513 0.11621664464473724 0.005928853526711464 0.658823549747467 0.6705882549285889 0.6039215922355652
0.7431034445762634 0.1381651610136032 0.992094874382019 0.30588236451148987 0.29019609093666077 0.2862745225429535
0.7827585935592651 0.052423812448978424 0.3079051375389099 0.27843138575553894 0.2823529541492462 0.29019609093666077
0.7443349957466125 0.004263382405042648 0.395652174949646 0.6000000238418579 0.4470588266849518 0.23137255012989044
0.7950738668441772 0.04373914375901222 0.8023715615272522 0.545098066329956 0.40784314274787903 0.2980392277240753
0.7849753499031067 0.12600663304328918 0.005928853526711464 0.6470588445663452 0.6352941393852234 0.6078431606292725
0.7918719053268433 0.13674403727054596 0.991304337978363 0.25882354378700256 0.239215686917305 0.2235294133424759
0.9472906589508057 0.04168640449643135 0.21225295960903168 0.6235294342041016 0.3843137323856354 0.1725490242242813
0.8221675157546997 0.004105479456484318 0.29328063130378723 0.15294118225574493 0.11764705926179886 0.09019608050584793
0.820443332195282 0.07926733046770096 0.007509881630539894 0.40392157435417175 0.3803921639919281 0.3176470696926117
0.8615763783454895 0.04373914375901222 0.022134387865662575 0.5490196347236633 0.3607843220233917 0.16862745583057404
0.9825122952461243 0.07989893853664398 0.8853754997253418 0.501960813999176 0.48235294222831726 0.3960784375667572
0.8903940916061401 0.09316279739141464 0.9889327883720398 0.30980393290519714 0.2823529541492462 0.21960784494876862
0.8665024638175964 0.04200221225619316 0.8264822363853455 0.3960784375667572 0.27450981736183167 0.16078431904315948
0.9041872024536133 0.05352913215756416 0.007509881630539894 0.4313725531101227 0.4313725531101227 0.3843137323856354
0.9243842363357544 0.019737880676984787 0.9869565367698669 0.24313725531101227 0.20392157137393951 0.1568627506494522
0.8679803013801575 0.042949628084897995 0.3968379497528076 0.6980392336845398 0.4627451002597809 0.250980406999588
0.9539408683776855 0.039475761353969574 0.812252938747406 0.3921568691730499 0.27450981736183167 0.1725490242242813
0.7711822390556335 0.004421285353600979 0.20948617160320282 0.2980392277240753 0.21960784494876862 0.11372549086809158
0.762561559677124 0.005842412821948528 0.01067193690687418 0.27843138575553894 0.2666666805744171 0.23137255012989044
0.9761083722114563 0.05668719485402107 0.85138338804245 0.07058823853731155 0.06666667014360428 0.05882352963089943
0.7963054180145264 0.06395073235034943 0.15177865326404572 0.09019608050584793 0.09019608050584793 0.09019608050584793
0.937438428401947 0.07500394433736801 0.9873517751693726 0.3176470696926117 0.29019609093666077 0.21960784494876862
0.798275887966156 0.09711037576198578 0.0063241105526685715 0.45490196347236633 0.43921568989753723 0.3333333432674408
0.9716748595237732 0.11147955060005188 0.9861660003662109 0.27450981736183167 0.24705882370471954 0.1764705926179886
0.7426108121871948 0.057318806648254395 0.2762845754623413 0.24313725531101227 0.27450981736183167 0.2862745225429535
0.8953201770782471 0.155376598238945 0.9885375499725342 0.32156863808631897 0.2980392277240753 0.250980406999588
0.7536945939064026 0.11732196062803268 0.991304337978363 0.2823529541492462 0.2705882489681244 0.250980406999588
0.7416256070137024 0.004263382405042648 0.5743082761764526 0.5568627715110779 0.4274509847164154 0.21568627655506134
0.9177339673042297 0.041844308376312256 0.4375494122505188 0.5607843399047852 0.4313725531101227 0.26274511218070984
0.8068965673446655 0.04342333972454071 0.8233201503753662 0.47058823704719543 0.33725491166114807 0.239215686917305
0.8647783398628235 0.1234801858663559 0.9897233247756958 0.3137255012989044 0.2823529541492462 0.239215686917305
0.881280779838562 0.04279172420501709 0.26403161883354187 0.6313725709915161 0.40784314274787903 0.1921568661928177
0.8411329984664917 0.04279172420501709 0.7628458738327026 0.5333333611488342 0.3960784375667572 0.3176470696926117
0.9012315273284912 0.04168640449643135 0.6494070887565613 0.5882353186607361 0.48627451062202454 0.38823530077934265
0.7418718934059143 0.004263382405042648 0.5695652365684509 0.5333333611488342 0.40392157435417175 0.1921568661928177
0.7980295419692993 0.004263382405042648 0.36245059967041016 0.1764705926179886 0.13725490868091583 0.09803921729326248
0.9793103337287903 0.11321648210287094 0.005138339940458536 0.5058823823928833 0.48235294222831726 0.4274509847164154
0.8128078579902649 0.004421285353600979 0.5395256876945496 0.13725490868091583 0.10980392247438431 0.07058823853731155
0.7529556751251221 0.07831991463899612 0.006719367578625679 0.4901960790157318 0.46666666865348816 0.3803921639919281
0.8463054299354553 0.10863729566335678 0.006719367578625679 0.5960784554481506 0.5960784554481506 0.5490196347236633
0.75 0.004421285353600979 0.13715414702892303 0.3490196168422699 0.2705882489681244 0.1411764770746231
0.753201961517334 0.06837201863527298 0.17470355331897736 0.250980406999588 0.2666666805744171 0.27843138575553894
0.9088670015335083 0.12032212316989899 0.006719367578625679 0.5176470875740051 0.5137255191802979 0.43529412150382996
0.8295566439628601 0.00473709125071764 0.054940711706876755 0.07450980693101883 0.062745101749897 0.04313725605607033
0.7635468244552612 0.09726827591657639 0.0063241105526685715 0.5098039507865906 0.5098039507865906 0.4000000059604645
0.796798050403595 0.004421285353600979 0.4889328181743622 0.15294118225574493 0.12156862765550613 0.0784313753247261
0.9647783041000366 0.05668719485402107 0.0071146246045827866 0.48235294222831726 0.47058823704719543 0.45098039507865906
0.7992610931396484 0.04342333972454071 0.8498023748397827 0.3607843220233917 0.2823529541492462 0.18431372940540314
0.800000011920929 0.004263382405042648 0.25177866220474243 0.1725490242242813 0.13333334028720856 0.08627451211214066
0.9083743691444397 0.005368703510612249 0.9003952741622925 0.20392157137393951 0.15294118225574493 0.11764705926179886
0.8866994976997375 0.15695562958717346 0.0063241105526685715 0.5333333611488342 0.5372549295425415 0.46666666865348816
0.7605911493301392 0.004421285353600979 0.4581027626991272 0.5058823823928833 0.35686275362968445 0.18039216101169586
0.9825122952461243 0.07958313822746277 0.8999999761581421 0.501960813999176 0.47058823704719543 0.3803921639919281
0.9731526970863342 0.03994946926832199 0.5138339996337891 0.49803921580314636 0.3333333432674408 0.16862745583057404
0.8588669896125793 0.05147639289498329 0.9885375499725342 0.3176470696926117 0.29019609093666077 0.22745098173618317
0.8539409041404724 0.042949628084897995 0.6529644131660461 0.7450980544090271 0.6000000238418579 0.4941176474094391
0.8958128094673157 0.11321648210287094 0.9885375499725342 0.3137255012989044 0.2823529541492462 0.239215686917305
0.8559113144874573 0.0487920418381691 0.00830039568245411 0.501960813999176 0.4941176474094391 0.4431372582912445
0.8354679942131042 0.04373914375901222 0.21620553731918335 0.6784313917160034 0.4470588266849518 0.1882352977991104
0.8201970458030701 0.04389704763889313 0.2818181812763214 0.7137255072593689 0.48627451062202454 0.239215686917305
0.7684729099273682 0.03868624567985535 0.06679841876029968 0.21960784494876862 0.2235294133424759 0.239215686917305
0.807881772518158 0.03963366523385048 0.9881423115730286 0.2823529541492462 0.250980406999588 0.20000000298023224
0.9820197224617004 0.12869098782539368 0.8687747120857239 0.3019607961177826 0.29411765933036804 0.24313725531101227
0.8036946058273315 0.11400599777698517 0.0063241105526685715 0.5254902243614197 0.5411764979362488 0.4745098054409027
0.8773398995399475 0.04279172420501709 0.3948616683483124 0.6705882549285889 0.4627451002597809 0.2666666805744171
0.8135467767715454 0.004579188302159309 0.6885375380516052 0.12156862765550613 0.0941176488995552 0.07058823853731155
0.8997536897659302 0.05716090276837349 0.9885375499725342 0.30588236451148987 0.27843138575553894 0.2078431397676468
0.88768470287323 0.029843676835298538 0.9877470135688782 0.27843138575553894 0.250980406999588 0.1882352977991104
0.9605911374092102 0.1005842387676239 0.005928853526711464 0.6509804129600525 0.658823549747467 0.6039215922355652
0.804679811000824 0.04168640449643135 0.04110671952366829 0.3333333432674408 0.2078431397676468 0.10980392247438431
0.8960590958595276 0.04263382405042648 0.9881423115730286 0.3019607961177826 0.2705882489681244 0.21960784494876862
0.8660098314285278 0.042949628084897995 0.4003952443599701 0.6941176652908325 0.47058823704719543 0.26274511218070984
0.9431034326553345 0.04168640449643135 0.2142292559146881 0.5529412031173706 0.3764705955982208 0.15294118225574493
0.818719208240509 0.004421285353600979 0.552173912525177 0.1411764770746231 0.10588235408067703 0.07058823853731155
0.9352216720581055 0.03994946926832199 0.030434781685471535 0.5333333611488342 0.33725491166114807 0.13725490868091583
0.8381773233413696 0.14716564118862152 0.006719367578625679 0.6000000238418579 0.6117647290229797 0.545098066329956
0.756157636642456 0.004263382405042648 0.3529644310474396 0.545098066329956 0.4000000059604645 0.2235294133424759
0.9726601243019104 0.03868624567985535 0.7233201861381531 0.4431372582912445 0.3294117748737335 0.21176470816135406
0.7709359526634216 0.004421285353600979 0.7723320126533508 0.29019609093666077 0.21960784494876862 0.13333334028720856
0.823399007320404 0.042949628084897995 0.8201581239700317 0.4588235318660736 0.33725491166114807 0.22745098173618317
0.9270936250686646 0.041528500616550446 0.4525691568851471 0.5882353186607361 0.41960784792900085 0.2549019753932953
0.9487684965133667 0.09916311502456665 0.0063241105526685715 0.5411764979362488 0.5529412031173706 0.48627451062202454
0.9549261331558228 0.1436917781829834 0.005533596966415644 0.5176470875740051 0.5254902243614197 0.4431372582912445
0.7591133117675781 0.022264329716563225 0.011462450958788395 0.2666666805744171 0.25882354378700256 0.21176470816135406
0.7559113502502441 0.04373914375901222 0.5948616862297058 0.3960784375667572 0.29411765933036804 0.23529411852359772
0.9820197224617004 0.13342808187007904 0.9142292737960815 0.46666666865348816 0.43921568989753723 0.364705890417099
0.8290640115737915 0.06521395593881607 0.9889327883720398 0.2980392277240753 0.27450981736183167 0.22745098173618317
0.7566502690315247 0.12142744660377502 0.18458497524261475 0.34117648005485535 0.3803921639919281 0.3764705955982208
0.7529556751251221 0.13753356039524078 0.992094874382019 0.18039216101169586 0.16470588743686676 0.16078431904315948
0.7822660207748413 0.13090161979198456 0.005928853526711464 0.6470588445663452 0.6352941393852234 0.5764706134796143
0.9199507236480713 0.04137059673666954 0.5770751237869263 0.5490196347236633 0.41960784792900085 0.250980406999588
0.934236466884613 0.04073898494243622 0.6233201622962952 0.5686274766921997 0.40784314274787903 0.2823529541492462
0.7761083841323853 0.04452865943312645 0.604347825050354 0.6941176652908325 0.5137255191802979 0.3803921639919281
0.7662561535835266 0.044370755553245544 0.02292490191757679 0.3764705955982208 0.24313725531101227 0.13725490868091583
0.7507389187812805 0.03237012401223183 0.9889327883720398 0.26274511218070984 0.23137255012989044 0.18039216101169586
0.7662561535835266 0.07531975209712982 0.17509882152080536 0.29019609093666077 0.3490196168422699 0.3764705955982208
0.9443349838256836 0.040423180907964706 0.6209486126899719 0.4941176474094391 0.35686275362968445 0.23137255012989044
