0.9544335007667542 0.3885993957519531 0.006719367578625679 0.47843137383461 0.48235294222831726 0.41960784792900085
0.9731526970863342 0.299699991941452 0.33043476939201355 0.3803921639919281 0.3843137323856354 0.3607843220233917
0.7955664992332458 0.26038211584091187 0.9928853511810303 0.2705882489681244 0.27450981736183167 0.250980406999588
0.7990148067474365 0.31170061230659485 0.0063241105526685715 0.5058823823928833 0.5176470875740051 0.4431372582912445
0.9798029661178589 0.24538134038448334 0.06284584850072861 0.6941176652908325 0.686274528503418 0.5960784554481506
0.738916277885437 0.3939681053161621 0.27905139327049255 0.125490203499794 0.125490203499794 0.125490203499794
0.9817733764648438 0.2872256338596344 0.20434781908988953 0.7058823704719543 0.6980392336845398 0.6470588445663452
0.9805418848991394 0.3281225264072418 0.07193675637245178 0.7450980544090271 0.7529411911964417 0.7019608020782471
0.8332512378692627 0.28075161576271057 0.0063241105526685715 0.545098066329956 0.5529412031173706 0.4588235318660736
0.9802955389022827 0.32543817162513733 0.9873517751693726 0.30588236451148987 0.2823529541492462 0.22745098173618317
0.7450739145278931 0.3503868579864502 0.19130434095859528 0.06666667014360428 0.06666667014360428 0.05882352963089943
0.9810344576835632 0.30317384004592896 0.8059288263320923 0.5333333611488342 0.529411792755127 0.5137255191802979
0.9763546586036682 0.2526448667049408 0.4857707619667053 0.7215686440467834 0.7372549176216125 0.7490196228027344
0.9820197224617004 0.275856614112854 0.8256916999816895 0.5960784554481506 0.6000000238418579 0.545098066329956
0.9812808036804199 0.39207327365875244 0.13241106271743774 0.7098039388656616 0.7058823704719543 0.6235294342041016
0.9150246381759644 0.3079109489917755 0.9897233247756958 0.4117647111415863 0.40392157435417175 0.35686275362968445
0.9770935773849487 0.2556450366973877 0.4122529625892639 0.7137255072593689 0.7333333492279053 0.7450980544090271
0.9603448510169983 0.321806401014328 0.00830039568245411 0.3764705955982208 0.364705890417099 0.2980392277240753
0.9041872024536133 0.3641244173049927 0.007509881630539894 0.5882353186607361 0.5764706134796143 0.5098039507865906
0.9766010046005249 0.26827728748321533 0.45612648129463196 0.7137255072593689 0.7333333492279053 0.7450980544090271
0.9766010046005249 0.38433602452278137 0.37707510590553284 0.6392157077789307 0.686274528503418 0.6784313917160034
0.7433497309684753 0.3816516697406769 0.23596838116645813 0.14509804546833038 0.14509804546833038 0.13725490868091583
0.7743842601776123 0.2875414490699768 0.9936758875846863 0.22745098173618317 0.2235294133424759 0.21568627655506134
0.9825122952461243 0.3363334834575653 0.8233201503753662 0.5843137502670288 0.5882353186607361 0.5176470875740051
0.9766010046005249 0.32638558745384216 0.4209486246109009 0.6705882549285889 0.6980392336845398 0.7215686440467834
0.8667487502098083 0.2409600466489792 0.9909090995788574 0.30588236451148987 0.30588236451148987 0.25882354378700256
0.9778324961662292 0.38086214661598206 0.7221344113349915 0.5803921818733215 0.6039215922355652 0.5960784554481506
0.9539408683776855 0.3855992555618286 0.006719367578625679 0.48235294222831726 0.4901960790157318 0.40784314274787903
0.7869458198547363 0.24064424633979797 0.9928853511810303 0.2823529541492462 0.27843138575553894 0.26274511218070984
0.7788177132606506 0.3197536766529083 0.006719367578625679 0.3686274588108063 0.35686275362968445 0.2980392277240753
0.7591133117675781 0.29180482029914856 0.007509881630539894 0.24705882370471954 0.24705882370471954 0.2078431397676468
0.7455664873123169 0.3699668347835541 0.2509881556034088 0.1411764770746231 0.14509804546833038 0.125490203499794
0.7460591197013855 0.3705984652042389 0.23636363446712494 0.15294118225574493 0.1568627506494522 0.13725490868091583
0.9800492525100708 0.2932259738445282 0.7897233366966248 0.6117647290229797 0.6235294342041016 0.6431372761726379
0.8933497667312622 0.2441181093454361 0.9901185631752014 0.3607843220233917 0.3450980484485626 0.2980392277240753
0.9768472909927368 0.27948838472366333 0.4047430753707886 0.7098039388656616 0.729411780834198 0.7411764860153198
0.9736453294754028 0.3361755907535553 0.3332015872001648 0.4156862795352936 0.4313725531101227 0.43529412150382996
0.9807881712913513 0.23748618364334106 0.792094886302948 0.6431372761726379 0.658823549747467 0.6627451181411743
0.9625615477561951 0.33191221952438354 0.008695651777088642 0.48235294222831726 0.4745098054409027 0.4274509847164154
0.9339901208877563 0.3595452308654785 0.9889327883720398 0.4000000059604645 0.3843137323856354 0.33725491166114807
0.873399019241333 0.3595452308654785 0.9905138611793518 0.40392157435417175 0.3921568691730499 0.364705890417099
0.9834975600242615 0.372967004776001 0.9517786502838135 0.40784314274787903 0.3764705955982208 0.3333333432674408
0.8522167205810547 0.26338228583335876 0.0063241105526685715 0.529411792755127 0.529411792755127 0.41960784792900085
0.9768472909927368 0.367756187915802 0.3707509934902191 0.6823529601097107 0.7215686440467834 0.7176470756530762
0.9825122952461243 0.2382756918668747 0.9521738886833191 0.42352941632270813 0.4000000059604645 0.33725491166114807
0.9807881712913513 0.36949312686920166 0.260869562625885 0.6980392336845398 0.7058823704719543 0.6509804129600525
0.9766010046005249 0.2698563039302826 0.343873530626297 0.729411780834198 0.7568627595901489 0.7803921699523926
0.9729064106941223 0.33791252970695496 0.33043476939201355 0.3529411852359772 0.3607843220233917 0.34117648005485535
0.9081280827522278 0.26827728748321533 0.9897233247756958 0.3803921639919281 0.3686274588108063 0.30980393290519714
0.9825122952461243 0.24932891130447388 0.95652174949646 0.4156862795352936 0.38823530077934265 0.3176470696926117
0.9825122952461243 0.25138166546821594 0.8909090757369995 0.5333333611488342 0.5254902243614197 0.43529412150382996
0.9817733764648438 0.27775144577026367 0.12885375320911407 0.7215686440467834 0.7254902124404907 0.6627451181411743
0.8022167682647705 0.2564345598220825 0.006719367578625679 0.4588235318660736 0.46666666865348816 0.3803921639919281
0.9766010046005249 0.24869729578495026 0.46086955070495605 0.7254902124404907 0.7411764860153198 0.7529411911964417
0.9766010046005249 0.30301594734191895 0.4150197505950928 0.6941176652908325 0.7137255072593689 0.729411780834198
0.9785714149475098 0.356702983379364 0.7430830001831055 0.5960784554481506 0.6117647290229797 0.615686297416687
0.9800492525100708 0.321648508310318 0.7952569127082825 0.5843137502670288 0.6000000238418579 0.6117647290229797
0.7805418968200684 0.259276807308197 0.0071146246045827866 0.35686275362968445 0.3490196168422699 0.2666666805744171
0.9793103337287903 0.2409600466489792 0.9873517751693726 0.2980392277240753 0.2823529541492462 0.239215686917305
0.9536945819854736 0.3762829601764679 0.9881423115730286 0.3294117748737335 0.3176470696926117 0.25882354378700256
0.9775862097740173 0.27506712079048157 0.643478274345398 0.686274528503418 0.7098039388656616 0.7098039388656616
0.9817733764648438 0.2469603717327118 0.8256916999816895 0.5960784554481506 0.5843137502670288 0.5176470875740051
0.9386699795722961 0.286594033241272 0.0071146246045827866 0.4313725531101227 0.4117647111415863 0.32549020648002625
0.9751231670379639 0.367598295211792 0.5422924757003784 0.6392157077789307 0.658823549747467 0.6705882549285889
0.740394115447998 0.3298594653606415 0.9936758875846863 0.9176470637321472 0.95686274766922 0.9921568632125854
0.9753694534301758 0.39191535115242004 0.49802371859550476 0.6313725709915161 0.6666666865348816 0.6549019813537598
0.9761083722114563 0.39191535115242004 0.42964425683021545 0.6549019813537598 0.6901960968971252 0.686274528503418
0.8421182036399841 0.38907310366630554 0.005928853526711464 0.5607843399047852 0.5529412031173706 0.47058823704719543
0.9790640473365784 0.2635401785373688 0.03794466331601143 0.18431372940540314 0.16862745583057404 0.13333334028720856
0.8615763783454895 0.23685456812381744 0.006719367578625679 0.46666666865348816 0.46666666865348816 0.364705890417099
0.9825122952461243 0.30601611733436584 0.8628458380699158 0.5647059082984924 0.5372549295425415 0.4745098054409027
0.8704433441162109 0.34391283988952637 0.9905138611793518 0.3764705955982208 0.3607843220233917 0.32549020648002625
0.7864531874656677 0.3181746304035187 0.9932806491851807 0.3921568691730499 0.37254902720451355 0.3490196168422699
0.9751231670379639 0.3915995657444 0.5292490124702454 0.6392157077789307 0.6627451181411743 0.6627451181411743
0.8332512378692627 0.3846518099308014 0.005928853526711464 0.6352941393852234 0.6117647290229797 0.5490196347236633
0.8839901685714722 0.29733145236968994 0.0063241105526685715 0.501960813999176 0.501960813999176 0.40784314274787903
0.9748768210411072 0.3597031533718109 0.3391304314136505 0.7254902124404907 0.7686274647712708 0.7529411911964417
0.8586207032203674 0.27364596724510193 0.991304337978363 0.35686275362968445 0.3490196168422699 0.2980392277240753
0.8761083483695984 0.37170377373695374 0.0071146246045827866 0.5411764979362488 0.5372549295425415 0.46666666865348816
0.9830049276351929 0.26306647062301636 0.9284585118293762 0.4745098054409027 0.4470588266849518 0.37254902720451355
0.885960578918457 0.31706932187080383 0.0071146246045827866 0.572549045085907 0.5803921818733215 0.49803921580314636
0.8497536778450012 0.38623085618019104 0.9901185631752014 0.4000000059604645 0.38823530077934265 0.3686274588108063
0.7399014830589294 0.2823306620121002 0.007509881630539894 0.18039216101169586 0.16862745583057404 0.10980392247438431
0.7502462863922119 0.2558029294013977 0.0071146246045827866 0.18039216101169586 0.1725490242242813 0.12156862765550613
0.7586206793785095 0.23938101530075073 0.006719367578625679 0.30588236451148987 0.2980392277240753 0.21568627655506134
0.9756157398223877 0.3339649438858032 0.5328063368797302 0.6705882549285889 0.6823529601097107 0.7019608020782471
0.9770935773849487 0.26243487000465393 0.395652174949646 0.7254902124404907 0.7411764860153198 0.7529411911964417
0.804679811000824 0.2526448667049408 0.9924901127815247 0.30588236451148987 0.29411765933036804 0.27450981736183167
0.9756157398223877 0.37801989912986755 0.47707509994506836 0.6313725709915161 0.6627451181411743 0.6705882549285889
0.8300492763519287 0.30270013213157654 0.0063241105526685715 0.5215686559677124 0.5333333611488342 0.45098039507865906
0.9652709364891052 0.24032843112945557 0.0071146246045827866 0.4313725531101227 0.43529412150382996 0.364705890417099
0.982758641242981 0.3641244173049927 0.8241106867790222 0.572549045085907 0.5803921818733215 0.4941176474094391
0.9778324961662292 0.28043580055236816 0.6581027507781982 0.6901960968971252 0.6941176652908325 0.7137255072593689
0.7859606146812439 0.33238592743873596 0.9932806491851807 0.26274511218070984 0.26274511218070984 0.2549019753932953
0.9758620858192444 0.28343597054481506 0.551383376121521 0.7137255072593689 0.729411780834198 0.7411764860153198
0.9785714149475098 0.28912046551704407 0.7075098752975464 0.6509804129600525 0.6745098233222961 0.6745098233222961
0.9788177609443665 0.3938102126121521 0.7861660122871399 0.5333333611488342 0.5411764979362488 0.5215686559677124
0.9152709245681763 0.3878098726272583 0.0071146246045827866 0.5098039507865906 0.5058823823928833 0.42352941632270813
0.9179803133010864 0.24932891130447388 0.006719367578625679 0.5098039507865906 0.5058823823928833 0.42352941632270813
0.8226600885391235 0.2938575744628906 0.0063241105526685715 0.5254902243614197 0.5568627715110779 0.4745098054409027
0.9753694534301758 0.36633506417274475 0.5636363625526428 0.6352941393852234 0.6470588445663452 0.6666666865348816
0.9736453294754028 0.31422707438468933 0.313043475151062 0.5098039507865906 0.5058823823928833 0.43529412150382996
0.9837438464164734 0.35717669129371643 0.9490118622779846 0.4156862795352936 0.3921568691730499 0.33725491166114807
0.9549261331558228 0.3855992555618286 0.006719367578625679 0.43529412150382996 0.4431372582912445 0.3607843220233917
0.9756157398223877 0.3124901354312897 0.5094861388206482 0.686274528503418 0.7019608020782471 0.7058823704719543
0.9802955389022827 0.24917100369930267 0.08221343904733658 0.7019608020782471 0.7098039388656616 0.615686297416687
0.979556679725647 0.3426496088504791 0.7881422638893127 0.5764706134796143 0.6000000238418579 0.6000000238418579
0.9820197224617004 0.3224380314350128 0.11067193746566772 0.7176470756530762 0.7098039388656616 0.6627451181411743
0.9800492525100708 0.281067430973053 0.7786561250686646 0.6117647290229797 0.6274510025978088 0.6392157077789307
0.9756157398223877 0.2966998219490051 0.5288537740707397 0.7058823704719543 0.7215686440467834 0.7176470756530762
0.9733990430831909 0.2635401785373688 0.33043476939201355 0.3960784375667572 0.4000000059604645 0.3764705955982208
0.956403911113739 0.3167535066604614 0.00830039568245411 0.3843137323856354 0.37254902720451355 0.30588236451148987
0.9802955389022827 0.3369651138782501 0.06047431007027626 0.7450980544090271 0.7333333492279053 0.6666666865348816
0.8354679942131042 0.36317700147628784 0.9909090995788574 0.40392157435417175 0.3921568691730499 0.37254902720451355
0.9822660088539124 0.2580135762691498 0.17075099050998688 0.7019608020782471 0.7058823704719543 0.6352941393852234
0.748522162437439 0.3885993957519531 0.29960474371910095 0.49803921580314636 0.5137255191802979 0.5176470875740051
0.9756157398223877 0.3903363347053528 0.47075098752975464 0.6352941393852234 0.6549019813537598 0.6666666865348816
0.9768472909927368 0.27490919828414917 0.6154150366783142 0.6941176652908325 0.7176470756530762 0.7176470756530762
0.9830049276351929 0.3014369308948517 0.8996047377586365 0.5137255191802979 0.4941176474094391 0.40784314274787903
0.7857142686843872 0.24348649382591248 0.006719367578625679 0.4156862795352936 0.4313725531101227 0.3333333432674408
0.9337438344955444 0.2504342198371887 0.9889327883720398 0.3803921639919281 0.3686274588108063 0.30980393290519714
0.8458127975463867 0.3593873381614685 0.0063241105526685715 0.5686274766921997 0.5647059082984924 0.4941176474094391
0.9812808036804199 0.2554871439933777 0.27430829405784607 0.7254902124404907 0.729411780834198 0.6745098233222961
0.9834975600242615 0.3942839205265045 0.8980237245559692 0.47058823704719543 0.45098039507865906 0.3764705955982208
0.9741379022598267 0.2845412790775299 0.31541502475738525 0.5137255191802979 0.5098039507865906 0.43921568989753723
0.9719212055206299 0.2610137462615967 0.9877470135688782 0.2980392277240753 0.2823529541492462 0.23529411852359772
0.9349753856658936 0.32622769474983215 0.00830039568245411 0.5843137502670288 0.5647059082984924 0.48627451062202454
0.9300492405891418 0.3909679353237152 0.006719367578625679 0.6000000238418579 0.5960784554481506 0.5176470875740051
0.9783251285552979 0.24238118529319763 0.6743083000183105 0.6823529601097107 0.6980392336845398 0.7098039388656616
0.982758641242981 0.2576977610588074 0.9169960618019104 0.5058823823928833 0.4745098054409027 0.3921568691730499
0.9362068772315979 0.27206695079803467 0.006719367578625679 0.3803921639919281 0.3686274588108063 0.29411765933036804
0.889162540435791 0.2414337545633316 0.006719367578625679 0.5333333611488342 0.5333333611488342 0.43921568989753723
0.7955664992332458 0.2809095084667206 0.9928853511810303 0.2705882489681244 0.2666666805744171 0.250980406999588
0.9817733764648438 0.3791252076625824 0.10671936720609665 0.7333333492279053 0.7137255072593689 0.6352941393852234
0.9766010046005249 0.24806568026542664 0.45573121309280396 0.7254902124404907 0.7411764860153198 0.7529411911964417
0.7416256070137024 0.38370439410209656 0.18458497524261475 0.0941176488995552 0.0941176488995552 0.0941176488995552
0.7529556751251221 0.2411179542541504 0.29486167430877686 0.48235294222831726 0.5254902243614197 0.501960813999176
0.9780788421630859 0.25438180565834045 0.665217399597168 0.686274528503418 0.7019608020782471 0.7058823704719543
0.7576354742050171 0.36333492398262024 0.2960474193096161 0.125490203499794 0.1411764770746231 0.13725490868091583
0.7849753499031067 0.2873835563659668 0.9932806491851807 0.250980406999588 0.24705882370471954 0.239215686917305
0.9834975600242615 0.3334912359714508 0.9861660003662109 0.3450980484485626 0.32156863808631897 0.2666666805744171
0.751724123954773 0.37170377373695374 0.30513834953308105 0.16862745583057404 0.1882352977991104 0.20000000298023224
0.9743842482566833 0.3770724833011627 0.30988141894340515 0.5411764979362488 0.5333333611488342 0.48627451062202454
0.8374384045600891 0.32606980204582214 0.992094874382019 0.3764705955982208 0.3764705955982208 0.3450980484485626
0.9768472909927368 0.259118914604187 0.41897234320640564 0.7137255072593689 0.7333333492279053 0.7450980544090271
0.818719208240509 0.38433602452278137 0.005928853526711464 0.5411764979362488 0.5176470875740051 0.4627451002597809
0.8637930750846863 0.2384335994720459 0.006719367578625679 0.5568627715110779 0.5490196347236633 0.45098039507865906
0.9817733764648438 0.32622769474983215 0.10079051554203033 0.7372549176216125 0.729411780834198 0.6823529601097107
0.748275876045227 0.35480815172195435 0.16521738469600677 0.11372549086809158 0.11372549086809158 0.10588235408067703
0.9807881712913513 0.3420180082321167 0.28379446268081665 0.6627451181411743 0.6705882549285889 0.5882353186607361
0.9807881712913513 0.36886152625083923 0.28458496928215027 0.6666666865348816 0.6666666865348816 0.572549045085907
0.9793103337287903 0.36886152625083923 0.01462450623512268 0.6666666865348816 0.6352941393852234 0.5843137502670288
0.9719212055206299 0.38323068618774414 0.32608696818351746 0.3843137323856354 0.38823530077934265 0.3333333432674408
0.7416256070137024 0.32054319977760315 0.9936758875846863 0.8196078538894653 0.8549019694328308 0.8745098114013672
0.8406403660774231 0.3311226963996887 0.006719367578625679 0.6039215922355652 0.615686297416687 0.5333333611488342
0.7871921062469482 0.2848570942878723 0.9932806491851807 0.26274511218070984 0.2549019753932953 0.25882354378700256
0.982758641242981 0.38623085618019104 0.8339921236038208 0.5607843399047852 0.545098066329956 0.4470588266849518
0.9812808036804199 0.31785884499549866 0.0940711498260498 0.7176470756530762 0.7215686440467834 0.6666666865348816
0.9790640473365784 0.3628612160682678 0.7865612506866455 0.5686274766921997 0.5882353186607361 0.572549045085907
0.9832512140274048 0.27411970496177673 0.9719367623329163 0.3803921639919281 0.35686275362968445 0.30980393290519714
0.9822660088539124 0.2564345598220825 0.18379446864128113 0.7098039388656616 0.7137255072593689 0.6509804129600525
0.807881772518158 0.3124901354312897 0.9928853511810303 0.4000000059604645 0.4000000059604645 0.3686274588108063
0.9278324842453003 0.2621190547943115 0.006719367578625679 0.5647059082984924 0.5607843399047852 0.47843137383461
0.9810344576835632 0.3901784420013428 0.18616600334644318 0.7333333492279053 0.7372549176216125 0.6666666865348816
0.746798038482666 0.2614874541759491 0.0071146246045827866 0.27843138575553894 0.2666666805744171 0.2078431397676468
0.9770935773849487 0.28848886489868164 0.38735178112983704 0.7019608020782471 0.7215686440467834 0.7372549176216125
0.7618226408958435 0.25090792775154114 0.9936758875846863 0.25882354378700256 0.25882354378700256 0.29019609093666077
0.9815270900726318 0.3442286550998688 0.2130434811115265 0.7176470756530762 0.729411780834198 0.6549019813537598
0.8096058964729309 0.2678035795688629 0.006719367578625679 0.6274510025978088 0.6352941393852234 0.5490196347236633
0.8004925847053528 0.39254698157310486 0.005928853526711464 0.48627451062202454 0.47843137383461 0.38823530077934265
0.9837438464164734 0.3590715229511261 0.9857707619667053 0.35686275362968445 0.3333333432674408 0.27843138575553894
0.9581280946731567 0.26559293270111084 0.9881423115730286 0.364705890417099 0.3490196168422699 0.3019607961177826
0.9832512140274048 0.38354650139808655 0.8608695864677429 0.5137255191802979 0.4941176474094391 0.4156862795352936
0.9758620858192444 0.384178102016449 0.4620553255081177 0.6431372761726379 0.6627451181411743 0.6745098233222961
0.9763546586036682 0.3563871681690216 0.34505927562713623 0.7372549176216125 0.7803921699523926 0.7647058963775635
0.8160098791122437 0.3712300658226013 0.005928853526711464 0.5764706134796143 0.5568627715110779 0.48235294222831726
0.9788177609443665 0.2725406587123871 0.7126482129096985 0.658823549747467 0.6745098233222961 0.6784313917160034
0.874876856803894 0.3592294454574585 0.9905138611793518 0.4000000059604645 0.38823530077934265 0.3607843220233917
0.7450739145278931 0.338228315114975 0.260474294424057 0.09019608050584793 0.09019608050584793 0.08235294371843338
0.9706896543502808 0.25990840792655945 0.9877470135688782 0.34117648005485535 0.32549020648002625 0.27843138575553894
0.9807881712913513 0.24348649382591248 0.09723319858312607 0.7058823704719543 0.7058823704719543 0.6039215922355652
0.8637930750846863 0.2899099886417389 0.0063241105526685715 0.4901960790157318 0.49803921580314636 0.4117647111415863
0.9775862097740173 0.31738513708114624 0.6664031744003296 0.6392157077789307 0.6509804129600525 0.6705882549285889
0.9820197224617004 0.25738197565078735 0.21185770630836487 0.7098039388656616 0.7019608020782471 0.6509804129600525
0.9802955389022827 0.2678035795688629 0.07905138283967972 0.7137255072593689 0.729411780834198 0.6392157077789307
0.9761083722114563 0.241749569773674 0.9873517751693726 0.29019609093666077 0.27450981736183167 0.239215686917305
0.9822660088539124 0.3019106388092041 0.13675889372825623 0.47058823704719543 0.46666666865348816 0.3843137323856354
0.9480295777320862 0.32922786474227905 0.00830039568245411 0.7058823704719543 0.7019608020782471 0.6313725709915161
0.9761083722114563 0.2528027892112732 0.5130434632301331 0.7215686440467834 0.7372549176216125 0.7490196228027344
0.9766010046005249 0.264803409576416 0.6023715138435364 0.7019608020782471 0.7176470756530762 0.7215686440467834
0.9817733764648438 0.26259276270866394 0.8142292499542236 0.6078431606292725 0.6000000238418579 0.5490196347236633
0.9761083722114563 0.3709142506122589 0.4537549316883087 0.6549019813537598 0.6745098233222961 0.686274528503418
0.8662561774253845 0.275698721408844 0.991304337978363 0.3529411852359772 0.3450980484485626 0.29411765933036804
0.8620689511299133 0.35765039920806885 0.006719367578625679 0.5607843399047852 0.5529412031173706 0.47058823704719543
0.982758641242981 0.30822673439979553 0.8865612745285034 0.5372549295425415 0.5137255191802979 0.4274509847164154
0.9825122952461243 0.2534343898296356 0.873913049697876 0.5607843399047852 0.5333333611488342 0.4627451002597809
0.9825122952461243 0.24790778756141663 0.8806324005126953 0.5490196347236633 0.5215686559677124 0.45098039507865906
0.7497537136077881 0.3825990855693817 0.9916995763778687 0.3803921639919281 0.3803921639919281 0.37254902720451355
0.9756157398223877 0.30633190274238586 0.5280632376670837 0.6941176652908325 0.7098039388656616 0.7058823704719543
0.748275876045227 0.3882835805416107 0.2976284623146057 0.41960784792900085 0.42352941632270813 0.4313725531101227
0.9834975600242615 0.38433602452278137 0.9126482009887695 0.43921568989753723 0.4274509847164154 0.3529411852359772
0.8194581270217896 0.3619137704372406 0.005928853526711464 0.6470588445663452 0.6352941393852234 0.5764706134796143
0.7416256070137024 0.37738826870918274 0.18893280625343323 0.07450980693101883 0.07450980693101883 0.06666667014360428
0.9576354622840881 0.275698721408844 0.0071146246045827866 0.40784314274787903 0.4117647111415863 0.35686275362968445
0.8684729337692261 0.34596556425094604 0.9905138611793518 0.4117647111415863 0.3960784375667572 0.3607843220233917
0.8600985407829285 0.38402020931243896 0.9901185631752014 0.3843137323856354 0.37254902720451355 0.3529411852359772
0.7679802775382996 0.3554397523403168 0.9928853511810303 0.3960784375667572 0.3803921639919281 0.3686274588108063
0.9549261331558228 0.30885836482048035 0.007905138656497002 0.4745098054409027 0.46666666865348816 0.40784314274787903
0.9839901328086853 0.32906994223594666 0.979051411151886 0.3686274588108063 0.33725491166114807 0.29411765933036804
0.8810344934463501 0.29464709758758545 0.0063241105526685715 0.5098039507865906 0.5098039507865906 0.4156862795352936
0.9822660088539124 0.23701247572898865 0.15217390656471252 0.7019608020782471 0.7058823704719543 0.6431372761726379
0.9763546586036682 0.3827569782733917 0.6241106986999512 0.6392157077789307 0.6627451181411743 0.6627451181411743
0.7522167563438416 0.2985946536064148 0.9936758875846863 0.30980393290519714 0.32549020648002625 0.33725491166114807
0.8753694295883179 0.3829149007797241 0.9901185631752014 0.3960784375667572 0.3843137323856354 0.35686275362968445
0.8916256427764893 0.24222327768802643 0.006719367578625679 0.5647059082984924 0.572549045085907 0.48627451062202454
0.9768472909927368 0.35559767484664917 0.36719366908073425 0.7098039388656616 0.729411780834198 0.7411764860153198
0.9783251285552979 0.27364596724510193 0.30948618054389954 0.5176470875740051 0.5058823823928833 0.43921568989753723
0.9807881712913513 0.24253907799720764 0.09802371263504028 0.6941176652908325 0.7098039388656616 0.6196078658103943
0.9822660088539124 0.25485551357269287 0.1462450623512268 0.6901960968971252 0.6941176652908325 0.6235294342041016
0.9766010046005249 0.31138479709625244 0.4158102869987488 0.686274528503418 0.7058823704719543 0.7215686440467834
0.9761083722114563 0.33443865180015564 0.5980237126350403 0.6431372761726379 0.6705882549285889 0.6941176652908325
0.8556650280952454 0.38338860869407654 0.0063241105526685715 0.5686274766921997 0.5568627715110779 0.49803921580314636
0.8731527328491211 0.38938891887664795 0.006719367578625679 0.5568627715110779 0.5647059082984924 0.48235294222831726
0.9805418848991394 0.2588030993938446 0.7924901247024536 0.5843137502670288 0.615686297416687 0.6274510025978088
0.7665024399757385 0.35180798172950745 0.9928853511810303 0.4274509847164154 0.4117647111415863 0.4000000059604645
0.8283251523971558 0.35180798172950745 0.991304337978363 0.4000000059604645 0.38823530077934265 0.3607843220233917
0.8322660326957703 0.3503868579864502 0.991304337978363 0.3803921639919281 0.3686274588108063 0.3490196168422699
0.9822660088539124 0.27127742767333984 0.14901185035705566 0.7215686440467834 0.7254902124404907 0.6627451181411743
0.9815270900726318 0.34628137946128845 0.2083003968000412 0.7215686440467834 0.7254902124404907 0.6549019813537598
0.9758620858192444 0.3080688416957855 0.49130433797836304 0.6901960968971252 0.7058823704719543 0.7098039388656616
0.8943349719047546 0.3295436501502991 0.007509881630539894 0.545098066329956 0.5529412031173706 0.47058823704719543
0.8995074033737183 0.3562292754650116 0.007509881630539894 0.6901960968971252 0.686274528503418 0.6078431606292725
0.8022167682647705 0.27506712079048157 0.9928853511810303 0.27450981736183167 0.27843138575553894 0.2549019753932953
0.9815270900726318 0.3904942274093628 0.1039525717496872 0.7019608020782471 0.6980392336845398 0.6274510025978088
0.9798029661178589 0.23906521499156952 0.06679841876029968 0.686274528503418 0.686274528503418 0.5921568870544434
0.761083722114563 0.36601927876472473 0.30948618054389954 0.43529412150382996 0.47058823704719543 0.529411792755127
0.86231529712677 0.281067430973053 0.991304337978363 0.32156863808631897 0.3137255012989044 0.2666666805744171
0.7665024399757385 0.3041212558746338 0.9936758875846863 0.29411765933036804 0.27843138575553894 0.2823529541492462
0.9450739026069641 0.38323068618774414 0.0071146246045827866 0.45098039507865906 0.4274509847164154 0.34117648005485535
0.9763546586036682 0.29417338967323303 0.5920948386192322 0.7058823704719543 0.7098039388656616 0.7176470756530762
0.7455664873123169 0.264645516872406 0.9932806491851807 0.9960784316062927 1.0 1.0
0.9810344576835632 0.2981209456920624 0.2656126618385315 0.6823529601097107 0.6901960968971252 0.6392157077789307
0.8280788064002991 0.3012790083885193 0.0063241105526685715 0.5058823823928833 0.5137255191802979 0.4274509847164154
0.9766010046005249 0.2959102988243103 0.4280632436275482 0.6980392336845398 0.7176470756530762 0.729411780834198
0.9758620858192444 0.38402020931243896 0.6000000238418579 0.6313725709915161 0.6666666865348816 0.6549019813537598
0.9753694534301758 0.36601927876472473 0.5138339996337891 0.6313725709915161 0.6627451181411743 0.6705882549285889
0.7475369572639465 0.38670456409454346 0.28972330689430237 0.1725490242242813 0.18039216101169586 0.16862745583057404
0.9768472909927368 0.2870677411556244 0.4007905125617981 0.7019608020782471 0.7333333492279053 0.7411764860153198
0.9766010046005249 0.26275068521499634 0.45573121309280396 0.7176470756530762 0.7333333492279053 0.7450980544090271
0.9753694534301758 0.3871782720088959 0.5075098872184753 0.6313725709915161 0.6666666865348816 0.6627451181411743
0.9820197224617004 0.36301910877227783 0.09960474073886871 0.7137255072593689 0.7019608020782471 0.6352941393852234
0.9766010046005249 0.26543501019477844 0.4620553255081177 0.7137255072593689 0.7333333492279053 0.7490196228027344
0.9768472909927368 0.372967004776001 0.35612648725509644 0.7098039388656616 0.7490196228027344 0.7450980544090271
0.9763546586036682 0.3818095624446869 0.4169960618019104 0.6509804129600525 0.6705882549285889 0.686274528503418
0.8834975361824036 0.36333492398262024 0.9905138611793518 0.3843137323856354 0.37254902720451355 0.3450980484485626
0.8423645496368408 0.2982788681983948 0.9916995763778687 0.34117648005485535 0.3294117748737335 0.30980393290519714
0.8692117929458618 0.2444339245557785 0.9909090995788574 0.33725491166114807 0.3294117748737335 0.2823529541492462
0.9509851932525635 0.25438180565834045 0.006719367578625679 0.4156862795352936 0.40784314274787903 0.32549020648002625
0.8399015069007874 0.3627032935619354 0.0063241105526685715 0.5803921818733215 0.5647059082984924 0.5176470875740051
0.9822660088539124 0.3169114291667938 0.8154150247573853 0.6392157077789307 0.6313725709915161 0.5843137502670288
0.9376847147941589 0.3941259980201721 0.0063241105526685715 0.47058823704719543 0.46666666865348816 0.38823530077934265
0.8785714507102966 0.26054003834724426 0.006719367578625679 0.5686274766921997 0.5568627715110779 0.48235294222831726
0.868719220161438 0.2526448667049408 0.006719367578625679 0.5254902243614197 0.5333333611488342 0.4470588266849518
0.7871921062469482 0.27396178245544434 0.9932806491851807 0.2549019753932953 0.250980406999588 0.24313725531101227
0.9167487621307373 0.3251223862171173 0.9897233247756958 0.40392157435417175 0.38823530077934265 0.3529411852359772
0.9768472909927368 0.23780198395252228 0.45612648129463196 0.7254902124404907 0.7490196228027344 0.7490196228027344
0.9763546586036682 0.2782251834869385 0.5952569246292114 0.7098039388656616 0.7137255072593689 0.729411780834198
0.9822660088539124 0.33712300658226013 0.8126482367515564 0.6039215922355652 0.6078431606292725 0.5529412031173706
0.9830049276351929 0.275540828704834 0.9122529625892639 0.501960813999176 0.48627451062202454 0.38823530077934265
0.9798029661178589 0.38307279348373413 0.019367588683962822 0.30588236451148987 0.26274511218070984 0.1921568661928177
0.9815270900726318 0.26622453331947327 0.25335967540740967 0.6980392336845398 0.7058823704719543 0.6549019813537598
0.9773399233818054 0.26575082540512085 0.6407114863395691 0.6980392336845398 0.7137255072593689 0.7098039388656616
0.979556679725647 0.23938101530075073 0.056521739810705185 0.6784313917160034 0.6784313917160034 0.5843137502670288
0.9798029661178589 0.28075161576271057 0.7715414762496948 0.6235294342041016 0.6392157077789307 0.6509804129600525
0.9822660088539124 0.33412283658981323 0.813043475151062 0.6039215922355652 0.6117647290229797 0.5607843399047852
0.9751231670379639 0.3848097324371338 0.5553359389305115 0.6313725709915161 0.6549019813537598 0.6549019813537598
0.7807881832122803 0.3500710427761078 0.005928853526711464 0.43529412150382996 0.41960784792900085 0.3764705955982208
0.982758641242981 0.3197536766529083 0.8561264872550964 0.5568627715110779 0.5372549295425415 0.4627451002597809
0.8128078579902649 0.2870677411556244 0.9924901127815247 0.32549020648002625 0.3294117748737335 0.30588236451148987
0.9810344576835632 0.24948681890964508 0.29367589950561523 0.6039215922355652 0.5921568870544434 0.5333333611488342
0.9763546586036682 0.3789673149585724 0.4071146249771118 0.6509804129600525 0.6823529601097107 0.6941176652908325
0.9332512021064758 0.28880468010902405 0.9889327883720398 0.3921568691730499 0.3764705955982208 0.3294117748737335
0.8633005023002625 0.24632875621318817 0.006719367578625679 0.5843137502670288 0.5921568870544434 0.49803921580314636
0.9815270900726318 0.31122690439224243 0.21264822781085968 0.7098039388656616 0.7137255072593689 0.6509804129600525
0.9766010046005249 0.23938101530075073 0.5596837997436523 0.7215686440467834 0.7372549176216125 0.7411764860153198
0.9820197224617004 0.32906994223594666 0.15731225907802582 0.729411780834198 0.7215686440467834 0.6705882549285889
0.9834975600242615 0.3788094222545624 0.9861660003662109 0.3294117748737335 0.3176470696926117 0.25882354378700256
0.8532019853591919 0.3851255476474762 0.9901185631752014 0.40392157435417175 0.3921568691730499 0.37254902720451355
0.9790640473365784 0.35243961215019226 0.7750988006591797 0.572549045085907 0.5882353186607361 0.5921568870544434
0.9766010046005249 0.3765987753868103 0.37233200669288635 0.658823549747467 0.6980392336845398 0.7019608020782471
0.8889162540435791 0.3769145607948303 0.9901185631752014 0.4000000059604645 0.38823530077934265 0.3529411852359772
0.982758641242981 0.3330175280570984 0.8561264872550964 0.5647059082984924 0.545098066329956 0.47058823704719543
0.9783251285552979 0.3279646337032318 0.7130434513092041 0.6274510025978088 0.6392157077789307 0.6666666865348816
0.8224138021469116 0.37817779183387756 0.9905138611793518 0.3960784375667572 0.3843137323856354 0.35686275362968445
0.9763546586036682 0.327333003282547 0.3442687690258026 0.6666666865348816 0.6941176652908325 0.7254902124404907
0.9758620858192444 0.2815411388874054 0.5454545617103577 0.7137255072593689 0.729411780834198 0.7411764860153198
0.982758641242981 0.3225959241390228 0.8608695864677429 0.5607843399047852 0.5333333611488342 0.4588235318660736
0.9766010046005249 0.3645981252193451 0.6438735127449036 0.7764706015586853 0.7921568751335144 0.7960784435272217
0.7448275685310364 0.34296542406082153 0.2237154096364975 0.13333334028720856 0.13333334028720856 0.125490203499794
0.9758620858192444 0.3821253776550293 0.4525691568851471 0.6392157077789307 0.6705882549285889 0.6784313917160034
0.9837438464164734 0.31438496708869934 0.9545454382896423 0.4313725531101227 0.4000000059604645 0.3490196168422699
0.9807881712913513 0.3453339636325836 0.06521739065647125 0.7333333492279053 0.729411780834198 0.6509804129600525
0.9830049276351929 0.2608558237552643 0.9604743123054504 0.4117647111415863 0.3843137323856354 0.32156863808631897
0.7586206793785095 0.2821727395057678 0.9936758875846863 0.21960784494876862 0.21176470816135406 0.21568627655506134
0.7761083841323853 0.3535449206829071 0.9924901127815247 0.41960784792900085 0.40392157435417175 0.3921568691730499
0.9766010046005249 0.28896257281303406 0.3442687690258026 0.7333333492279053 0.7529411911964417 0.7647058963775635
0.9830049276351929 0.32101690769195557 0.8822134137153625 0.5372549295425415 0.5176470875740051 0.4313725531101227
0.979556679725647 0.38323068618774414 0.29486167430877686 0.5803921818733215 0.572549045085907 0.5215686559677124
0.7426108121871948 0.33554399013519287 0.2130434811115265 0.22745098173618317 0.21568627655506134 0.19607843458652496
0.9817733764648438 0.26622453331947327 0.22687746584415436 0.7176470756530762 0.7137255072593689 0.6431372761726379
0.9578817486763 0.32591187953948975 0.9881423115730286 0.364705890417099 0.3490196168422699 0.30588236451148987
0.9551724195480347 0.2796463072299957 0.9881423115730286 0.3803921639919281 0.364705890417099 0.3176470696926117
0.9815270900726318 0.30317384004592896 0.11106719076633453 0.5960784554481506 0.5882353186607361 0.5058823823928833
0.8591132760047913 0.2728564739227295 0.991304337978363 0.35686275362968445 0.3490196168422699 0.2980392277240753
0.75 0.351176381111145 0.30355730652809143 0.18431372940540314 0.20392157137393951 0.18039216101169586
0.7445812821388245 0.35180798172950745 0.0063241105526685715 0.250980406999588 0.239215686917305 0.20392157137393951
0.9815270900726318 0.2695404887199402 0.23201580345630646 0.7058823704719543 0.7098039388656616 0.6392157077789307
0.9780788421630859 0.29433128237724304 0.6873517632484436 0.6509804129600525 0.6666666865348816 0.6627451181411743
0.9758620858192444 0.3679141104221344 0.4683794379234314 0.6509804129600525 0.6705882549285889 0.6823529601097107
0.9810344576835632 0.2468024641275406 0.29328063130378723 0.6313725709915161 0.615686297416687 0.5686274766921997
0.9812808036804199 0.338228315114975 0.22766798734664917 0.6980392336845398 0.7019608020782471 0.6470588445663452
0.8009852170944214 0.3855992555618286 0.9905138611793518 0.42352941632270813 0.4117647111415863 0.3921568691730499
0.9766010046005249 0.3874940872192383 0.6470355987548828 0.6313725709915161 0.6509804129600525 0.6627451181411743
0.9788177609443665 0.37565135955810547 0.7802371382713318 0.5529412031173706 0.5764706134796143 0.5607843399047852
0.9534482955932617 0.34943944215774536 0.00909090880304575 0.45490196347236633 0.4588235318660736 0.40392157435417175
0.9790640473365784 0.31059530377388 0.752964437007904 0.6235294342041016 0.6274510025978088 0.6431372761726379
0.7901477813720703 0.38354650139808655 0.0063241105526685715 0.5058823823928833 0.4941176474094391 0.4274509847164154
0.9763546586036682 0.34880784153938293 0.44426876306533813 0.6549019813537598 0.6901960968971252 0.7254902124404907
0.979556679725647 0.28912046551704407 0.7596837878227234 0.6274510025978088 0.6313725709915161 0.6509804129600525
0.7423645257949829 0.3339649438858032 0.1972332000732422 0.054901961237192154 0.0470588244497776 0.05882352963089943
0.9825122952461243 0.3451760709285736 0.8173912763595581 0.5960784554481506 0.6000000238418579 0.5372549295425415
0.9820197224617004 0.3012790083885193 0.9873517751693726 0.24313725531101227 0.21960784494876862 0.16470588743686676
0.9763546586036682 0.31738513708114624 0.4533596932888031 0.686274528503418 0.7019608020782471 0.7372549176216125
0.9179803133010864 0.24222327768802643 0.9893280863761902 0.3843137323856354 0.3686274588108063 0.32156863808631897
0.9768472909927368 0.3448602557182312 0.37747034430503845 0.6980392336845398 0.7176470756530762 0.7333333492279053
0.7623152732849121 0.3876519799232483 0.9916995763778687 0.3843137323856354 0.37254902720451355 0.3529411852359772
0.9839901328086853 0.3251223862171173 0.9664031863212585 0.40392157435417175 0.37254902720451355 0.32156863808631897
0.8169950842857361 0.3930206894874573 0.9905138611793518 0.4117647111415863 0.4000000059604645 0.3803921639919281
0.9825122952461243 0.299699991941452 0.8699604868888855 0.5607843399047852 0.5411764979362488 0.4627451002597809
0.9192118048667908 0.31059530377388 0.007509881630539894 0.42352941632270813 0.4156862795352936 0.364705890417099
0.820443332195282 0.3363334834575653 0.992094874382019 0.4000000059604645 0.40392157435417175 0.37254902720451355
0.9773399233818054 0.2910153269767761 0.6411067247390747 0.6745098233222961 0.6941176652908325 0.7058823704719543
0.8192118406295776 0.2385915070772171 0.992094874382019 0.29019609093666077 0.27843138575553894 0.25882354378700256
0.8322660326957703 0.3012790083885193 0.992094874382019 0.3490196168422699 0.33725491166114807 0.30980393290519714
0.748522162437439 0.38907310366630554 0.15691699087619781 0.16078431904315948 0.16470588743686676 0.1725490242242813
0.9763546586036682 0.37565135955810547 0.4102766811847687 0.6549019813537598 0.686274528503418 0.6980392336845398
0.9046797752380371 0.3789673149585724 0.9897233247756958 0.3450980484485626 0.3294117748737335 0.29411765933036804
0.743842363357544 0.3484920263290405 0.3007905185222626 0.04313725605607033 0.05882352963089943 0.062745101749897
0.9756157398223877 0.3426496088504791 0.5102766752243042 0.658823549747467 0.6784313917160034 0.6941176652908325
0.9482758641242981 0.37249329686164856 0.9885375499725342 0.35686275362968445 0.3490196168422699 0.2980392277240753
0.9775862097740173 0.321806401014328 0.6687747240066528 0.6431372761726379 0.6431372761726379 0.6745098233222961
0.9805418848991394 0.3938102126121521 0.29011857509613037 0.6352941393852234 0.6274510025978088 0.545098066329956
0.756157636642456 0.3825990855693817 0.3075098693370819 0.24313725531101227 0.25882354378700256 0.2549019753932953
0.9357143044471741 0.3244907557964325 0.9889327883720398 0.33725491166114807 0.32549020648002625 0.2980392277240753
0.8896551728248596 0.3903363347053528 0.9901185631752014 0.364705890417099 0.3529411852359772 0.3176470696926117
0.9800492525100708 0.3188062608242035 0.06363636255264282 0.6941176652908325 0.729411780834198 0.6235294342041016
0.9780788421630859 0.39270487427711487 0.752173900604248 0.5686274766921997 0.5843137502670288 0.5803921818733215
0.9790640473365784 0.2528027892112732 0.040316205471754074 0.1725490242242813 0.16078431904315948 0.125490203499794
0.9834975600242615 0.3816516697406769 0.9474308490753174 0.4156862795352936 0.3843137323856354 0.3333333432674408
0.7862069010734558 0.33475446701049805 0.0063241105526685715 0.3960784375667572 0.3843137323856354 0.32549020648002625
0.9738916158676147 0.3652297556400299 0.33557313680648804 0.7529411911964417 0.772549033164978 0.7843137383460999
0.7768473029136658 0.3311226963996887 0.9932806491851807 0.10196078568696976 0.10196078568696976 0.10980392247438431
0.9352216720581055 0.3709142506122589 0.007905138656497002 0.5372549295425415 0.529411792755127 0.47058823704719543
0.9770935773849487 0.2616453468799591 0.6300395131111145 0.7019608020782471 0.7058823704719543 0.7215686440467834
0.9756157398223877 0.3017527163028717 0.5660079121589661 0.6980392336845398 0.7137255072593689 0.7176470756530762
0.982758641242981 0.25501343607902527 0.9636363387107849 0.4000000059604645 0.3686274588108063 0.3176470696926117
0.8374384045600891 0.31122690439224243 0.005928853526711464 0.47058823704719543 0.48235294222831726 0.40784314274787903
0.9571428298950195 0.25138166546821594 0.9881423115730286 0.32156863808631897 0.30588236451148987 0.25882354378700256
0.9753694534301758 0.3557555675506592 0.529644250869751 0.6627451181411743 0.6666666865348816 0.6823529601097107
0.7652709484100342 0.26306647062301636 0.2964426875114441 0.1568627506494522 0.16078431904315948 0.1411764770746231
0.8992610573768616 0.327333003282547 0.007509881630539894 0.545098066329956 0.5411764979362488 0.4627451002597809
0.7997536659240723 0.25153955817222595 0.9928853511810303 0.29411765933036804 0.27843138575553894 0.2666666805744171
0.9758620858192444 0.2734880745410919 0.5292490124702454 0.7176470756530762 0.7333333492279053 0.7450980544090271
0.7490147948265076 0.38891521096229553 0.0063241105526685715 0.2235294133424759 0.21568627655506134 0.16862745583057404
0.9805418848991394 0.3761250674724579 0.2747035622596741 0.6901960968971252 0.7019608020782471 0.6352941393852234
0.9820197224617004 0.3595452308654785 0.10750988125801086 0.7098039388656616 0.7058823704719543 0.6352941393852234
0.818965494632721 0.3617558777332306 0.991304337978363 0.4000000059604645 0.38823530077934265 0.3607843220233917
0.9830049276351929 0.3742302358150482 0.8458498120307922 0.5647059082984924 0.5411764979362488 0.45490196347236633
0.9298029541969299 0.26890888810157776 0.9889327883720398 0.3529411852359772 0.33725491166114807 0.29019609093666077
0.767241358757019 0.3671245872974396 0.992094874382019 0.3960784375667572 0.3921568691730499 0.3764705955982208
0.9822660088539124 0.2760145366191864 0.8411067128181458 0.5960784554481506 0.6000000238418579 0.5372549295425415
0.7559113502502441 0.26227694749832153 0.9936758875846863 0.26274511218070984 0.2666666805744171 0.27450981736183167
0.9785714149475098 0.33475446701049805 0.01660079136490822 0.20392157137393951 0.1921568661928177 0.13333334028720856
0.9825122952461243 0.29733145236968994 0.8569170236587524 0.572549045085907 0.5529412031173706 0.47843137383461
0.9763546586036682 0.2959102988243103 0.46166008710861206 0.6980392336845398 0.7215686440467834 0.7215686440467834
0.8487684726715088 0.3590715229511261 0.0063241105526685715 0.5764706134796143 0.5647059082984924 0.5058823823928833
0.7399014830589294 0.2954365909099579 0.9928853511810303 1.0 1.0 1.0
0.756157636642456 0.35133427381515503 0.9932806491851807 0.3960784375667572 0.3921568691730499 0.3764705955982208
0.9817733764648438 0.3792831301689148 0.08181817829608917 0.7137255072593689 0.7098039388656616 0.6313725709915161
0.81083744764328 0.25690826773643494 0.9924901127815247 0.3176470696926117 0.30588236451148987 0.2862745225429535
0.9793103337287903 0.2815411388874054 0.04584980383515358 0.23529411852359772 0.21960784494876862 0.1764705926179886
0.9748768210411072 0.3540186285972595 0.9877470135688782 0.3294117748737335 0.30588236451148987 0.24313725531101227
0.9435960650444031 0.3799147307872772 0.007509881630539894 0.5215686559677124 0.48627451062202454 0.41960784792900085
0.7894088625907898 0.2955945134162903 0.9932806491851807 0.2980392277240753 0.29411765933036804 0.2862745225429535
0.7455664873123169 0.3627032935619354 0.27747035026550293 0.125490203499794 0.125490203499794 0.125490203499794
0.8467980027198792 0.3167535066604614 0.9916995763778687 0.3921568691730499 0.3921568691730499 0.3529411852359772
0.9810344576835632 0.3874940872192383 0.18063241243362427 0.729411780834198 0.7333333492279053 0.6627451181411743
0.9408866763114929 0.38007262349128723 0.007509881630539894 0.4901960790157318 0.46666666865348816 0.3803921639919281
0.748522162437439 0.37754619121551514 0.16403162479400635 0.09019608050584793 0.09803921729326248 0.0941176488995552
0.979556679725647 0.27506712079048157 0.05573122575879097 0.729411780834198 0.7411764860153198 0.658823549747467
0.9807881712913513 0.3421759009361267 0.29288536310195923 0.6000000238418579 0.5882353186607361 0.5137255191802979
0.951724112033844 0.29117321968078613 0.9885375499725342 0.3921568691730499 0.3686274588108063 0.32156863808631897
0.9770935773849487 0.27159324288368225 0.34584981203079224 0.7529411911964417 0.772549033164978 0.7882353067398071
0.7689655423164368 0.3533870279788971 0.005928853526711464 0.32156863808631897 0.30980393290519714 0.27450981736183167
0.8596059083938599 0.3071214258670807 0.991304337978363 0.38823530077934265 0.3803921639919281 0.3333333432674408
0.9756157398223877 0.28880468010902405 0.5276679992675781 0.7058823704719543 0.7176470756530762 0.7372549176216125
0.929556667804718 0.2412758618593216 0.0071146246045827866 0.42352941632270813 0.41960784792900085 0.33725491166114807
0.9761083722114563 0.3480183184146881 0.5952569246292114 0.6274510025978088 0.658823549747467 0.6666666865348816
0.9394088387489319 0.34628137946128845 0.9889327883720398 0.3764705955982208 0.3607843220233917 0.3176470696926117
0.9783251285552979 0.247276172041893 0.6798418760299683 0.6784313917160034 0.6941176652908325 0.6980392336845398
0.9768472909927368 0.30064740777015686 0.39328062534332275 0.7058823704719543 0.7098039388656616 0.729411780834198
0.982758641242981 0.32022738456726074 0.8588932752609253 0.5607843399047852 0.5333333611488342 0.4627451002597809
0.7431034445762634 0.2815411388874054 0.9932806491851807 1.0 1.0 0.9921568632125854
