0.4529556632041931 0.9205747842788696 0.9893280863761902 0.32549020648002625 0.3294117748737335 0.30588236451148987
0.37142857909202576 0.913153350353241 0.007509881630539894 0.5411764979362488 0.5529412031173706 0.47843137383461
0.5827586054801941 0.9308384656906128 0.9885375499725342 0.40784314274787903 0.3960784375667572 0.3764705955982208
0.4012315273284912 0.9958944916725159 0.05296442657709122 0.6431372761726379 0.6392157077789307 0.5686274766921997
0.5497536659240723 0.9960524439811707 0.6209486126899719 0.7176470756530762 0.7490196228027344 0.7607843279838562
0.5165024399757385 0.9147323369979858 0.009486165829002857 0.6039215922355652 0.6000000238418579 0.5176470875740051
0.5406404137611389 0.9973156452178955 0.18853755295276642 0.7137255072593689 0.7215686440467834 0.6666666865348816
0.3839901387691498 0.9960524439811707 0.036758892238140106 0.239215686917305 0.20392157137393951 0.16862745583057404
0.46280789375305176 0.9954208135604858 0.47233203053474426 0.6784313917160034 0.7137255072593689 0.7490196228027344
0.6081280708312988 0.9954208135604858 0.9822134375572205 0.3686274588108063 0.3529411852359772 0.30980393290519714
0.3738916218280792 0.9958944916725159 0.7664031386375427 0.5803921818733215 0.5921568870544434 0.6196078658103943
0.5997536778450012 0.9958944916725159 0.6454545259475708 0.6627451181411743 0.6745098233222961 0.7098039388656616
0.4603448212146759 0.9314700961112976 0.008695651777088642 0.5058823823928833 0.5137255191802979 0.4313725531101227
0.5847290754318237 0.9196273684501648 0.008695651777088642 0.4627451002597809 0.4745098054409027 0.40784314274787903
0.5091133117675781 0.9819990396499634 0.9881423115730286 0.3686274588108063 0.35686275362968445 0.32156863808631897
0.5450738668441772 0.9960524439811707 0.6316205263137817 0.7803921699523926 0.8039215803146362 0.7960784435272217
0.5950738787651062 0.9902099967002869 0.9877470135688782 0.30588236451148987 0.29411765933036804 0.21960784494876862
0.39137929677963257 0.8943628668785095 0.007905138656497002 0.6823529601097107 0.6823529601097107 0.5882353186607361
0.46625617146492004 0.994157612323761 0.9715415239334106 0.35686275362968445 0.3450980484485626 0.30980393290519714
0.5568965673446655 0.9377862215042114 0.00830039568245411 0.40392157435417175 0.4156862795352936 0.3333333432674408
0.557881772518158 0.9755250215530396 0.008695651777088642 0.5176470875740051 0.49803921580314636 0.4745098054409027
0.5103448033332825 0.9955787062644958 0.03478260710835457 0.2078431397676468 0.1764705926179886 0.16470588743686676
0.3763546943664551 0.9973156452178955 0.28498023748397827 0.7490196228027344 0.7411764860153198 0.6941176652908325
0.5487684607505798 0.9963682293891907 0.05691699683666229 0.658823549747467 0.6627451181411743 0.5921568870544434
0.3891625702381134 0.9968419671058655 0.13201580941677094 0.729411780834198 0.7215686440467834 0.6705882549285889
0.4049261212348938 0.9973156452178955 0.28972330689430237 0.6823529601097107 0.6941176652908325 0.6509804129600525
0.557635486125946 0.9960524439811707 0.6367588639259338 0.7333333492279053 0.7529411911964417 0.7686274647712708
0.47487685084342957 0.8828359246253967 0.9893280863761902 0.37254902720451355 0.37254902720451355 0.3333333432674408
0.45049262046813965 0.9952629208564758 0.6501976251602173 0.5921568870544434 0.6117647290229797 0.6352941393852234
0.47758620977401733 0.9962103366851807 0.7940711379051208 0.5490196347236633 0.5607843399047852 0.5803921818733215
0.4992610812187195 0.9174166917800903 0.9893280863761902 0.3843137323856354 0.38823530077934265 0.35686275362968445
0.49334976077079773 0.880783200263977 0.008695651777088642 0.5764706134796143 0.5882353186607361 0.5058823823928833
0.4635468125343323 0.9985788464546204 0.9003952741622925 0.34117648005485535 0.3490196168422699 0.2980392277240753
0.38349753618240356 0.9974735379219055 0.9213438630104065 0.34117648005485535 0.3176470696926117 0.2549019753932953
0.5990147590637207 0.994947075843811 0.3794466257095337 0.5607843399047852 0.5647059082984924 0.5333333611488342
0.3724137842655182 0.9958944916725159 0.7565217614173889 0.5803921818733215 0.5960784554481506 0.6313725709915161
0.378078818321228 0.9973156452178955 0.3268774747848511 0.6901960968971252 0.7019608020782471 0.658823549747467
0.496798038482666 0.9769461750984192 0.9367588758468628 0.41960784792900085 0.42352941632270813 0.40392157435417175
0.5174877047538757 0.9704721570014954 0.9169960618019104 0.4431372582912445 0.4470588266849518 0.4274509847164154
0.5036945939064026 0.9962103366851807 0.7569169998168945 0.5921568870544434 0.6274510025978088 0.6235294342041016
0.5935960412025452 0.8757302761077881 0.00830039568245411 0.21568627655506134 0.2078431397676468 0.1568627506494522
0.552955687046051 0.9562608599662781 0.9885375499725342 0.3333333432674408 0.32549020648002625 0.27843138575553894
0.4992610812187195 0.9171009063720703 0.009486165829002857 0.4313725531101227 0.4627451002597809 0.3803921639919281
0.48201969265937805 0.9969998598098755 0.12845849990844727 0.2235294133424759 0.2078431397676468 0.1725490242242813
0.4766009747982025 0.9878414869308472 0.9521738886833191 0.3607843220233917 0.35686275362968445 0.33725491166114807
0.49014776945114136 0.9954208135604858 0.5881422758102417 0.6352941393852234 0.6627451181411743 0.686274528503418
0.46576353907585144 0.9963682293891907 0.8379446864128113 0.4941176474094391 0.5254902243614197 0.5333333611488342
0.4889162480831146 0.9971577525138855 0.27865612506866455 0.7490196228027344 0.7568627595901489 0.7019608020782471
0.4169950783252716 0.994315505027771 0.007905138656497002 0.45098039507865906 0.4274509847164154 0.3803921639919281
0.4650246202945709 0.9954208135604858 0.4806324243545532 0.6705882549285889 0.7137255072593689 0.7372549176216125
0.4448275864124298 0.9973156452178955 0.2667984068393707 0.7411764860153198 0.729411780834198 0.6941176652908325
0.5886699557304382 0.9347860217094421 0.00830039568245411 0.4431372582912445 0.4470588266849518 0.3764705955982208
0.5022167563438416 0.9971577525138855 0.23517785966396332 0.7372549176216125 0.7450980544090271 0.6901960968971252
0.4807881712913513 0.9969998598098755 0.11501976102590561 0.4470588266849518 0.43921568989753723 0.38823530077934265
0.460098534822464 0.9158377051353455 0.008695651777088642 0.5176470875740051 0.5411764979362488 0.43921568989753723
0.5182266235351562 0.9963682293891907 0.7928853631019592 0.5843137502670288 0.6078431606292725 0.6000000238418579
0.5152709484100342 0.9954208135604858 0.0260869562625885 0.19607843458652496 0.16862745583057404 0.14509804546833038
0.4477832615375519 0.9371545910835266 0.00830039568245411 0.529411792755127 0.545098066329956 0.47843137383461
0.6137930750846863 0.9955787062644958 0.017391303554177284 0.1764705926179886 0.1411764770746231 0.11372549086809158
0.4687192142009735 0.9954208135604858 0.4324110746383667 0.6941176652908325 0.7215686440467834 0.7529411911964417
0.38201969861984253 0.9954208135604858 0.6162055134773254 0.6352941393852234 0.6705882549285889 0.6980392336845398
0.45024630427360535 0.9973156452178955 0.26719367504119873 0.729411780834198 0.7450980544090271 0.6901960968971252
0.4083743989467621 0.9036791324615479 0.007905138656497002 0.658823549747467 0.6549019813537598 0.572549045085907
0.5770936012268066 0.8934154510498047 0.9893280863761902 0.4000000059604645 0.40392157435417175 0.3803921639919281
0.5167487859725952 0.9418916702270508 0.008695651777088642 0.5411764979362488 0.5568627715110779 0.501960813999176
0.5701970458030701 0.9974735379219055 0.208695650100708 0.7019608020782471 0.7137255072593689 0.6392157077789307
0.47881773114204407 0.9963682293891907 0.0624505914747715 0.7058823704719543 0.7215686440467834 0.6627451181411743
0.5243842601776123 0.941102147102356 0.008695651777088642 0.48235294222831726 0.4901960790157318 0.43921568989753723
0.37142857909202576 0.9954208135604858 0.5936759114265442 0.6627451181411743 0.6823529601097107 0.6980392336845398
0.6022167205810547 0.9706300497055054 0.008695651777088642 0.4274509847164154 0.41960784792900085 0.37254902720451355
0.5411329865455627 0.994631290435791 0.37667983770370483 0.4745098054409027 0.4941176474094391 0.47058823704719543
0.39039409160614014 0.9954208135604858 0.47035571932792664 0.6705882549285889 0.6980392336845398 0.729411780834198
0.5 0.9074687957763672 0.009881422854959965 0.5333333611488342 0.5607843399047852 0.4901960790157318
0.6044334769248962 0.9988946914672852 0.8790513873100281 0.49803921580314636 0.4901960790157318 0.4313725531101227
0.4408867061138153 0.9952629208564758 0.5185770988464355 0.6549019813537598 0.6823529601097107 0.7137255072593689
0.3926108479499817 0.9704721570014954 0.9885375499725342 0.41960784792900085 0.40784314274787903 0.3803921639919281
0.48152709007263184 0.913469135761261 0.9893280863761902 0.38823530077934265 0.3843137323856354 0.364705890417099
0.5571428537368774 0.8760461211204529 0.9893280863761902 0.3607843220233917 0.3450980484485626 0.3333333432674408
0.49876847863197327 0.9864203333854675 0.00830039568245411 0.4941176474094391 0.47843137383461 0.43529412150382996
0.5118226408958435 0.9954208135604858 0.5114624500274658 0.6784313917160034 0.7098039388656616 0.7215686440467834
0.4650246202945709 0.9429969787597656 0.9889327883720398 0.40784314274787903 0.40392157435417175 0.3843137323856354
0.49802955985069275 0.9969998598098755 0.12885375320911407 0.6745098233222961 0.6784313917160034 0.6235294342041016
0.46280789375305176 0.9952629208564758 0.6138339638710022 0.615686297416687 0.6431372761726379 0.6666666865348816
0.42216747999191284 0.9957365989685059 0.7252964377403259 0.5921568870544434 0.6117647290229797 0.6235294342041016
0.48128077387809753 0.9384177923202515 0.00909090880304575 0.49803921580314636 0.5058823823928833 0.41960784792900085
0.47315269708633423 0.9955787062644958 0.6553359627723694 0.5960784554481506 0.6274510025978088 0.6352941393852234
0.428078830242157 0.9960524439811707 0.782608687877655 0.5960784554481506 0.6078431606292725 0.6274510025978088
0.5224137902259827 0.9254697561264038 0.00909090880304575 0.4156862795352936 0.43921568989753723 0.3843137323856354
0.5958127975463867 0.9958944916725159 0.5928853750228882 0.6823529601097107 0.7019608020782471 0.7137255072593689
0.5332512259483337 0.9973156452178955 0.23122529685497284 0.7411764860153198 0.7450980544090271 0.6901960968971252
0.5948275923728943 0.9976314306259155 0.18379446864128113 0.7098039388656616 0.7176470756530762 0.6352941393852234
0.3889162540435791 0.9955787062644958 0.6707509756088257 0.5843137502670288 0.6039215922355652 0.615686297416687
0.5926108360290527 0.9145744442939758 0.008695651777088642 0.42352941632270813 0.42352941632270813 0.3843137323856354
0.45812806487083435 0.9988946914672852 0.8936758637428284 0.4745098054409027 0.46666666865348816 0.4156862795352936
0.5615763664245605 0.9281541109085083 0.008695651777088642 0.4431372582912445 0.43921568989753723 0.3686274588108063
0.565517246723175 0.9988946914672852 0.8913043737411499 0.5176470875740051 0.4941176474094391 0.43921568989753723
0.5337438583374023 0.9973156452178955 0.21501976251602173 0.7372549176216125 0.7372549176216125 0.6901960968971252
0.562561571598053 0.9973156452178955 0.1296442747116089 0.7137255072593689 0.7058823704719543 0.6470588445663452
0.5399014949798584 0.9952629208564758 0.9537549614906311 0.3686274588108063 0.37254902720451355 0.3490196168422699
0.471182256937027 0.9954208135604858 0.48695650696754456 0.6823529601097107 0.7098039388656616 0.7411764860153198
0.5091133117675781 0.8784146308898926 0.008695651777088642 0.6274510025978088 0.6352941393852234 0.5490196347236633
0.4490147829055786 0.9767882227897644 0.9047430753707886 0.30588236451148987 0.30980393290519714 0.2862745225429535
0.37093594670295715 0.9958944916725159 0.7707509994506836 0.5803921818733215 0.5921568870544434 0.6117647290229797
0.575123131275177 0.9957365989685059 0.4529644250869751 0.6980392336845398 0.7254902124404907 0.7490196228027344
0.6133005023002625 0.8990999460220337 0.00830039568245411 0.30980393290519714 0.3176470696926117 0.23137255012989044
0.49458128213882446 0.9954208135604858 0.4529644250869751 0.6941176652908325 0.729411780834198 0.7568627595901489
0.43916255235671997 0.9971577525138855 0.9292489886283875 0.48235294222831726 0.48627451062202454 0.46666666865348816
0.41059112548828125 0.9977893829345703 0.9154150485992432 0.46666666865348816 0.4745098054409027 0.47058823704719543
0.435960590839386 0.9952629208564758 0.009881422854959965 0.2980392277240753 0.2705882489681244 0.20000000298023224
0.4167487621307373 0.9962103366851807 0.8229249119758606 0.5568627715110779 0.572549045085907 0.5764706134796143
0.5270935893058777 0.886467695236206 0.009486165829002857 0.4313725531101227 0.45490196347236633 0.4000000059604645
0.475862056016922 0.9827885627746582 0.9418972134590149 0.4117647111415863 0.40784314274787903 0.38823530077934265
0.5428571701049805 0.9969998598098755 0.9063240885734558 0.3333333432674408 0.3176470696926117 0.27450981736183167
0.5684729218482971 0.9516816735267639 0.9885375499725342 0.3843137323856354 0.3843137323856354 0.3529411852359772
0.4596059024333954 0.9039949178695679 0.9893280863761902 0.34117648005485535 0.3450980484485626 0.3137255012989044
0.5426108241081238 0.9971577525138855 0.1094861626625061 0.686274528503418 0.6901960968971252 0.6352941393852234
0.43522167205810547 0.902415931224823 0.00830039568245411 0.4588235318660736 0.48627451062202454 0.45490196347236633
0.5716748833656311 0.9982630610466003 0.9106719493865967 0.32156863808631897 0.3019607961177826 0.27843138575553894
0.46231526136398315 0.9849992394447327 0.9454545378684998 0.3843137323856354 0.3803921639919281 0.3607843220233917
0.5586206912994385 0.9955787062644958 0.447430819272995 0.6901960968971252 0.7333333492279053 0.7411764860153198
0.48201969265937805 0.9971577525138855 0.2822134494781494 0.7450980544090271 0.7450980544090271 0.7058823704719543
0.39556649327278137 0.9957365989685059 0.014229249209165573 0.686274528503418 0.6549019813537598 0.6431372761726379
0.37536945939064026 0.9954208135604858 0.6138339638710022 0.6431372761726379 0.6705882549285889 0.6941176652908325
0.576600968837738 0.9958944916725159 0.5743082761764526 0.6705882549285889 0.6901960968971252 0.7137255072593689
0.5706896781921387 0.9955787062644958 0.4217391312122345 0.7098039388656616 0.7372549176216125 0.7607843279838562
0.3741379380226135 0.9984209537506104 0.9031620621681213 0.3843137323856354 0.3607843220233917 0.30588236451148987
0.4640394151210785 0.9856308102607727 0.007905138656497002 0.43921568989753723 0.4313725531101227 0.3490196168422699
0.4911330044269562 0.9955787062644958 0.635573148727417 0.6117647290229797 0.6313725709915161 0.6470588445663452
0.5761083960533142 0.9966840147972107 0.8067193627357483 0.5686274766921997 0.5843137502670288 0.5803921818733215
0.49482759833335876 0.9960524439811707 0.7411067485809326 0.5921568870544434 0.6235294342041016 0.6313725709915161
0.5226600766181946 0.9969998598098755 0.13675889372825623 0.7019608020782471 0.7098039388656616 0.6549019813537598
0.4687192142009735 0.9971577525138855 0.35059288144111633 0.6235294342041016 0.615686297416687 0.5568627715110779
0.5650246143341064 0.9955787062644958 0.4335968494415283 0.7098039388656616 0.7411764860153198 0.7529411911964417
0.4642857015132904 0.8828359246253967 0.00909090880304575 0.5803921818733215 0.5764706134796143 0.5058823823928833
0.44187191128730774 0.9163113832473755 0.00830039568245411 0.49803921580314636 0.5137255191802979 0.4470588266849518
0.5768473148345947 0.9141007661819458 0.008695651777088642 0.4745098054409027 0.47843137383461 0.42352941632270813
0.5411329865455627 0.9955787062644958 0.3968379497528076 0.7411764860153198 0.7803921699523926 0.7882353067398071
0.4869458079338074 0.9952629208564758 0.018972331658005714 0.20000000298023224 0.1725490242242813 0.14901961386203766
0.3761083781719208 0.9954208135604858 0.4486165940761566 0.6901960968971252 0.7254902124404907 0.7529411911964417
0.6086207032203674 0.9014685153961182 0.00830039568245411 0.4117647111415863 0.41960784792900085 0.32549020648002625
0.5504925847053528 0.9973156452178955 0.9150197505950928 0.3019607961177826 0.3019607961177826 0.2705882489681244
0.5406404137611389 0.9456813335418701 0.00830039568245411 0.5490196347236633 0.5607843399047852 0.48627451062202454
0.4763546884059906 0.8926259279251099 0.9893280863761902 0.38823530077934265 0.38823530077934265 0.3490196168422699
0.39458128809928894 0.9952629208564758 0.582608699798584 0.6431372761726379 0.6705882549285889 0.7098039388656616
0.5012315511703491 0.9968419671058655 0.08774703741073608 0.6941176652908325 0.7019608020782471 0.6509804129600525
0.4556650221347809 0.9971577525138855 0.12213438749313354 0.7372549176216125 0.7450980544090271 0.7019608020782471
0.506403923034668 0.9971577525138855 0.26284584403038025 0.7333333492279053 0.7411764860153198 0.6901960968971252
0.5857142806053162 0.9974735379219055 0.9280632138252258 0.3490196168422699 0.34117648005485535 0.29019609093666077
0.370197057723999 0.9974735379219055 0.2450592815876007 0.7333333492279053 0.7333333492279053 0.7019608020782471
0.5716748833656311 0.9982630610466003 0.9106719493865967 0.32156863808631897 0.3019607961177826 0.27843138575553894
0.40246304869651794 0.9797884225845337 0.9079051613807678 0.40392157435417175 0.4000000059604645 0.3843137323856354
0.37167486548423767 0.9226275086402893 0.007509881630539894 0.5411764979362488 0.5333333611488342 0.48627451062202454
0.4209359586238861 0.9955787062644958 0.6920948624610901 0.5764706134796143 0.6039215922355652 0.6274510025978088
0.4332512319087982 0.9793146848678589 0.9403162002563477 0.38823530077934265 0.3921568691730499 0.3686274588108063
0.4322659969329834 0.9973156452178955 0.31027668714523315 0.7215686440467834 0.7215686440467834 0.6745098233222961
0.5263546705245972 0.896731436252594 0.009486165829002857 0.3843137323856354 0.4000000059604645 0.3450980484485626
0.568719208240509 0.9974735379219055 0.2442687749862671 0.7137255072593689 0.7254902124404907 0.6509804129600525
0.5201970338821411 0.9966840147972107 0.8466402888298035 0.4941176474094391 0.4941176474094391 0.4941176474094391
0.43817734718322754 0.9952629208564758 0.6007905006408691 0.6313725709915161 0.6470588445663452 0.6823529601097107
0.4051724076271057 0.9699984192848206 0.9110671877861023 0.43529412150382996 0.4431372582912445 0.4313725531101227
0.4532019793987274 0.9963682293891907 0.07628458738327026 0.7019608020782471 0.7176470756530762 0.6509804129600525
0.5155172348022461 0.9709458351135254 0.00830039568245411 0.45490196347236633 0.46666666865348816 0.43921568989753723
0.4923645257949829 0.9756829142570496 0.007905138656497002 0.48627451062202454 0.48627451062202454 0.4470588266849518
0.6002463102340698 0.9958944916725159 0.5849802494049072 0.6784313917160034 0.7098039388656616 0.7176470756530762
0.5894088745117188 0.9212063550949097 0.00830039568245411 0.47058823704719543 0.4745098054409027 0.40392157435417175
0.4413793087005615 0.9958944916725159 0.7418972253799438 0.6117647290229797 0.6313725709915161 0.6431372761726379
0.4886699616909027 0.9823148846626282 0.9885375499725342 0.364705890417099 0.364705890417099 0.32549020648002625
0.4130541980266571 0.9955787062644958 0.03162055462598801 0.2235294133424759 0.1882352977991104 0.15294118225574493
0.5177339911460876 0.9965261220932007 0.820948600769043 0.5411764979362488 0.5372549295425415 0.5568627715110779
0.5477832555770874 0.9711037278175354 0.9308300614356995 0.4313725531101227 0.4313725531101227 0.3921568691730499
0.44630542397499084 0.9954208135604858 0.426086962223053 0.7019608020782471 0.729411780834198 0.7686274647712708
0.5463054180145264 0.9990525841712952 0.8897233009338379 0.4941176474094391 0.47843137383461 0.4313725531101227
0.4669950604438782 0.9962103366851807 0.790513813495636 0.5529412031173706 0.5647059082984924 0.5921568870544434
0.5982758402824402 0.994631290435791 0.3750988245010376 0.4745098054409027 0.47843137383461 0.42352941632270813
0.4233990013599396 0.9955787062644958 0.708695650100708 0.5764706134796143 0.615686297416687 0.6235294342041016
0.5827586054801941 0.9955787062644958 0.395652174949646 0.7529411911964417 0.7843137383460999 0.7960784435272217
0.37142857909202576 0.891994297504425 0.9901185631752014 0.43529412150382996 0.4431372582912445 0.3921568691730499
0.4443349838256836 0.874940812587738 0.9897233247756958 0.3843137323856354 0.3843137323856354 0.3450980484485626
0.5246305465698242 0.9973156452178955 0.9146245121955872 0.3137255012989044 0.32156863808631897 0.3176470696926117
0.4480295479297638 0.9182062149047852 0.9893280863761902 0.4000000059604645 0.40784314274787903 0.364705890417099
0.5866994857788086 0.9974735379219055 0.2561264932155609 0.7176470756530762 0.7137255072593689 0.6313725709915161
0.6073891520500183 0.9742618203163147 0.9075098633766174 0.4745098054409027 0.47843137383461 0.4588235318660736
0.5088669657707214 0.9169430136680603 0.9889327883720398 0.3960784375667572 0.4000000059604645 0.3686274588108063
0.6068965792655945 0.9360492825508118 0.9885375499725342 0.4313725531101227 0.4431372582912445 0.40784314274787903
0.4879310429096222 0.9510500431060791 0.9889327883720398 0.4000000059604645 0.3960784375667572 0.3764705955982208
0.5128079056739807 0.9955787062644958 0.4110671877861023 0.7176470756530762 0.7450980544090271 0.7686274647712708
0.4766009747982025 0.9426811933517456 0.00909090880304575 0.5254902243614197 0.5529412031173706 0.4901960790157318
0.5492610931396484 0.9973156452178955 0.1355731189250946 0.7019608020782471 0.7137255072593689 0.6470588445663452
0.5179802775382996 0.9971577525138855 0.24071146547794342 0.7372549176216125 0.7450980544090271 0.6941176652908325
0.5620689392089844 0.8840991854667664 0.9893280863761902 0.3803921639919281 0.3843137323856354 0.364705890417099
0.5965517163276672 0.9969998598098755 0.06205533444881439 0.6784313917160034 0.6823529601097107 0.6196078658103943
0.5081281065940857 0.9924206733703613 0.9434782862663269 0.47843137383461 0.4745098054409027 0.45490196347236633
0.46625617146492004 0.9960524439811707 0.7723320126533508 0.6509804129600525 0.6509804129600525 0.6901960968971252
0.5857142806053162 0.9976314306259155 0.2442687749862671 0.7215686440467834 0.7176470756530762 0.6392157077789307
0.5167487859725952 0.9963682293891907 0.7758893370628357 0.5803921818733215 0.6039215922355652 0.5960784554481506
0.5504925847053528 0.9973156452178955 0.12292490154504776 0.6980392336845398 0.7019608020782471 0.6392157077789307
0.4992610812187195 0.9952629208564758 0.5486165881156921 0.658823549747467 0.686274528503418 0.7176470756530762
0.4911330044269562 0.9971577525138855 0.2505928874015808 0.7450980544090271 0.7529411911964417 0.7019608020782471
0.5251231789588928 0.9815253615379333 0.9395256638526917 0.43921568989753723 0.43529412150382996 0.4156862795352936
0.4645320177078247 0.994789183139801 0.3806324005126953 0.7333333492279053 0.7529411911964417 0.7686274647712708
0.3972906470298767 0.9092057347297668 0.007905138656497002 0.6078431606292725 0.5921568870544434 0.545098066329956
0.5209359526634216 0.9954208135604858 0.45652174949645996 0.7019608020782471 0.729411780834198 0.7529411911964417
0.5315271019935608 0.9955787062644958 0.530434787273407 0.658823549747467 0.6941176652908325 0.7137255072593689
0.4963054060935974 0.9939996600151062 0.3750988245010376 0.46666666865348816 0.47058823704719543 0.4470588266849518
0.5539408922195435 0.9722090363502502 0.008695651777088642 0.4313725531101227 0.43921568989753723 0.38823530077934265
0.4174876809120178 0.9952629208564758 0.5130434632301331 0.658823549747467 0.686274528503418 0.7176470756530762
0.5199507474899292 0.9960524439811707 0.6474308371543884 0.5568627715110779 0.5882353186607361 0.5960784554481506
0.4724137783050537 0.9954208135604858 0.5090909004211426 0.6745098233222961 0.7019608020782471 0.7333333492279053
0.432758629322052 0.9971577525138855 0.15019762516021729 0.729411780834198 0.7333333492279053 0.6784313917160034
0.5748768448829651 0.9388915300369263 0.00830039568245411 0.3490196168422699 0.34117648005485535 0.2823529541492462
0.4596059024333954 0.9039949178695679 0.9893280863761902 0.34117648005485535 0.3450980484485626 0.3137255012989044
0.3773398995399475 0.9985788464546204 0.8905138373374939 0.48235294222831726 0.46666666865348816 0.42352941632270813
0.37438422441482544 0.8692562580108643 0.9901185631752014 0.3803921639919281 0.3803921639919281 0.34117648005485535
0.5068965554237366 0.9982630610466003 0.874703586101532 0.5058823823928833 0.47843137383461 0.43921568989753723
0.4519704580307007 0.9261013865470886 0.008695651777088642 0.5333333611488342 0.5568627715110779 0.501960813999176
0.41034483909606934 0.8708353042602539 0.00830039568245411 0.5176470875740051 0.5254902243614197 0.43921568989753723
0.5049260854721069 0.9958944916725159 0.6762846112251282 0.5607843399047852 0.6078431606292725 0.6000000238418579
0.4290640354156494 0.9952629208564758 0.5845849514007568 0.6235294342041016 0.658823549747467 0.6784313917160034
0.5911329984664917 0.9982630610466003 0.9067193865776062 0.3921568691730499 0.3686274588108063 0.3137255012989044
0.3884236514568329 0.9955787062644958 0.7106719613075256 0.5686274766921997 0.6000000238418579 0.6078431606292725
0.4997536838054657 0.9976314306259155 0.917391300201416 0.45098039507865906 0.4588235318660736 0.43921568989753723
0.5189655423164368 0.977893590927124 0.00830039568245411 0.48235294222831726 0.4745098054409027 0.4156862795352936
0.5618226528167725 0.9237328171730042 0.008695651777088642 0.47058823704719543 0.46666666865348816 0.3960784375667572
0.5421182513237 0.994947075843811 0.013833992183208466 0.2666666805744171 0.23529411852359772 0.18431372940540314
0.41108375787734985 0.8927838206291199 0.9897233247756958 0.38823530077934265 0.3960784375667572 0.3529411852359772
0.41921183466911316 0.9955787062644958 0.3905138373374939 0.6274510025978088 0.6549019813537598 0.6784313917160034
0.6142857074737549 0.9984209537506104 0.8699604868888855 0.5215686559677124 0.5098039507865906 0.43529412150382996
0.4955665171146393 0.9602084159851074 0.9885375499725342 0.37254902720451355 0.3607843220233917 0.3333333432674408
0.40763548016548157 0.8782567381858826 0.007905138656497002 0.572549045085907 0.5921568870544434 0.5058823823928833
0.4637930989265442 0.9954208135604858 0.6640316247940063 0.6000000238418579 0.6196078658103943 0.6352941393852234
0.4366995096206665 0.9955787062644958 0.3996047377586365 0.7372549176216125 0.7647058963775635 0.7960784435272217
0.381280779838562 0.9966840147972107 0.939920961856842 0.42352941632270813 0.41960784792900085 0.4000000059604645
0.517241358757019 0.9597347378730774 0.007905138656497002 0.4000000059604645 0.4117647111415863 0.3450980484485626
0.4687192142009735 0.9677878022193909 0.00830039568245411 0.5215686559677124 0.545098066329956 0.5058823823928833
0.39876848459243774 0.9957365989685059 0.023715414106845856 0.24313725531101227 0.20392157137393951 0.16862745583057404
0.37906405329704285 0.9960524439811707 0.7841897010803223 0.5686274766921997 0.5843137502670288 0.5960784554481506
0.49482759833335876 0.9973156452178955 0.9209486246109009 0.49803921580314636 0.5058823823928833 0.48627451062202454
0.5105911493301392 0.9592610001564026 0.9885375499725342 0.3960784375667572 0.3843137323856354 0.3490196168422699
0.509605884552002 0.9971577525138855 0.2596837878227234 0.7333333492279053 0.7411764860153198 0.6901960968971252
0.43891626596450806 0.8957839608192444 0.008695651777088642 0.5215686559677124 0.5333333611488342 0.4117647111415863
0.6054187417030334 0.9339964985847473 0.00830039568245411 0.5215686559677124 0.5098039507865906 0.45098039507865906
0.48620688915252686 0.9954208135604858 0.520948588848114 0.6705882549285889 0.6980392336845398 0.729411780834198
0.4655172526836395 0.9987367987632751 0.8972331881523132 0.33725491166114807 0.3450980484485626 0.29019609093666077
0.39039409160614014 0.9954208135604858 0.45098814368247986 0.6823529601097107 0.7254902124404907 0.7490196228027344
0.5591133236885071 0.9958944916725159 0.5533596873283386 0.6666666865348816 0.686274528503418 0.7098039388656616
0.4290640354156494 0.9955787062644958 0.7067193388938904 0.5803921818733215 0.6078431606292725 0.6313725709915161
0.6130542159080505 0.8780988454818726 0.9897233247756958 0.3607843220233917 0.35686275362968445 0.33725491166114807
0.4839901626110077 0.9736301898956299 0.007905138656497002 0.5372549295425415 0.5411764979362488 0.48627451062202454
0.5100985169410706 0.9854729175567627 0.9881423115730286 0.364705890417099 0.3490196168422699 0.30588236451148987
0.5805418491363525 0.9957365989685059 0.4379446506500244 0.7098039388656616 0.7372549176216125 0.7607843279838562
0.5229064226150513 0.9971577525138855 0.23122529685497284 0.7372549176216125 0.7372549176216125 0.6901960968971252
0.6157635450363159 0.9955787062644958 0.48656126856803894 0.7058823704719543 0.7411764860153198 0.7607843279838562
0.4645320177078247 0.9954208135604858 0.42450591921806335 0.6941176652908325 0.7215686440467834 0.7607843279838562
0.5586206912994385 0.9974735379219055 0.2747035622596741 0.7098039388656616 0.7137255072593689 0.658823549747467
0.5251231789588928 0.9971577525138855 0.17984189093112946 0.7137255072593689 0.7215686440467834 0.6705882549285889
0.5726600885391235 0.9982630610466003 0.8719367384910583 0.5058823823928833 0.4941176474094391 0.41960784792900085
0.49039408564567566 0.9932101964950562 0.9525691866874695 0.3843137323856354 0.3803921639919281 0.3607843220233917
0.40714284777641296 0.9933680891990662 0.373913049697876 0.46666666865348816 0.4745098054409027 0.45490196347236633
0.4211822748184204 0.9733144044876099 0.9047430753707886 0.43529412150382996 0.4313725531101227 0.42352941632270813
0.4081280827522278 0.9957365989685059 0.025296442210674286 0.239215686917305 0.20000000298023224 0.16470588743686676
0.4330049157142639 0.9966840147972107 0.9379446506500244 0.4000000059604645 0.40392157435417175 0.3843137323856354
0.49704432487487793 0.9976314306259155 0.9177865386009216 0.45490196347236633 0.4627451002597809 0.4431372582912445
0.37512314319610596 0.9003631472587585 0.9897233247756958 0.4431372582912445 0.4431372582912445 0.40392157435417175
0.5938423871994019 0.9054160714149475 0.008695651777088642 0.46666666865348816 0.47058823704719543 0.4000000059604645
0.5307881832122803 0.994789183139801 0.3790513873100281 0.7137255072593689 0.7490196228027344 0.7450980544090271
0.411822646856308 0.9954208135604858 0.40355730056762695 0.7254902124404907 0.7607843279838562 0.7960784435272217
0.49384236335754395 0.9199431538581848 0.9889327883720398 0.3803921639919281 0.38823530077934265 0.3450980484485626
0.4012315273284912 0.9635244011878967 0.007509881630539894 0.5137255191802979 0.5058823823928833 0.4588235318660736
0.4211822748184204 0.9954208135604858 0.4150197505950928 0.7098039388656616 0.7411764860153198 0.7843137383460999
0.6041871905326843 0.8979946374893188 0.9893280863761902 0.4000000059604645 0.40392157435417175 0.3843137323856354
0.5261083841323853 0.9515237808227539 0.9885375499725342 0.38823530077934265 0.38823530077934265 0.35686275362968445
0.4568965435028076 0.9415758848190308 0.9889327883720398 0.3803921639919281 0.3764705955982208 0.35686275362968445
0.5830049514770508 0.9197852611541748 0.008695651777088642 0.45098039507865906 0.4627451002597809 0.38823530077934265
0.3997536897659302 0.9674719572067261 0.007509881630539894 0.5411764979362488 0.5333333611488342 0.45098039507865906
0.5194581151008606 0.9971577525138855 0.9158102869987488 0.45490196347236633 0.4588235318660736 0.43529412150382996
0.4524630606174469 0.9589452147483826 0.00830039568245411 0.4588235318660736 0.4588235318660736 0.35686275362968445
0.4357142746448517 0.9739459753036499 0.9276679754257202 0.4901960790157318 0.4901960790157318 0.48235294222831726
0.4613300561904907 0.9308384656906128 0.008695651777088642 0.4941176474094391 0.5058823823928833 0.4313725531101227
0.495320200920105 0.9846833944320679 0.9430829882621765 0.4156862795352936 0.4117647111415863 0.3921568691730499
0.5201970338821411 0.9939996600151062 0.9881423115730286 0.3294117748737335 0.3137255012989044 0.2666666805744171
0.3935960531234741 0.9482077956199646 0.9893280863761902 0.41960784792900085 0.4156862795352936 0.4000000059604645
0.5566502213478088 0.9973156452178955 0.11106719076633453 0.686274528503418 0.6941176652908325 0.6431372761726379
0.43103447556495667 0.9431549310684204 0.9889327883720398 0.4274509847164154 0.42352941632270813 0.40392157435417175
0.5044335126876831 0.9793146848678589 0.9383399486541748 0.4313725531101227 0.4313725531101227 0.3921568691730499
0.5041871666908264 0.9952629208564758 0.0181818176060915 0.21960784494876862 0.18431372940540314 0.16470588743686676
0.5783251523971558 0.9958944916725159 0.6328063011169434 0.6352941393852234 0.6549019813537598 0.6705882549285889
0.48251232504844666 0.9958944916725159 0.7118577361106873 0.5921568870544434 0.6235294342041016 0.6313725709915161
0.5039408802986145 0.891836404800415 0.00909090880304575 0.5686274766921997 0.5803921818733215 0.49803921580314636
0.49852216243743896 0.9799463152885437 0.9885375499725342 0.38823530077934265 0.3764705955982208 0.34117648005485535
0.4669950604438782 0.9532607197761536 0.008695651777088642 0.4745098054409027 0.4588235318660736 0.4117647111415863
0.5524630546569824 0.9963682293891907 0.7869565486907959 0.5372549295425415 0.5529412031173706 0.5568627715110779
0.4209359586238861 0.9955787062644958 0.033596839755773544 0.22745098173618317 0.1882352977991104 0.15294118225574493
0.5731527209281921 0.9545239210128784 0.00830039568245411 0.5137255191802979 0.5176470875740051 0.45490196347236633
0.5201970338821411 0.9939996600151062 0.9881423115730286 0.3294117748737335 0.3137255012989044 0.2666666805744171
0.548275887966156 0.9958944916725159 0.5644268989562988 0.6509804129600525 0.6784313917160034 0.7098039388656616
0.41133004426956177 0.9624190926551819 0.9889327883720398 0.3960784375667572 0.3843137323856354 0.35686275362968445
0.4847290515899658 0.8698878884315491 0.9893280863761902 0.3686274588108063 0.3686274588108063 0.3294117748737335
0.49064040184020996 0.9971577525138855 0.19881422817707062 0.7411764860153198 0.7450980544090271 0.7137255072593689
0.5490148067474365 0.9973156452178955 0.21146245300769806 0.729411780834198 0.729411780834198 0.6823529601097107
0.5780788064002991 0.9009947776794434 0.008695651777088642 0.47058823704719543 0.46666666865348816 0.3960784375667572
0.5105911493301392 0.9966840147972107 0.9201580882072449 0.4901960790157318 0.49803921580314636 0.47843137383461
0.4243842363357544 0.8905732035636902 0.9897233247756958 0.40392157435417175 0.40392157435417175 0.364705890417099
0.5748768448829651 0.9952629208564758 0.9837944507598877 0.3490196168422699 0.33725491166114807 0.3019607961177826
0.41921183466911316 0.9973156452178955 0.29802370071411133 0.7215686440467834 0.7215686440467834 0.6745098233222961
0.4275861978530884 0.9864203333854675 0.007905138656497002 0.47843137383461 0.4588235318660736 0.3843137323856354
0.370197057723999 0.9973156452178955 0.17391304671764374 0.7254902124404907 0.7176470756530762 0.6705882549285889
0.46157634258270264 0.9104689955711365 0.00909090880304575 0.47843137383461 0.4941176474094391 0.4274509847164154
0.4687192142009735 0.9954208135604858 0.022134387865662575 0.20392157137393951 0.1764705926179886 0.14509804546833038
0.3933497667312622 0.9973156452178955 0.32055336236953735 0.7019608020782471 0.7098039388656616 0.6666666865348816
0.5145320296287537 0.9632086157798767 0.9885375499725342 0.3764705955982208 0.364705890417099 0.3294117748737335
0.4793103337287903 0.9971577525138855 0.2142292559146881 0.729411780834198 0.7529411911964417 0.7058823704719543
0.6083743572235107 0.9976314306259155 0.926877498626709 0.3490196168422699 0.34117648005485535 0.29411765933036804
0.46674877405166626 0.9371545910835266 0.9889327883720398 0.40784314274787903 0.40392157435417175 0.3843137323856354
0.6135467886924744 0.9802621006965637 0.9146245121955872 0.48627451062202454 0.48627451062202454 0.45490196347236633
0.5243842601776123 0.9962103366851807 0.6932806372642517 0.5607843399047852 0.5921568870544434 0.6000000238418579
0.49014776945114136 0.8990999460220337 0.9893280863761902 0.3921568691730499 0.4000000059604645 0.35686275362968445
0.5182266235351562 0.9963682293891907 0.7928853631019592 0.5843137502670288 0.6078431606292725 0.6000000238418579
0.584482729434967 0.9976314306259155 0.2134387344121933 0.7215686440467834 0.7176470756530762 0.6470588445663452
0.5916256308555603 0.8815727233886719 0.9897233247756958 0.3686274588108063 0.37254902720451355 0.3490196168422699
0.5761083960533142 0.9987367987632751 0.8984189629554749 0.4156862795352936 0.3843137323856354 0.34117648005485535
0.5862069129943848 0.9960524439811707 0.6731225252151489 0.6196078658103943 0.6470588445663452 0.6784313917160034
0.5588669776916504 0.9142586588859558 0.00909090880304575 0.47058823704719543 0.4627451002597809 0.4156862795352936
0.5076354742050171 0.9358913898468018 0.9889327883720398 0.40392157435417175 0.4000000059604645 0.3803921639919281
0.4135468006134033 0.9955787062644958 0.3897233307361603 0.6509804129600525 0.6823529601097107 0.6941176652908325
0.5901477932929993 0.9974735379219055 0.24861660599708557 0.7176470756530762 0.7254902124404907 0.6392157077789307
0.4093596041202545 0.9960524439811707 0.7916995882987976 0.5686274766921997 0.5843137502670288 0.5803921818733215
0.520443320274353 0.9958944916725159 0.6300395131111145 0.6039215922355652 0.6352941393852234 0.6470588445663452
0.5384236574172974 0.9960524439811707 0.05098814144730568 0.7137255072593689 0.7176470756530762 0.6470588445663452
0.61231529712677 0.9969998598098755 0.8079051375389099 0.5882353186607361 0.5960784554481506 0.5921568870544434
0.46576353907585144 0.8785725831985474 0.9893280863761902 0.37254902720451355 0.3764705955982208 0.3450980484485626
0.49334976077079773 0.9965261220932007 0.8399209380149841 0.501960813999176 0.5254902243614197 0.5254902243614197
0.5509852170944214 0.9987367987632751 0.8932806253433228 0.47843137383461 0.4627451002597809 0.4156862795352936
0.41871920228004456 0.9019421935081482 0.9897233247756958 0.42352941632270813 0.42352941632270813 0.3843137323856354
0.6088669896125793 0.9958944916725159 0.36086955666542053 0.5058823823928833 0.501960813999176 0.42352941632270813
0.4637930989265442 0.9801042079925537 0.9885375499725342 0.35686275362968445 0.35686275362968445 0.3176470696926117
0.5509852170944214 0.9951050281524658 0.9699604511260986 0.35686275362968445 0.3294117748737335 0.30588236451148987
0.6002463102340698 0.9974735379219055 0.8533596992492676 0.3176470696926117 0.2823529541492462 0.2235294133424759
0.5763546824455261 0.8907310962677002 0.008695651777088642 0.3921568691730499 0.3921568691730499 0.2823529541492462
0.4522167444229126 0.9810516238212585 0.007905138656497002 0.4588235318660736 0.4627451002597809 0.40784314274787903
0.47044333815574646 0.9957365989685059 0.7130434513092041 0.5686274766921997 0.5843137502670288 0.5960784554481506
0.4805418848991394 0.9829464554786682 0.007905138656497002 0.5215686559677124 0.5137255191802979 0.46666666865348816
0.39556649327278137 0.9962103366851807 0.08498023450374603 0.7333333492279053 0.7372549176216125 0.6823529601097107
0.5756157636642456 0.9543660283088684 0.008695651777088642 0.5215686559677124 0.5254902243614197 0.47058823704719543
0.5864531993865967 0.9969998598098755 0.822529673576355 0.5647059082984924 0.5803921818733215 0.5764706134796143
0.40985220670700073 0.9955787062644958 0.01304347813129425 0.5098039507865906 0.48235294222831726 0.4431372582912445
0.44310346245765686 0.9545239210128784 0.00830039568245411 0.47843137383461 0.46666666865348816 0.4000000059604645
0.37142857909202576 0.913153350353241 0.007509881630539894 0.5411764979362488 0.5529412031173706 0.47843137383461
0.37118226289749146 0.9966840147972107 0.1252964437007904 0.7333333492279053 0.7333333492279053 0.6941176652908325
0.3928571343421936 0.9954208135604858 0.4830039441585541 0.6666666865348816 0.7019608020782471 0.7372549176216125
0.5238916277885437 0.9954208135604858 0.5094861388206482 0.6823529601097107 0.7098039388656616 0.7333333492279053
0.6009852290153503 0.8684667348861694 0.16482213139533997 0.16078431904315948 0.16078431904315948 0.16078431904315948
0.5564039349555969 0.9973156452178955 0.33636364340782166 0.7058823704719543 0.7176470756530762 0.6509804129600525
0.44630542397499084 0.9595768451690674 0.9889327883720398 0.364705890417099 0.364705890417099 0.3333333432674408
0.4674876928329468 0.9952629208564758 0.5612648129463196 0.6431372761726379 0.6784313917160034 0.6980392336845398
0.46256157755851746 0.9699984192848206 0.00830039568245411 0.3607843220233917 0.3490196168422699 0.3137255012989044
0.5381773114204407 0.994947075843811 0.9569169878959656 0.3490196168422699 0.3529411852359772 0.3294117748737335
0.4246305525302887 0.9954208135604858 0.4098814129829407 0.7137255072593689 0.7490196228027344 0.7843137383460999
0.601477861404419 0.9507342576980591 0.9881423115730286 0.4156862795352936 0.42352941632270813 0.3803921639919281
0.49359604716300964 0.9624190926551819 0.00830039568245411 0.6117647290229797 0.615686297416687 0.5607843399047852
0.4554187059402466 0.9973156452178955 0.25177866220474243 0.7254902124404907 0.7411764860153198 0.6823529601097107
0.37906405329704285 0.9974735379219055 0.23280632495880127 0.6980392336845398 0.7019608020782471 0.6470588445663452
0.4997536838054657 0.897363007068634 0.009881422854959965 0.38823530077934265 0.4000000059604645 0.3333333432674408
0.41921183466911316 0.8962576985359192 0.9897233247756958 0.4156862795352936 0.4156862795352936 0.3764705955982208
0.4036945700645447 0.9954208135604858 0.46166008710861206 0.6745098233222961 0.7137255072593689 0.7490196228027344
0.4652709364891052 0.9954208135604858 0.5162055492401123 0.6666666865348816 0.6941176652908325 0.7254902124404907
0.44679802656173706 0.977735698223114 0.9885375499725342 0.4000000059604645 0.38823530077934265 0.3607843220233917
0.5477832555770874 0.9794725775718689 0.9881423115730286 0.3607843220233917 0.3607843220233917 0.32156863808631897
0.5438423752784729 0.9862624406814575 0.9881423115730286 0.33725491166114807 0.32549020648002625 0.29019609093666077
0.4233990013599396 0.9954208135604858 0.4316205680370331 0.7019608020782471 0.7372549176216125 0.772549033164978
0.4598522186279297 0.9802621006965637 0.007905138656497002 0.4156862795352936 0.42352941632270813 0.37254902720451355
0.4635468125343323 0.9988946914672852 0.8905138373374939 0.4901960790157318 0.4745098054409027 0.4274509847164154
0.5721675157546997 0.9974735379219055 0.20671936869621277 0.7058823704719543 0.7176470756530762 0.6352941393852234
0.5083743929862976 0.9954208135604858 0.5490118861198425 0.658823549747467 0.686274528503418 0.7098039388656616
0.39162561297416687 0.9872098565101624 0.9881423115730286 0.3843137323856354 0.37254902720451355 0.3450980484485626
0.49827587604522705 0.9270488023757935 0.9889327883720398 0.3960784375667572 0.3960784375667572 0.35686275362968445
0.4413793087005615 0.9955787062644958 0.4007905125617981 0.7333333492279053 0.7607843279838562 0.7921568751335144
0.5623152852058411 0.9166271686553955 0.9889327883720398 0.3843137323856354 0.3803921639919281 0.3607843220233917
0.39827585220336914 0.9954208135604858 0.47628459334373474 0.6705882549285889 0.6980392336845398 0.7372549176216125
0.37167486548423767 0.994789183139801 0.3845849931240082 0.545098066329956 0.4588235318660736 0.5098039507865906
0.5224137902259827 0.8883625268936157 0.009486165829002857 0.5137255191802979 0.5254902243614197 0.4588235318660736
0.3881773352622986 0.9973156452178955 0.20039525628089905 0.7176470756530762 0.729411780834198 0.6549019813537598
0.5349753499031067 0.9962103366851807 0.7569169998168945 0.5843137502670288 0.615686297416687 0.6235294342041016
0.5253694653511047 0.8839412331581116 0.009486165829002857 0.4313725531101227 0.43921568989753723 0.35686275362968445
0.5502462983131409 0.9960524439811707 0.045059289783239365 0.16470588743686676 0.15294118225574493 0.13333334028720856
0.5997536778450012 0.9957365989685059 0.5383399128913879 0.6901960968971252 0.7215686440467834 0.7333333492279053
0.5167487859725952 0.9973156452178955 0.32490119338035583 0.7254902124404907 0.7333333492279053 0.6823529601097107
0.3852216601371765 0.9935259819030762 0.3632411062717438 0.3803921639919281 0.3843137323856354 0.3529411852359772
0.4364531934261322 0.9954208135604858 0.4731225371360779 0.6666666865348816 0.7019608020782471 0.7372549176216125
0.5209359526634216 0.9584714770317078 0.007905138656497002 0.5490196347236633 0.5607843399047852 0.4941176474094391
0.4325123131275177 0.9013106226921082 0.00830039568245411 0.5254902243614197 0.5568627715110779 0.5058823823928833
0.6049261093139648 0.9714195728302002 0.9881423115730286 0.3764705955982208 0.3764705955982208 0.3294117748737335
0.5224137902259827 0.9973156452178955 0.3332015872001648 0.7137255072593689 0.7215686440467834 0.6705882549285889
0.49704432487487793 0.9954208135604858 0.5071146488189697 0.6784313917160034 0.7058823704719543 0.729411780834198
0.39901477098464966 0.9965261220932007 0.10039525479078293 0.7372549176216125 0.7333333492279053 0.6627451181411743
0.37832513451576233 0.9973156452178955 0.1770751029253006 0.729411780834198 0.7372549176216125 0.6823529601097107
0.39458128809928894 0.9960524439811707 0.061660077422857285 0.7450980544090271 0.7411764860153198 0.6705882549285889
0.5142857432365417 0.972366988658905 0.9296442866325378 0.47058823704719543 0.47058823704719543 0.43921568989753723
0.47463053464889526 0.994631290435791 0.9675889611244202 0.3607843220233917 0.3490196168422699 0.32156863808631897
0.4325123131275177 0.9688931107521057 0.9130434989929199 0.4313725531101227 0.4470588266849518 0.4431372582912445
0.48669952154159546 0.9955787062644958 0.3901185691356659 0.6745098233222961 0.7098039388656616 0.6980392336845398
0.5650246143341064 0.9966840147972107 0.8035573363304138 0.5568627715110779 0.572549045085907 0.5686274766921997
0.520443320274353 0.9431549310684204 0.008695651777088642 0.5058823823928833 0.5098039507865906 0.45490196347236633
0.5618226528167725 0.9761566519737244 0.008695651777088642 0.41960784792900085 0.40392157435417175 0.3607843220233917
0.4162561595439911 0.994157612323761 0.9857707619667053 0.40392157435417175 0.40392157435417175 0.37254902720451355
0.614039421081543 0.9976314306259155 0.2134387344121933 0.7372549176216125 0.7333333492279053 0.6549019813537598
0.3849753737449646 0.9745776057243347 0.9343873262405396 0.46666666865348816 0.47058823704719543 0.4470588266849518
0.40344828367233276 0.9216800928115845 0.007905138656497002 0.6078431606292725 0.6078431606292725 0.5607843399047852
0.5280787944793701 0.9958944916725159 0.0470355749130249 0.24313725531101227 0.24313725531101227 0.19607843458652496
0.47463053464889526 0.9963682293891907 0.05849802494049072 0.7058823704719543 0.7215686440467834 0.6549019813537598
0.5773398876190186 0.9958944916725159 0.969565212726593 0.3529411852359772 0.34117648005485535 0.3137255012989044
0.5463054180145264 0.9974735379219055 0.2972331941127777 0.7254902124404907 0.7333333492279053 0.6784313917160034
0.5884236693382263 0.9957365989685059 0.5075098872184753 0.686274528503418 0.7215686440467834 0.7411764860153198
0.4482758641242981 0.9973156452178955 0.269565224647522 0.7333333492279053 0.7411764860153198 0.6901960968971252
0.46674877405166626 0.8948365449905396 0.9893280863761902 0.4000000059604645 0.40392157435417175 0.37254902720451355
