0.9862068891525269 0.6949313282966614 0.9292489886283875 0.501960813999176 0.4745098054409027 0.40392157435417175
0.9825122952461243 0.696984052658081 0.15968379378318787 0.7254902124404907 0.7372549176216125 0.6705882549285889
0.9847290515899658 0.7231959700584412 0.06403162330389023 0.6745098233222961 0.6705882549285889 0.6000000238418579
0.9135468006134033 0.746407687664032 0.9889327883720398 0.4470588266849518 0.43529412150382996 0.4000000059604645
0.9778324961662292 0.7429338097572327 0.520948588848114 0.729411780834198 0.7411764860153198 0.7607843279838562
0.931280791759491 0.7378809452056885 0.9893280863761902 0.4431372582912445 0.4274509847164154 0.3843137323856354
0.9384236335754395 0.7820938229560852 0.022134387865662575 0.29019609093666077 0.3333333432674408 0.4588235318660736
0.9780788421630859 0.7642507553100586 0.4371541440486908 0.7411764860153198 0.7529411911964417 0.772549033164978
0.9788177609443665 0.7808305621147156 0.58339923620224 0.7176470756530762 0.7215686440467834 0.7411764860153198
0.9849753975868225 0.6360334753990173 0.8940711617469788 0.5254902243614197 0.5098039507865906 0.4117647111415863
0.979556679725647 0.7058266401290894 0.7727272510528564 0.6078431606292725 0.6313725709915161 0.6313725709915161
0.8862069249153137 0.7718300819396973 0.9881423115730286 0.4313725531101227 0.4156862795352936 0.3686274588108063
0.9140394330024719 0.6714037656784058 0.9897233247756958 0.43921568989753723 0.4313725531101227 0.37254902720451355
0.9780788421630859 0.7429338097572327 0.5505928993225098 0.7137255072593689 0.729411780834198 0.7411764860153198
0.9766010046005249 0.6511921882629395 0.5699604749679565 0.6705882549285889 0.6980392336845398 0.7215686440467834
0.9288177490234375 0.6859308481216431 0.9897233247756958 0.46666666865348816 0.4431372582912445 0.3960784375667572
0.9512315392494202 0.6564029455184937 0.9905138611793518 0.42352941632270813 0.4156862795352936 0.3686274588108063
0.9066502451896667 0.724459171295166 0.005928853526711464 0.40392157435417175 0.4117647111415863 0.3294117748737335
0.9785714149475098 0.7318806052207947 0.39762845635414124 0.7254902124404907 0.7450980544090271 0.7568627595901489
0.9820197224617004 0.6704563498497009 0.2818181812763214 0.6470588445663452 0.658823549747467 0.5529412031173706
0.9862068891525269 0.7164061069488525 0.9383399486541748 0.48627451062202454 0.4627451002597809 0.40784314274787903
0.8726601004600525 0.751776397228241 0.005928853526711464 0.4470588266849518 0.45490196347236633 0.3607843220233917
0.9825122952461243 0.7633033394813538 0.22529643774032593 0.7529411911964417 0.7450980544090271 0.6980392336845398
0.9857142567634583 0.6496131420135498 0.9288537502288818 0.4941176474094391 0.47058823704719543 0.42352941632270813
0.9775862097740173 0.7315648198127747 0.46521738171577454 0.7215686440467834 0.7411764860153198 0.7529411911964417
0.9820197224617004 0.7801989316940308 0.26363635063171387 0.7490196228027344 0.7411764860153198 0.6901960968971252
0.9785714149475098 0.7014053463935852 0.3857707381248474 0.6901960968971252 0.7098039388656616 0.7215686440467834
0.915517270565033 0.6980893611907959 0.005533596966415644 0.47058823704719543 0.46666666865348816 0.3843137323856354
0.9253694415092468 0.7648823857307434 0.9889327883720398 0.4274509847164154 0.4000000059604645 0.3607843220233917
0.9756157398223877 0.7858834862709045 0.9861660003662109 0.40784314274787903 0.3686274588108063 0.32156863808631897
0.9593595862388611 0.6990367770195007 0.005533596966415644 0.5568627715110779 0.5254902243614197 0.4431372582912445
0.9778324961662292 0.6780356764793396 0.4122529625892639 0.6941176652908325 0.7215686440467834 0.7607843279838562
0.9822660088539124 0.6395073533058167 0.12450592964887619 0.7019608020782471 0.7098039388656616 0.6274510025978088
0.9775862097740173 0.632717490196228 0.6620553135871887 0.6470588445663452 0.6666666865348816 0.6784313917160034
0.9780788421630859 0.7437233328819275 0.4332015812397003 0.729411780834198 0.7411764860153198 0.7607843279838562
0.9866995215415955 0.7063003182411194 0.9596837759017944 0.4470588266849518 0.42352941632270813 0.3764705955982208
0.879802942276001 0.6682456731796265 0.9897233247756958 0.4431372582912445 0.4431372582912445 0.3960784375667572
0.9199507236480713 0.7154586911201477 0.005928853526711464 0.4274509847164154 0.41960784792900085 0.3607843220233917
0.9068965315818787 0.7219327092170715 0.9889327883720398 0.40392157435417175 0.3960784375667572 0.3490196168422699
0.9834975600242615 0.7220906615257263 0.8241106867790222 0.615686297416687 0.6196078658103943 0.5490196347236633
0.9620689749717712 0.7730933427810669 0.9897233247756958 0.4156862795352936 0.3921568691730499 0.3450980484485626
0.9822660088539124 0.6445602178573608 0.13952569663524628 0.7098039388656616 0.7019608020782471 0.6509804129600525
0.9711822867393494 0.6979314684867859 0.3185770809650421 0.46666666865348816 0.4745098054409027 0.42352941632270813
0.9773399233818054 0.7157745361328125 0.49249011278152466 0.7254902124404907 0.7450980544090271 0.7568627595901489
0.9798029661178589 0.7858834862709045 0.4830039441585541 0.7333333492279053 0.7529411911964417 0.7764706015586853
0.9463053941726685 0.7770408987998962 0.05889328196644783 0.11372549086809158 0.1882352977991104 0.6509804129600525
0.9859606027603149 0.6535606980323792 0.9525691866874695 0.4627451002597809 0.43921568989753723 0.3921568691730499
0.9773399233818054 0.6976156830787659 0.4537549316883087 0.7019608020782471 0.7333333492279053 0.7450980544090271
0.9820197224617004 0.6398231387138367 0.056521739810705185 0.7098039388656616 0.7019608020782471 0.6431372761726379
0.9788177609443665 0.7175114750862122 0.6750988364219666 0.800000011920929 0.8196078538894653 0.8313725590705872
0.9325123429298401 0.7816200852394104 0.0063241105526685715 0.5411764979362488 0.5137255191802979 0.4117647111415863
0.9847290515899658 0.751460611820221 0.0988142266869545 0.6823529601097107 0.6745098233222961 0.6274510025978088
0.9657635688781738 0.648665726184845 0.005928853526711464 0.4313725531101227 0.41960784792900085 0.3607843220233917
0.9798029661178589 0.7677246332168579 0.7177865505218506 0.6549019813537598 0.6549019813537598 0.686274528503418
0.9783251285552979 0.7754618525505066 0.4596838057041168 0.7450980544090271 0.7607843279838562 0.772549033164978
0.9714285731315613 0.6513500809669495 0.33557313680648804 0.8235294222831726 0.8705882430076599 0.9176470637321472
0.9657635688781738 0.7718300819396973 0.10079051554203033 0.3686274588108063 0.4000000059604645 0.5529412031173706
0.9822660088539124 0.6818253397941589 0.14782609045505524 0.7176470756530762 0.7333333492279053 0.6431372761726379
0.8706896305084229 0.6576662063598633 0.9897233247756958 0.43921568989753723 0.4313725531101227 0.3843137323856354
0.9849753975868225 0.6729828119277954 0.8675889372825623 0.572549045085907 0.5490196347236633 0.4627451002597809
0.9788177609443665 0.7789357304573059 0.5837944746017456 0.7098039388656616 0.7215686440467834 0.7411764860153198
0.9775862097740173 0.6845096945762634 0.5980237126350403 0.6823529601097107 0.6980392336845398 0.7098039388656616
0.979556679725647 0.7198799848556519 0.7588932514190674 0.6078431606292725 0.6313725709915161 0.6313725709915161
0.9775862097740173 0.6511921882629395 0.6438735127449036 0.6784313917160034 0.6784313917160034 0.7254902124404907
0.9773399233818054 0.6418758630752563 0.6367588639259338 0.6627451181411743 0.6745098233222961 0.6941176652908325
0.9586206674575806 0.6924048662185669 0.9901185631752014 0.4000000059604645 0.3803921639919281 0.35686275362968445
0.9820197224617004 0.6920890808105469 0.8007904887199402 0.6000000238418579 0.6078431606292725 0.5882353186607361
0.9458128213882446 0.6718774437904358 0.005533596966415644 0.5647059082984924 0.5137255191802979 0.43921568989753723
0.9635468125343323 0.7756197452545166 0.11185770481824875 0.1921568661928177 0.23137255012989044 0.7490196228027344
0.9847290515899658 0.7743565440177917 0.8861660361289978 0.5647059082984924 0.5372549295425415 0.46666666865348816
0.9211822748184204 0.6859308481216431 0.9897233247756958 0.4901960790157318 0.4627451002597809 0.42352941632270813
0.984236478805542 0.729985773563385 0.8407114744186401 0.6117647290229797 0.5960784554481506 0.5490196347236633
0.979556679725647 0.7773566842079163 0.36600789427757263 0.11764705926179886 0.11764705926179886 0.125490203499794
0.9822660088539124 0.6447181701660156 0.17391304671764374 0.6941176652908325 0.6901960968971252 0.6117647290229797
0.9770935773849487 0.632243812084198 0.6142292618751526 0.658823549747467 0.6745098233222961 0.686274528503418
0.9773399233818054 0.6519817113876343 0.6304348111152649 0.6823529601097107 0.6823529601097107 0.729411780834198
0.9825122952461243 0.7396178841590881 0.24347825348377228 0.7098039388656616 0.7176470756530762 0.6627451181411743
0.979556679725647 0.768356204032898 0.6913043260574341 0.6666666865348816 0.6666666865348816 0.7058823704719543
0.9839901328086853 0.7254065871238708 0.043478261679410934 0.7372549176216125 0.6941176652908325 0.6235294342041016
0.9766010046005249 0.6519817113876343 0.47154149413108826 0.6823529601097107 0.7098039388656616 0.7411764860153198
0.9394088387489319 0.7873045802116394 0.04545454680919647 0.10980392247438431 0.21176470816135406 0.8823529481887817
0.9822660088539124 0.6701405048370361 0.12134387344121933 0.7098039388656616 0.6980392336845398 0.6235294342041016
0.982758641242981 0.7063003182411194 0.028853755444288254 0.2078431397676468 0.1725490242242813 0.13725490868091583
0.9820197224617004 0.6822990775108337 0.2561264932155609 0.6901960968971252 0.7019608020782471 0.6352941393852234
0.9633004665374756 0.7227222323417664 0.9901185631752014 0.38823530077934265 0.3803921639919281 0.3333333432674408
0.9650246500968933 0.6481919884681702 0.9909090995788574 0.3764705955982208 0.3490196168422699 0.3176470696926117
0.9844827651977539 0.7004579305648804 0.8486166000366211 0.5921568870544434 0.5803921818733215 0.5137255191802979
0.9780788421630859 0.7451444864273071 0.5549407005310059 0.7098039388656616 0.7254902124404907 0.7372549176216125
0.9770935773849487 0.6440865397453308 0.6166008114814758 0.6666666865348816 0.686274528503418 0.6980392336845398
0.9857142567634583 0.6390336155891418 0.9513834118843079 0.45490196347236633 0.4274509847164154 0.35686275362968445
0.9770935773849487 0.7457761168479919 0.36798417568206787 0.7411764860153198 0.7529411911964417 0.7803921699523926
0.9798029661178589 0.7783041000366211 0.7268774509429932 0.658823549747467 0.658823549747467 0.6901960968971252
0.9788177609443665 0.741038978099823 0.6280632615089417 0.6627451181411743 0.6627451181411743 0.6941176652908325
0.9788177609443665 0.7850939631462097 0.5486165881156921 0.7176470756530762 0.7372549176216125 0.7529411911964417
0.9753694534301758 0.7753039598464966 0.03122529573738575 0.0470588244497776 0.07058823853731155 0.1568627506494522
0.9559113383293152 0.6984052062034607 0.9901185631752014 0.42352941632270813 0.3960784375667572 0.364705890417099
0.9830049276351929 0.7760934829711914 0.12569169700145721 0.7176470756530762 0.7019608020782471 0.7058823704719543
0.9182265996932983 0.7380388379096985 0.9889327883720398 0.43529412150382996 0.4274509847164154 0.3764705955982208
0.9798029661178589 0.7549344897270203 0.7509881258010864 0.6352941393852234 0.6392157077789307 0.6549019813537598
0.9844827651977539 0.7164061069488525 0.08102767169475555 0.7372549176216125 0.7372549176216125 0.6431372761726379
0.8921182155609131 0.6478762030601501 0.9901185631752014 0.45098039507865906 0.4431372582912445 0.3960784375667572
0.9785714149475098 0.724301278591156 0.3802371621131897 0.6705882549285889 0.7058823704719543 0.7019608020782471
0.9665024876594543 0.7618821859359741 0.34189721941947937 0.3686274588108063 0.38823530077934265 0.40392157435417175
0.9773399233818054 0.7018790245056152 0.4537549316883087 0.7019608020782471 0.7333333492279053 0.7411764860153198
0.9600985050201416 0.7566714286804199 0.011067193932831287 0.5137255191802979 0.5098039507865906 0.43921568989753723
0.9773399233818054 0.707563579082489 0.4952569305896759 0.7058823704719543 0.7372549176216125 0.7450980544090271
0.9822660088539124 0.6946154832839966 0.020553359761834145 0.250980406999588 0.21568627655506134 0.18039216101169586
0.9066502451896667 0.6965103149414062 0.9893280863761902 0.4313725531101227 0.40392157435417175 0.3803921639919281
0.9536945819854736 0.7547765374183655 0.9897233247756958 0.4274509847164154 0.4000000059604645 0.3607843220233917
0.9775862097740173 0.6868782639503479 0.5822134613990784 0.6941176652908325 0.7098039388656616 0.7215686440467834
0.876600980758667 0.7467235326766968 0.9885375499725342 0.4745098054409027 0.4470588266849518 0.40784314274787903
0.9780788421630859 0.6706142425537109 0.3853754997253418 0.6980392336845398 0.7137255072593689 0.7490196228027344
0.9568965435028076 0.740249514579773 0.9897233247756958 0.4156862795352936 0.4000000059604645 0.364705890417099
0.9822660088539124 0.745934009552002 0.2810276746749878 0.6784313917160034 0.686274528503418 0.6000000238418579
0.9817733764648438 0.7550923824310303 0.022134387865662575 0.1725490242242813 0.1568627506494522 0.14509804546833038
0.9672414064407349 0.6751934289932251 0.005533596966415644 0.41960784792900085 0.40392157435417175 0.35686275362968445
0.9763546586036682 0.6475604176521301 0.5415019989013672 0.686274528503418 0.7058823704719543 0.7215686440467834
0.9820197224617004 0.7678825259208679 0.8324110507965088 0.6549019813537598 0.6470588445663452 0.5882353186607361
0.9352216720581055 0.6456655859947205 0.005928853526711464 0.47843137383461 0.4745098054409027 0.40392157435417175
0.9847290515899658 0.7153007984161377 0.05533596873283386 0.6901960968971252 0.686274528503418 0.615686297416687
0.9596059322357178 0.7531975507736206 0.010276679880917072 0.5098039507865906 0.4901960790157318 0.4117647111415863
0.9766010046005249 0.6677719950675964 0.5276679992675781 0.6980392336845398 0.7176470756530762 0.729411780834198
0.9780788421630859 0.724301278591156 0.4169960618019104 0.7098039388656616 0.729411780834198 0.7450980544090271
0.9174876809120178 0.6935101747512817 0.005533596966415644 0.47058823704719543 0.46666666865348816 0.38823530077934265
0.93916255235672 0.7325122356414795 0.9893280863761902 0.4431372582912445 0.41960784792900085 0.37254902720451355
0.8775861859321594 0.7070898413658142 0.9889327883720398 0.4470588266849518 0.4313725531101227 0.3960784375667572
0.9778324961662292 0.6579819917678833 0.3948616683483124 0.7019608020782471 0.7215686440467834 0.7450980544090271
0.9822660088539124 0.6841939091682434 0.16363635659217834 0.7176470756530762 0.729411780834198 0.6549019813537598
0.9756157398223877 0.6330333352088928 0.008695651777088642 0.4588235318660736 0.42352941632270813 0.364705890417099
0.9763546586036682 0.6395073533058167 0.4845849871635437 0.6823529601097107 0.7019608020782471 0.7137255072593689
0.9817733764648438 0.7314069271087646 0.8035573363304138 0.7098039388656616 0.7254902124404907 0.7215686440467834
0.9820197224617004 0.7209852933883667 0.01976284570991993 0.2078431397676468 0.1764705926179886 0.13333334028720856
0.9822660088539124 0.6556134819984436 0.13715414702892303 0.7058823704719543 0.6980392336845398 0.6392157077789307
0.9704433679580688 0.665561318397522 0.005533596966415644 0.4156862795352936 0.42352941632270813 0.37254902720451355
0.9780788421630859 0.7650402784347534 0.4320158064365387 0.7411764860153198 0.7529411911964417 0.772549033164978
0.9785714149475098 0.7631454467773438 0.4102766811847687 0.3686274588108063 0.3803921639919281 0.4000000059604645
0.9788177609443665 0.7449865937232971 0.6142292618751526 0.686274528503418 0.6980392336845398 0.7176470756530762
0.9588670134544373 0.6510342359542847 0.9905138611793518 0.42352941632270813 0.3960784375667572 0.35686275362968445
0.8783251047134399 0.7730933427810669 0.0063241105526685715 0.4274509847164154 0.43921568989753723 0.364705890417099
0.9785714149475098 0.6357176899909973 0.7320157885551453 0.6117647290229797 0.6274510025978088 0.6392157077789307
0.9770935773849487 0.691141664981842 0.4857707619667053 0.7019608020782471 0.7215686440467834 0.7372549176216125
0.9780788421630859 0.6409284472465515 0.6996047496795654 0.6431372761726379 0.6549019813537598 0.6823529601097107
0.9847290515899658 0.7468814253807068 0.10079051554203033 0.250980406999588 0.250980406999588 0.20392157137393951
0.9783251285552979 0.7773566842079163 0.4837944805622101 0.7333333492279053 0.7529411911964417 0.7686274647712708
0.9773399233818054 0.6947734355926514 0.5426877737045288 0.6941176652908325 0.7137255072593689 0.729411780834198
0.9778324961662292 0.6884573101997375 0.42332014441490173 0.7058823704719543 0.7215686440467834 0.7568627595901489
0.9145320057868958 0.7273014187812805 0.005928853526711464 0.4313725531101227 0.4313725531101227 0.3294117748737335
0.9699507355690002 0.6857729554176331 0.3328063189983368 0.4627451002597809 0.47843137383461 0.48235294222831726
0.9849753975868225 0.7194063067436218 0.8758893013000488 0.5686274766921997 0.5647059082984924 0.48627451062202454
0.8940886855125427 0.7031422853469849 0.9893280863761902 0.45098039507865906 0.4431372582912445 0.3960784375667572
0.9834975600242615 0.7326701283454895 0.9739130139350891 0.4000000059604645 0.37254902720451355 0.30980393290519714
0.9822660088539124 0.638086199760437 0.14901185035705566 0.6745098233222961 0.6901960968971252 0.6000000238418579
0.9773399233818054 0.6917732357978821 0.34664031863212585 0.800000011920929 0.8117647171020508 0.8313725590705872
0.9667487740516663 0.7303016185760498 0.9901185631752014 0.3960784375667572 0.3803921639919281 0.3450980484485626
0.9613300561904907 0.6882993578910828 0.005533596966415644 0.4000000059604645 0.3921568691730499 0.34117648005485535
0.9337438344955444 0.729985773563385 0.9893280863761902 0.45098039507865906 0.42352941632270813 0.3843137323856354
0.9559113383293152 0.7809884548187256 0.10790514200925827 0.07058823853731155 0.0941176488995552 0.3843137323856354
0.9773399233818054 0.7145112752914429 0.500790536403656 0.7215686440467834 0.7411764860153198 0.7529411911964417
0.8800492882728577 0.730143666267395 0.005928853526711464 0.5686274766921997 0.5568627715110779 0.43529412150382996
0.984236478805542 0.746407687664032 0.04940711334347725 0.6784313917160034 0.6705882549285889 0.6235294342041016
0.9778324961662292 0.6718774437904358 0.35098814964294434 0.7764706015586853 0.7960784435272217 0.8117647171020508
0.9849753975868225 0.7566714286804199 0.8893280625343323 0.5568627715110779 0.5372549295425415 0.4588235318660736
0.8630542159080505 0.7718300819396973 0.9885375499725342 0.4431372582912445 0.4274509847164154 0.3803921639919281
0.9830049276351929 0.7593557834625244 0.14426878094673157 0.7254902124404907 0.7137255072593689 0.6470588445663452
0.9674876928329468 0.7146691679954529 0.007905138656497002 0.6352941393852234 0.615686297416687 0.5372549295425415
0.9756157398223877 0.6848255395889282 0.9861660003662109 0.27450981736183167 0.25882354378700256 0.21568627655506134
0.9822660088539124 0.6691930890083313 0.1557312309741974 0.7137255072593689 0.7137255072593689 0.6196078658103943
0.9830049276351929 0.7399336695671082 0.14505928754806519 0.7254902124404907 0.7215686440467834 0.6509804129600525
0.9785714149475098 0.7582504153251648 0.40830039978027344 0.125490203499794 0.125490203499794 0.13333334028720856
0.982758641242981 0.7277751564979553 0.14505928754806519 0.7215686440467834 0.7176470756530762 0.6470588445663452
0.8849753737449646 0.6590873003005981 0.005533596966415644 0.4745098054409027 0.47843137383461 0.35686275362968445
0.9798029661178589 0.7858834862709045 0.48656126856803894 0.7529411911964417 0.7647058963775635 0.7921568751335144
0.979556679725647 0.7663034796714783 0.687747061252594 0.6666666865348816 0.658823549747467 0.7019608020782471
0.9751231670379639 0.7678825259208679 0.017391303554177284 0.5215686559677124 0.4745098054409027 0.41960784792900085
0.9854679703712463 0.6500868201255798 0.925296425819397 0.501960813999176 0.47058823704719543 0.41960784792900085
0.8923645615577698 0.7789357304573059 0.9881423115730286 0.40392157435417175 0.38823530077934265 0.34117648005485535
0.9825122952461243 0.6589294075965881 0.025691699236631393 0.24313725531101227 0.21960784494876862 0.16470588743686676
0.984236478805542 0.7577767372131348 0.8541501760482788 0.6117647290229797 0.6000000238418579 0.5254902243614197
0.9783251285552979 0.7138797044754028 0.6106719374656677 0.6823529601097107 0.6941176652908325 0.7137255072593689
0.9780788421630859 0.7342491745948792 0.552173912525177 0.7176470756530762 0.7372549176216125 0.7529411911964417
0.9854679703712463 0.7869887948036194 0.9616600871086121 0.4470588266849518 0.41960784792900085 0.35686275362968445
0.9793103337287903 0.7691457271575928 0.6675889492034912 0.6745098233222961 0.6666666865348816 0.7176470756530762
0.9825122952461243 0.7631454467773438 0.23003952205181122 0.7529411911964417 0.7450980544090271 0.6980392336845398
0.9679803252220154 0.7625138163566589 0.343478262424469 0.41960784792900085 0.43921568989753723 0.45490196347236633
0.9475369453430176 0.7326701283454895 0.9897233247756958 0.43921568989753723 0.4117647111415863 0.38823530077934265
0.9825122952461243 0.6361913681030273 0.1770751029253006 0.686274528503418 0.7019608020782471 0.6039215922355652
0.9780788421630859 0.7694615721702576 0.4960474371910095 0.7254902124404907 0.7411764860153198 0.7764706015586853
0.9721674919128418 0.6843518018722534 0.9905138611793518 0.40784314274787903 0.3843137323856354 0.33725491166114807
0.8743842244148254 0.6924048662185669 0.005928853526711464 0.45098039507865906 0.43529412150382996 0.3294117748737335
0.9864531755447388 0.6710879802703857 0.9671936631202698 0.43529412150382996 0.40392157435417175 0.3529411852359772
0.982758641242981 0.7386704683303833 0.20632411539554596 0.7176470756530762 0.7215686440467834 0.6666666865348816
0.9172413945198059 0.6480340957641602 0.9905138611793518 0.43921568989753723 0.4117647111415863 0.37254902720451355
0.9830049276351929 0.6838781237602234 0.06916996091604233 0.6784313917160034 0.6745098233222961 0.5921568870544434
0.9785714149475098 0.7326701283454895 0.3905138373374939 0.7333333492279053 0.7490196228027344 0.7607843279838562
0.982758641242981 0.7044054865837097 0.8094861507415771 0.6196078658103943 0.6274510025978088 0.5843137502670288
0.9864531755447388 0.7167219519615173 0.9434782862663269 0.47843137383461 0.45490196347236633 0.4000000059604645
0.9834975600242615 0.7012474536895752 0.03794466331601143 0.2980392277240753 0.26274511218070984 0.20392157137393951
0.9790640473365784 0.6870361566543579 0.7442687749862671 0.615686297416687 0.6392157077789307 0.6392157077789307
0.9027093648910522 0.7511448264122009 0.9885375499725342 0.47058823704719543 0.4431372582912445 0.4117647111415863
0.9002463221549988 0.6818253397941589 0.005533596966415644 0.364705890417099 0.3607843220233917 0.27843138575553894
0.8980295658111572 0.7050371170043945 0.9893280863761902 0.45490196347236633 0.4470588266849518 0.38823530077934265
0.9113300442695618 0.6750355362892151 0.9897233247756958 0.43529412150382996 0.4117647111415863 0.3490196168422699
0.9822660088539124 0.6499289274215698 0.16996046900749207 0.7098039388656616 0.7137255072593689 0.6431372761726379
0.9822660088539124 0.6477183103561401 0.13399209082126617 0.7137255072593689 0.7098039388656616 0.6392157077789307
0.9825122952461243 0.7794094681739807 0.30000001192092896 0.5529412031173706 0.5372549295425415 0.4313725531101227
0.9798029661178589 0.7639349699020386 0.7276679873466492 0.6549019813537598 0.6509804129600525 0.6705882549285889
0.9837438464164734 0.7366177439689636 0.11778656393289566 0.7372549176216125 0.7333333492279053 0.6549019813537598
0.9773399233818054 0.7149850130081177 0.46679842472076416 0.7215686440467834 0.7411764860153198 0.7529411911964417
0.9802955389022827 0.7347228527069092 0.7865612506866455 0.6117647290229797 0.6352941393852234 0.6274510025978088
0.9684728980064392 0.6519817113876343 0.005928853526711464 0.40392157435417175 0.3960784375667572 0.3450980484485626
0.9785714149475098 0.6821411848068237 0.7067193388938904 0.6274510025978088 0.6431372761726379 0.6549019813537598
0.9665024876594543 0.7642507553100586 0.3391304314136505 0.2823529541492462 0.2823529541492462 0.29019609093666077
0.9817733764648438 0.6347702741622925 0.3031620681285858 0.5215686559677124 0.5176470875740051 0.4470588266849518
0.982758641242981 0.7164061069488525 0.17984189093112946 0.7176470756530762 0.729411780834198 0.6627451181411743
0.9800492525100708 0.7678825259208679 0.7553359866142273 0.6470588445663452 0.6509804129600525 0.6705882549285889
0.9790640473365784 0.7588820457458496 0.6533597111701965 0.6509804129600525 0.6627451181411743 0.6823529601097107
0.9837438464164734 0.7666193246841431 0.045059289783239365 0.501960813999176 0.5215686559677124 0.6078431606292725
0.9130541682243347 0.7220906615257263 0.005928853526711464 0.5803921818733215 0.5686274766921997 0.4470588266849518
0.9793103337287903 0.7274593114852905 0.7023715376853943 0.6117647290229797 0.6274510025978088 0.6313725709915161
0.9793103337287903 0.7230380773544312 0.7308300137519836 0.6039215922355652 0.6274510025978088 0.6196078658103943
0.9403941035270691 0.729669988155365 0.005928853526711464 0.5921568870544434 0.5607843399047852 0.5098039507865906
0.9822660088539124 0.6791409850120544 0.11897233128547668 0.7215686440467834 0.7176470756530762 0.6352941393852234
0.9822660088539124 0.6361913681030273 0.11501976102590561 0.7058823704719543 0.7019608020782471 0.6235294342041016
0.9852216839790344 0.6759829521179199 0.8782608509063721 0.5607843399047852 0.545098066329956 0.4470588266849518
0.9172413945198059 0.6480340957641602 0.9905138611793518 0.43921568989753723 0.4117647111415863 0.37254902720451355
0.9763546586036682 0.6527711749076843 0.5347825884819031 0.6941176652908325 0.7098039388656616 0.7450980544090271
0.9798029661178589 0.7868309020996094 0.5845849514007568 0.729411780834198 0.7333333492279053 0.7490196228027344
0.9822660088539124 0.7801989316940308 0.2343873530626297 0.7529411911964417 0.7450980544090271 0.6941176652908325
0.8948276042938232 0.6905100345611572 0.005533596966415644 0.38823530077934265 0.4000000059604645 0.3176470696926117
0.9458128213882446 0.6633507013320923 0.005533596966415644 0.5098039507865906 0.4470588266849518 0.3960784375667572
0.9852216839790344 0.7585662603378296 0.09130434691905975 0.6627451181411743 0.658823549747467 0.6431372761726379
0.9793103337287903 0.7219327092170715 0.7059288620948792 0.6078431606292725 0.6313725709915161 0.6235294342041016
0.8662561774253845 0.7503553032875061 0.9889327883720398 0.47843137383461 0.4627451002597809 0.4274509847164154
0.8763546943664551 0.7817779779434204 0.9881423115730286 0.41960784792900085 0.40784314274787903 0.3490196168422699
0.9820197224617004 0.643612802028656 0.036363635212183 0.250980406999588 0.22745098173618317 0.18039216101169586
0.8884236216545105 0.6900362968444824 0.005533596966415644 0.4627451002597809 0.47058823704719543 0.3764705955982208
0.9773399233818054 0.6342965364456177 0.6442687511444092 0.6470588445663452 0.6705882549285889 0.6705882549285889
0.9785714149475098 0.7831991314888 0.33636364340782166 0.21176470816135406 0.21176470816135406 0.20392157137393951
0.9512315392494202 0.7486183643341064 0.9897233247756958 0.42352941632270813 0.40784314274787903 0.3607843220233917
0.9864531755447388 0.7375651597976685 0.9624505639076233 0.4470588266849518 0.4156862795352936 0.37254902720451355
0.8793103694915771 0.7824096083641052 0.0063241105526685715 0.501960813999176 0.49803921580314636 0.41960784792900085
0.9687191843986511 0.6799305081367493 0.33162054419517517 0.6470588445663452 0.6470588445663452 0.6392157077789307
0.9857142567634583 0.7492499351501465 0.9411067366600037 0.48235294222831726 0.45098039507865906 0.40784314274787903
0.9778324961662292 0.7539870738983154 0.5015810132026672 0.729411780834198 0.7411764860153198 0.7607843279838562
0.9783251285552979 0.6702984571456909 0.7019762992858887 0.6509804129600525 0.6666666865348816 0.6705882549285889
0.9849753975868225 0.7729353904724121 0.9205533862113953 0.501960813999176 0.46666666865348816 0.4313725531101227
0.9775862097740173 0.6388757228851318 0.39802372455596924 0.6901960968971252 0.7098039388656616 0.7254902124404907
0.8849753737449646 0.7784620523452759 0.9881423115730286 0.4431372582912445 0.41960784792900085 0.37254902720451355
0.8992610573768616 0.7265118956565857 0.9889327883720398 0.45490196347236633 0.4274509847164154 0.38823530077934265
0.9763546586036682 0.729354202747345 0.3482213318347931 0.7607843279838562 0.7882353067398071 0.8117647171020508
0.9770935773849487 0.7050371170043945 0.49802371859550476 0.7058823704719543 0.7372549176216125 0.7450980544090271
0.9780788421630859 0.7612506151199341 0.5106719136238098 0.7215686440467834 0.7333333492279053 0.7607843279838562
0.9778324961662292 0.654192328453064 0.39407113194465637 0.6941176652908325 0.7098039388656616 0.7529411911964417
0.9032019972801208 0.7473551034927368 0.005928853526711464 0.4627451002597809 0.4431372582912445 0.3686274588108063
0.9108374118804932 0.7505131959915161 0.9889327883720398 0.4274509847164154 0.4000000059604645 0.3686274588108063
0.9844827651977539 0.7708826661109924 0.8723320364952087 0.5960784554481506 0.5764706134796143 0.501960813999176
0.9844827651977539 0.7074056267738342 0.8505929112434387 0.5843137502670288 0.572549045085907 0.49803921580314636
0.9857142567634583 0.7588820457458496 0.9446640610694885 0.47058823704719543 0.43921568989753723 0.3960784375667572
0.9822660088539124 0.7366177439689636 0.26363635063171387 0.7254902124404907 0.7333333492279053 0.6823529601097107
0.9773399233818054 0.7329859733581543 0.3596837818622589 0.7372549176216125 0.7686274647712708 0.7803921699523926
0.8842364549636841 0.6557713747024536 0.9897233247756958 0.45490196347236633 0.4470588266849518 0.4000000059604645
0.9775862097740173 0.6660350561141968 0.4158102869987488 0.6941176652908325 0.7215686440467834 0.7607843279838562
0.9778324961662292 0.7340912818908691 0.5446640253067017 0.7215686440467834 0.7411764860153198 0.7529411911964417
0.9677339792251587 0.75730299949646 0.32529643177986145 0.4431372582912445 0.45098039507865906 0.4000000059604645
0.9822660088539124 0.6715616583824158 0.15415020287036896 0.7137255072593689 0.7098039388656616 0.6274510025978088
0.9820197224617004 0.6737722754478455 0.21225295960903168 0.7490196228027344 0.7568627595901489 0.6745098233222961
0.9820197224617004 0.6780356764793396 0.28458496928215027 0.6274510025978088 0.6274510025978088 0.5333333611488342
0.945320188999176 0.7216169238090515 0.9897233247756958 0.4431372582912445 0.4274509847164154 0.3843137323856354
0.9820197224617004 0.6881414651870728 0.29446640610694885 0.529411792755127 0.5254902243614197 0.4431372582912445
0.9783251285552979 0.7541449666023254 0.4114624559879303 0.7529411911964417 0.7568627595901489 0.7764706015586853
0.9275861978530884 0.724459171295166 0.9893280863761902 0.38823530077934265 0.3803921639919281 0.3333333432674408
0.9822660088539124 0.7546186447143555 0.2509881556034088 0.7254902124404907 0.729411780834198 0.6745098233222961
0.9709359407424927 0.7623559236526489 0.3486166000366211 0.4000000059604645 0.40392157435417175 0.4117647111415863
0.9852216839790344 0.7607768774032593 0.08932806551456451 0.6352941393852234 0.6352941393852234 0.6352941393852234
0.9820197224617004 0.7148271203041077 0.29881423711776733 0.5333333611488342 0.5490196347236633 0.4588235318660736
0.9731526970863342 0.7050371170043945 0.31581026315689087 0.4901960790157318 0.4941176474094391 0.4627451002597809
0.9332512021064758 0.6387178301811218 0.005928853526711464 0.501960813999176 0.4901960790157318 0.42352941632270813
0.9793103337287903 0.7854097485542297 0.49762845039367676 0.7568627595901489 0.7607843279838562 0.7764706015586853
0.9822660088539124 0.7850939631462097 0.29446640610694885 0.615686297416687 0.5921568870544434 0.4901960790157318
0.979556679725647 0.7555660605430603 0.7229248881340027 0.6352941393852234 0.6392157077789307 0.6470588445663452
0.9790640473365784 0.6991946697235107 0.7047430872917175 0.615686297416687 0.6392157077789307 0.6392157077789307
0.9766010046005249 0.6425074934959412 0.5596837997436523 0.6784313917160034 0.6980392336845398 0.7215686440467834
0.9793103337287903 0.7762513756752014 0.6671936511993408 0.686274528503418 0.6823529601097107 0.7137255072593689
0.979556679725647 0.7340912818908691 0.7367588877677917 0.6000000238418579 0.6235294342041016 0.6235294342041016
0.9788177609443665 0.7492499351501465 0.6102766990661621 0.6666666865348816 0.6784313917160034 0.6980392336845398
0.9507389068603516 0.724617063999176 0.005928853526711464 0.47843137383461 0.45098039507865906 0.3764705955982208
0.9820197224617004 0.7620400786399841 0.02490118518471718 0.16862745583057404 0.14901961386203766 0.16470588743686676
0.9770935773849487 0.6737722754478455 0.581818163394928 0.686274528503418 0.7098039388656616 0.7019608020782471
0.8889162540435791 0.6728248596191406 0.005533596966415644 0.45098039507865906 0.4470588266849518 0.3764705955982208
0.9802955389022827 0.7126164436340332 0.7837944626808167 0.6039215922355652 0.6274510025978088 0.6274510025978088
0.9798029661178589 0.7645665407180786 0.7418972253799438 0.6470588445663452 0.6470588445663452 0.6784313917160034
0.9822660088539124 0.7858834862709045 0.20000000298023224 0.7490196228027344 0.7529411911964417 0.6901960968971252
0.8837438225746155 0.7871466875076294 0.9881423115730286 0.43921568989753723 0.4117647111415863 0.38823530077934265
0.9825122952461243 0.7707247734069824 0.22252964973449707 0.7529411911964417 0.7450980544090271 0.6980392336845398
0.9788177609443665 0.7595136761665344 0.6146245002746582 0.6745098233222961 0.6901960968971252 0.6941176652908325
0.882758617401123 0.740565299987793 0.9885375499725342 0.4431372582912445 0.4274509847164154 0.3843137323856354
0.8714285492897034 0.7868309020996094 0.9881423115730286 0.4313725531101227 0.40392157435417175 0.37254902720451355
0.9733990430831909 0.729669988155365 0.32529643177986145 0.43921568989753723 0.4313725531101227 0.3843137323856354
0.984236478805542 0.7310910820960999 0.8478260636329651 0.5921568870544434 0.5843137502670288 0.5254902243614197
0.956403911113739 0.648665726184845 0.005928853526711464 0.43921568989753723 0.4156862795352936 0.3529411852359772
0.9807881712913513 0.7858834862709045 0.417391300201416 0.7333333492279053 0.7450980544090271 0.8039215803146362
0.982758641242981 0.7344070672988892 0.14822134375572205 0.7137255072593689 0.7215686440467834 0.6392157077789307
0.9729064106941223 0.7044054865837097 0.00830039568245411 0.501960813999176 0.48235294222831726 0.40784314274787903
0.9773399233818054 0.6846675872802734 0.4379446506500244 0.7019608020782471 0.7215686440467834 0.7333333492279053
0.8682265877723694 0.6628770232200623 0.9897233247756958 0.47843137383461 0.47058823704719543 0.41960784792900085
0.9830049276351929 0.7639349699020386 0.8260869383811951 0.6509804129600525 0.6313725709915161 0.5568627715110779
0.866995096206665 0.6396652460098267 0.005928853526711464 0.572549045085907 0.5647059082984924 0.48235294222831726
0.9800492525100708 0.7824096083641052 0.40869563817977905 0.7254902124404907 0.7333333492279053 0.7803921699523926
0.9780788421630859 0.6666666865348816 0.39288538694381714 0.6980392336845398 0.7137255072593689 0.7568627595901489
0.9613300561904907 0.7546186447143555 0.9897233247756958 0.40784314274787903 0.3921568691730499 0.3490196168422699
0.9706896543502808 0.632243812084198 0.9905138611793518 0.3529411852359772 0.33725491166114807 0.29019609093666077
0.9790640473365784 0.6499289274215698 0.7727272510528564 0.5921568870544434 0.6039215922355652 0.6313725709915161
0.9780788421630859 0.7097741961479187 0.4201580882072449 0.6941176652908325 0.7176470756530762 0.7176470756530762
0.984236478805542 0.718458890914917 0.10079051554203033 0.7372549176216125 0.7333333492279053 0.6509804129600525
0.9793103337287903 0.7157745361328125 0.7201581001281738 0.6117647290229797 0.6352941393852234 0.6352941393852234
0.9783251285552979 0.7696194648742676 0.5490118861198425 0.7176470756530762 0.729411780834198 0.7490196228027344
0.9773399233818054 0.6715616583824158 0.6126482486724854 0.6823529601097107 0.6980392336845398 0.7333333492279053
0.9832512140274048 0.7314069271087646 0.9743083119392395 0.4000000059604645 0.37254902720451355 0.30980393290519714
0.9805418848991394 0.7847781181335449 0.6893280744552612 0.6784313917160034 0.6941176652908325 0.6980392336845398
0.9778324961662292 0.6672982573509216 0.4007905125617981 0.6980392336845398 0.7137255072593689 0.7607843279838562
0.934236466884613 0.7620400786399841 0.005928853526711464 0.4470588266849518 0.4431372582912445 0.364705890417099
0.9724137783050537 0.7364597916603088 0.31897231936454773 0.4588235318660736 0.4627451002597809 0.40784314274787903
0.9859606027603149 0.7432496547698975 0.9438735246658325 0.48627451062202454 0.45490196347236633 0.4117647111415863
0.9783251285552979 0.7116690278053284 0.6189723610877991 0.6823529601097107 0.6980392336845398 0.7098039388656616
0.9800492525100708 0.6646139025688171 0.01620553433895111 0.23137255012989044 0.1921568661928177 0.1568627506494522
0.9798029661178589 0.7483025193214417 0.7667984366416931 0.6274510025978088 0.6431372761726379 0.6470588445663452
0.9773399233818054 0.7100899815559387 0.4636363685131073 0.7098039388656616 0.729411780834198 0.7411764860153198
0.9746305346488953 0.7713564038276672 0.9877470135688782 0.2862745225429535 0.2705882489681244 0.22745098173618317
0.9788177609443665 0.6961945295333862 0.7039525508880615 0.6196078658103943 0.6431372761726379 0.6431372761726379
0.9694581031799316 0.7494078874588013 0.321739137172699 0.4000000059604645 0.3843137323856354 0.33725491166114807
0.9788177609443665 0.7492499351501465 0.60513836145401 0.6901960968971252 0.7019608020782471 0.7215686440467834
0.9615763425827026 0.7644086480140686 0.9897233247756958 0.4156862795352936 0.3921568691730499 0.3450980484485626
0.9389162659645081 0.6384020447731018 0.9905138611793518 0.47058823704719543 0.4627451002597809 0.4156862795352936
0.9231526851654053 0.6879835724830627 0.005533596966415644 0.545098066329956 0.5254902243614197 0.43921568989753723
0.8721674680709839 0.6412442922592163 0.005928853526711464 0.48235294222831726 0.47843137383461 0.3686274588108063
0.9467980265617371 0.6714037656784058 0.005533596966415644 0.501960813999176 0.4588235318660736 0.3803921639919281
0.9775862097740173 0.6437707543373108 0.396047443151474 0.6941176652908325 0.7137255072593689 0.729411780834198
0.9662561416625977 0.7213011384010315 0.9901185631752014 0.3803921639919281 0.3450980484485626 0.30980393290519714
0.9849753975868225 0.6881414651870728 0.8588932752609253 0.5843137502670288 0.5607843399047852 0.5058823823928833
0.9817733764648438 0.7681983113288879 0.8102766871452332 0.6509804129600525 0.6352941393852234 0.5921568870544434
0.9738916158676147 0.6470866799354553 0.34071147441864014 0.7019608020782471 0.729411780834198 0.7019608020782471
0.8657635450363159 0.691141664981842 0.005928853526711464 0.3803921639919281 0.3960784375667572 0.2980392277240753
0.9852216839790344 0.6478762030601501 0.9083003997802734 0.5176470875740051 0.49803921580314636 0.42352941632270813
0.9825122952461243 0.7590399384498596 0.24229249358177185 0.7333333492279053 0.7411764860153198 0.686274528503418
0.9778324961662292 0.718774676322937 0.4359683692455292 0.7098039388656616 0.7254902124404907 0.7372549176216125
0.9785714149475098 0.719248354434967 0.6438735127449036 0.6745098233222961 0.6941176652908325 0.7058823704719543
0.9854679703712463 0.7511448264122009 0.08458498120307922 0.6823529601097107 0.6823529601097107 0.6431372761726379
0.943842351436615 0.6972998380661011 0.005533596966415644 0.4470588266849518 0.43921568989753723 0.3803921639919281
0.8721674680709839 0.729354202747345 0.005928853526711464 0.3686274588108063 0.3843137323856354 0.29411765933036804
0.9866995215415955 0.6914574503898621 0.960869550704956 0.45098039507865906 0.41960784792900085 0.3764705955982208
0.934482753276825 0.6440865397453308 0.9905138611793518 0.42352941632270813 0.4156862795352936 0.3686274588108063
0.9864531755447388 0.7285646796226501 0.9652174115180969 0.4470588266849518 0.4156862795352936 0.37254902720451355
0.9820197224617004 0.6360334753990173 0.19644269347190857 0.6784313917160034 0.686274528503418 0.6039215922355652
0.9798029661178589 0.7333017587661743 0.7664031386375427 0.6078431606292725 0.6313725709915161 0.6235294342041016
0.9847290515899658 0.7618821859359741 0.05573122575879097 0.49803921580314636 0.5254902243614197 0.6000000238418579
0.9788177609443665 0.6734564900398254 0.7517786622047424 0.6117647290229797 0.6274510025978088 0.6235294342041016
0.8940886855125427 0.7705668807029724 0.9881423115730286 0.3843137323856354 0.3686274588108063 0.32549020648002625
0.9783251285552979 0.6646139025688171 0.3683794438838959 0.7058823704719543 0.7254902124404907 0.7411764860153198
0.982758641242981 0.7560397982597351 0.20632411539554596 0.7411764860153198 0.7450980544090271 0.6901960968971252
0.9800492525100708 0.7561976909637451 0.7774703502655029 0.615686297416687 0.6274510025978088 0.6470588445663452
0.979556679725647 0.7211432456970215 0.7454545497894287 0.6078431606292725 0.6313725709915161 0.6235294342041016
0.9775862097740173 0.6472445726394653 0.6418972611427307 0.6705882549285889 0.6823529601097107 0.7176470756530762
0.9477832317352295 0.7732512354850769 0.008695651777088642 0.5333333611488342 0.5098039507865906 0.4627451002597809
0.9834975600242615 0.7050371170043945 0.12411066889762878 0.7215686440467834 0.7176470756530762 0.6352941393852234
0.984236478805542 0.6587715148925781 0.8280632495880127 0.5803921818733215 0.5882353186607361 0.5372549295425415
0.9738916158676147 0.7873045802116394 0.9885375499725342 0.2980392277240753 0.2823529541492462 0.23529411852359772
0.9716748595237732 0.6504026651382446 0.005928853526711464 0.615686297416687 0.6078431606292725 0.5490196347236633
0.979556679725647 0.7165640592575073 0.7750988006591797 0.6078431606292725 0.6313725709915161 0.6313725709915161
0.9733990430831909 0.7681983113288879 0.0936758890748024 0.42352941632270813 0.45490196347236633 0.6078431606292725
0.9401477575302124 0.7249329090118408 0.9897233247756958 0.4156862795352936 0.4000000059604645 0.35686275362968445
0.8972906470298767 0.6879835724830627 0.9893280863761902 0.4156862795352936 0.3803921639919281 0.3450980484485626
0.8879310488700867 0.6387178301811218 0.9901185631752014 0.41960784792900085 0.40784314274787903 0.38823530077934265
0.9822660088539124 0.6510342359542847 0.17509882152080536 0.7058823704719543 0.7176470756530762 0.6431372761726379
0.9847290515899658 0.7852518558502197 0.13992094993591309 0.7450980544090271 0.7529411911964417 0.6980392336845398
0.9770935773849487 0.7031422853469849 0.5189723372459412 0.7137255072593689 0.7254902124404907 0.7450980544090271
0.9753694534301758 0.7718300819396973 0.3442687690258026 0.4313725531101227 0.4470588266849518 0.4588235318660736
0.9825122952461243 0.7483025193214417 0.22648221254348755 0.7215686440467834 0.7254902124404907 0.6705882549285889
0.9780788421630859 0.6848255395889282 0.4000000059604645 0.7019608020782471 0.7176470756530762 0.7529411911964417
0.9775862097740173 0.723985493183136 0.5284584760665894 0.7215686440467834 0.7411764860153198 0.7529411911964417
0.9780788421630859 0.6829307079315186 0.3913043439388275 0.7019608020782471 0.7215686440467834 0.7450980544090271
0.9785714149475098 0.6715616583824158 0.36205533146858215 0.7215686440467834 0.7411764860153198 0.7529411911964417
0.9857142567634583 0.6453497409820557 0.9300395250320435 0.4901960790157318 0.4627451002597809 0.4000000059604645
0.9869458079338074 0.7039318084716797 0.960869550704956 0.4431372582912445 0.41960784792900085 0.37254902720451355
0.9137930870056152 0.6455076336860657 0.005928853526711464 0.48235294222831726 0.4588235318660736 0.364705890417099
0.9773399233818054 0.6414021849632263 0.6324110627174377 0.6627451181411743 0.6784313917160034 0.6901960968971252
0.9492610692977905 0.7367756366729736 0.005928853526711464 0.4117647111415863 0.4000000059604645 0.34117648005485535
0.9780788421630859 0.7525659203529358 0.4490118622779846 0.7333333492279053 0.7450980544090271 0.7647058963775635
0.9785714149475098 0.7037738561630249 0.39367589354515076 0.6823529601097107 0.7137255072593689 0.7215686440467834
0.9849753975868225 0.6396652460098267 0.8798419237136841 0.5411764979362488 0.5254902243614197 0.4117647111415863
0.9630541801452637 0.643139123916626 0.9905138611793518 0.40784314274787903 0.3803921639919281 0.34117648005485535
0.9497537016868591 0.7451444864273071 0.9897233247756958 0.43529412150382996 0.40784314274787903 0.3686274588108063
0.8822659850120544 0.7449865937232971 0.9885375499725342 0.47058823704719543 0.45490196347236633 0.4117647111415863
0.9778324961662292 0.734880805015564 0.5379446744918823 0.7215686440467834 0.7450980544090271 0.7450980544090271
0.9689655303955078 0.6614558696746826 0.32134386897087097 0.42352941632270813 0.3843137323856354 0.3803921639919281
0.9704433679580688 0.7097741961479187 0.31976285576820374 0.4745098054409027 0.4745098054409027 0.4431372582912445
0.9768472909927368 0.6810358166694641 0.46086955070495605 0.7019608020782471 0.7215686440467834 0.7372549176216125
0.949999988079071 0.7773566842079163 0.02924901247024536 0.1764705926179886 0.1882352977991104 0.5921568870544434
0.9825122952461243 0.746407687664032 0.2134387344121933 0.7215686440467834 0.729411780834198 0.6784313917160034
0.9825122952461243 0.6619295477867126 0.04308300465345383 0.7176470756530762 0.6901960968971252 0.615686297416687
0.874876856803894 0.7160903215408325 0.9889327883720398 0.4470588266849518 0.43921568989753723 0.38823530077934265
0.9820197224617004 0.6780356764793396 0.28458496928215027 0.6274510025978088 0.6274510025978088 0.5333333611488342
0.9864531755447388 0.7037738561630249 0.9371541738510132 0.47843137383461 0.46666666865348816 0.40784314274787903
0.9820197224617004 0.6554555296897888 0.23201580345630646 0.7098039388656616 0.7137255072593689 0.6431372761726379
0.9694581031799316 0.7633033394813538 0.34505927562713623 0.3803921639919281 0.3960784375667572 0.40784314274787903
0.8788177371025085 0.6622453927993774 0.9897233247756958 0.4431372582912445 0.43529412150382996 0.38823530077934265
0.9837438464164734 0.6988788843154907 0.09288537502288818 0.729411780834198 0.7215686440467834 0.6627451181411743
0.9859606027603149 0.708195149898529 0.9201580882072449 0.5215686559677124 0.4941176474094391 0.41960784792900085
0.9825122952461243 0.75714510679245 0.2142292559146881 0.7333333492279053 0.7411764860153198 0.686274528503418
0.982758641242981 0.7124585509300232 0.1513833999633789 0.7215686440467834 0.7254902124404907 0.6549019813537598
0.9780788421630859 0.7558819055557251 0.4636363685131073 0.7254902124404907 0.7450980544090271 0.7607843279838562
0.9839901328086853 0.7486183643341064 0.11304347962141037 0.20392157137393951 0.1764705926179886 0.15294118225574493
0.9798029661178589 0.7685141563415527 0.7189723253250122 0.6549019813537598 0.6549019813537598 0.686274528503418
0.9620689749717712 0.6944575905799866 0.005533596966415644 0.4000000059604645 0.40784314274787903 0.32156863808631897
0.9798029661178589 0.7167219519615173 0.7770751118659973 0.6039215922355652 0.6274510025978088 0.6274510025978088
0.9857142567634583 0.6753513216972351 0.9102766513824463 0.5490196347236633 0.5058823823928833 0.4274509847164154
