0.564039409160614 0.012632244266569614 0.007905138656497002 0.6078431606292725 0.6078431606292725 0.5686274766921997
0.5795566439628601 0.0006316122016869485 0.3786561191082001 0.6823529601097107 0.545098066329956 0.32549020648002625
0.6211822628974915 0.0006316122016869485 0.31343874335289 0.6470588445663452 0.5098039507865906 0.250980406999588
0.4965517222881317 0.00031580610084347427 0.5561264753341675 0.7333333492279053 0.5803921818733215 0.4117647111415863
0.6637930870056152 0.0 0.7296442985534668 0.6117647290229797 0.49803921580314636 0.3803921639919281
0.5630542039871216 0.00031580610084347427 0.6102766990661621 0.6980392336845398 0.6039215922355652 0.4627451002597809
0.5896551609039307 0.0 0.8375493884086609 0.4627451002597809 0.3686274588108063 0.21960784494876862
0.681280791759491 0.12600663304328918 0.9909090995788574 0.3490196168422699 0.33725491166114807 0.3176470696926117
0.5044335126876831 0.1440075784921646 0.0063241105526685715 0.6705882549285889 0.6784313917160034 0.5960784554481506
0.7046797871589661 0.03963366523385048 0.0063241105526685715 0.4117647111415863 0.3803921639919281 0.33725491166114807
0.5443349480628967 0.03821253776550293 0.9897233247756958 0.364705890417099 0.34117648005485535 0.27843138575553894
0.546798050403595 0.00031580610084347427 0.6138339638710022 0.7137255072593689 0.615686297416687 0.4941176474094391
0.6032019853591919 0.012790147215127945 0.9893280863761902 0.32549020648002625 0.3019607961177826 0.24705882370471954
0.6591132879257202 0.11716406047344208 0.9905138611793518 0.33725491166114807 0.32549020648002625 0.30588236451148987
0.6475369334220886 0.13342808187007904 0.9909090995788574 0.32549020648002625 0.3137255012989044 0.29411765933036804
0.7162561416625977 0.019737880676984787 0.9889327883720398 0.30588236451148987 0.2705882489681244 0.23529411852359772
0.732758641242981 0.1264803409576416 0.1766798347234726 0.3960784375667572 0.45098039507865906 0.45098039507865906
0.5458127856254578 0.0004737091367132962 0.05098814144730568 0.6352941393852234 0.5098039507865906 0.2862745225429535
0.5849753618240356 0.00031580610084347427 0.6090909242630005 0.729411780834198 0.6352941393852234 0.4941176474094391
0.635960578918457 0.12805937230587006 0.005533596966415644 0.6196078658103943 0.6274510025978088 0.5764706134796143
0.7167487740516663 0.1204800233244896 0.005533596966415644 0.5411764979362488 0.5411764979362488 0.501960813999176
0.507881760597229 0.0006316122016869485 0.25217390060424805 0.7333333492279053 0.572549045085907 0.32156863808631897
0.7357142567634583 0.003631770145148039 0.13241106271743774 0.38823530077934265 0.29019609093666077 0.16862745583057404
0.7098522186279297 0.08132006973028183 0.17786560952663422 0.27843138575553894 0.3019607961177826 0.2862745225429535
0.6275861859321594 0.08858361095190048 0.9897233247756958 0.364705890417099 0.3490196168422699 0.30588236451148987
0.5283251404762268 0.00015790305042173713 0.6173912882804871 0.6823529601097107 0.5882353186607361 0.47843137383461
0.5113300681114197 0.0007895152666606009 0.12608695030212402 0.6901960968971252 0.5333333611488342 0.29019609093666077
0.5849753618240356 0.0004737091367132962 0.3798418939113617 0.6823529601097107 0.545098066329956 0.3333333432674408
0.5465517044067383 0.0004737091367132962 0.4679841995239258 0.729411780834198 0.5803921818733215 0.3960784375667572
0.6317734122276306 0.062213800847530365 0.005138339940458536 0.5411764979362488 0.5411764979362488 0.4941176474094391
0.5551724433898926 0.06916153430938721 0.9893280863761902 0.3803921639919281 0.35686275362968445 0.3019607961177826
0.6665024757385254 0.00031580610084347427 0.22252964973449707 0.6352941393852234 0.47058823704719543 0.18039216101169586
0.617241382598877 0.0006316122016869485 0.3063241243362427 0.6352941393852234 0.48627451062202454 0.239215686917305
0.6305418610572815 0.00031580610084347427 0.54347825050354 0.6666666865348816 0.5372549295425415 0.3607843220233917
0.6960591077804565 0.0 0.864426851272583 0.40784314274787903 0.32549020648002625 0.20392157137393951
0.685960590839386 0.00031580610084347427 0.4640316069126129 0.6745098233222961 0.5372549295425415 0.37254902720451355
0.6817734241485596 0.07263540476560593 0.005533596966415644 0.4588235318660736 0.4627451002597809 0.40784314274787903
0.7337438464164734 0.03221222013235092 0.9889327883720398 0.29411765933036804 0.2705882489681244 0.2235294133424759
0.7093595862388611 0.00473709125071764 0.007905138656497002 0.47843137383461 0.4588235318660736 0.3843137323856354
0.7369458079338074 0.12490130960941315 0.005533596966415644 0.6039215922355652 0.6078431606292725 0.5529412031173706
0.6142857074737549 0.00031580610084347427 0.5482213497161865 0.6470588445663452 0.5176470875740051 0.34117648005485535
0.5197044610977173 0.07531975209712982 0.005138339940458536 0.6549019813537598 0.6705882549285889 0.6117647290229797
0.6357142925262451 0.03394915536046028 0.9893280863761902 0.3921568691730499 0.3686274588108063 0.3137255012989044
0.618719220161438 0.08889941871166229 0.005928853526711464 0.5372549295425415 0.5411764979362488 0.47843137383461
0.5160098671913147 0.06726669520139694 0.9897233247756958 0.38823530077934265 0.364705890417099 0.30980393290519714
0.6561576128005981 0.0 0.8656126260757446 0.45098039507865906 0.3490196168422699 0.21960784494876862
0.6596059203147888 0.0 0.9276679754257202 0.2980392277240753 0.22745098173618317 0.14901961386203766
0.6992610692977905 0.00031580610084347427 0.46086955070495605 0.6901960968971252 0.5607843399047852 0.3921568691730499
0.6453201770782471 0.0004737091367132962 0.40790513157844543 0.6941176652908325 0.5411764979362488 0.32549020648002625
0.5364531874656677 0.0 0.8656126260757446 0.3960784375667572 0.3137255012989044 0.1921568661928177
0.6179803013801575 0.00031580610084347427 0.124901182949543 0.6901960968971252 0.5333333611488342 0.29019609093666077
0.7302955389022827 0.0018948365468531847 0.3221343755722046 0.5647059082984924 0.4431372582912445 0.25882354378700256
0.5288177132606506 0.0 0.7988142371177673 0.4627451002597809 0.3490196168422699 0.2235294133424759
0.6896551847457886 0.06837201863527298 0.1667984127998352 0.16078431904315948 0.16470588743686676 0.14509804546833038
0.543596088886261 0.0 0.9501976370811462 0.2705882489681244 0.2078431397676468 0.1568627506494522
0.5507389307022095 0.09932101517915726 0.9897233247756958 0.37254902720451355 0.35686275362968445 0.30980393290519714
0.5497536659240723 0.13437549769878387 0.0063241105526685715 0.6549019813537598 0.6627451181411743 0.6117647290229797
0.5305418968200684 0.08700457960367203 0.9893280863761902 0.38823530077934265 0.3607843220233917 0.2980392277240753
0.5480295419692993 0.07153008133172989 0.004743082914501429 0.6392157077789307 0.6392157077789307 0.5921568870544434
0.7187191843986511 0.0 0.9450592994689941 0.24313725531101227 0.1725490242242813 0.125490203499794
0.7009851932525635 0.1496920883655548 0.992094874382019 0.9686274528503418 0.9843137264251709 0.9960784316062927
0.6561576128005981 0.07026685774326324 0.005138339940458536 0.5529412031173706 0.5647059082984924 0.5215686559677124
0.6362069249153137 0.00015790305042173713 0.6778656244277954 0.529411792755127 0.4313725531101227 0.3137255012989044
0.6083743572235107 0.0977419838309288 0.005928853526711464 0.5647059082984924 0.572549045085907 0.529411792755127
0.5928571224212646 0.00031580610084347427 0.07470355927944183 0.6470588445663452 0.5215686559677124 0.2980392277240753
0.6295566558837891 0.00031580610084347427 0.5505928993225098 0.6392157077789307 0.5098039507865906 0.34117648005485535
0.548275887966156 0.00031580610084347427 0.5363636612892151 0.7215686440467834 0.5764706134796143 0.4000000059604645
0.6918719410896301 0.024790778756141663 0.006719367578625679 0.545098066329956 0.5215686559677124 0.46666666865348816
0.4992610812187195 0.00015790305042173713 0.7620553374290466 0.48235294222831726 0.3960784375667572 0.250980406999588
0.5635467767715454 0.03237012401223183 0.006719367578625679 0.5607843399047852 0.545098066329956 0.49803921580314636
0.6413792967796326 0.01957997865974903 0.9893280863761902 0.2705882489681244 0.24313725531101227 0.21960784494876862
0.5775862336158752 0.07895152270793915 0.9893280863761902 0.38823530077934265 0.364705890417099 0.3176470696926117
0.6623152494430542 0.00015790305042173713 0.6754940748214722 0.5333333611488342 0.43529412150382996 0.27843138575553894
0.6761083602905273 0.0 0.8573122620582581 0.45098039507865906 0.3490196168422699 0.21960784494876862
0.567241370677948 0.009947892278432846 0.00830039568245411 0.5921568870544434 0.5764706134796143 0.5411764979362488
0.7162561416625977 0.06868782639503479 0.17549407482147217 0.3176470696926117 0.3450980484485626 0.3176470696926117
0.5076354742050171 0.00015790305042173713 0.7288537621498108 0.5215686559677124 0.42352941632270813 0.3019607961177826
0.5605911612510681 0.0 0.8790513873100281 0.3960784375667572 0.30980393290519714 0.16470588743686676
0.6534482836723328 0.046739302575588226 0.9893280863761902 0.3529411852359772 0.3294117748737335 0.2823529541492462
0.7330049276351929 0.002526448806747794 0.5173913240432739 0.47058823704719543 0.3490196168422699 0.16862745583057404
0.5802955627441406 0.0 0.9316205382347107 0.3529411852359772 0.2666666805744171 0.1764705926179886
0.5465517044067383 0.026843518018722534 0.006719367578625679 0.6352941393852234 0.6274510025978088 0.5764706134796143
0.6029556393623352 0.08684667944908142 0.9897233247756958 0.3490196168422699 0.33725491166114807 0.27843138575553894
0.5169950723648071 0.00015790305042173713 0.7296442985534668 0.5411764979362488 0.42352941632270813 0.27450981736183167
0.5741379261016846 0.00031580610084347427 0.048221342265605927 0.5843137502670288 0.45490196347236633 0.24705882370471954
0.7209359407424927 0.00031580610084347427 0.43557313084602356 0.6509804129600525 0.47843137383461 0.3019607961177826
0.6783251166343689 0.0009474182734265924 0.0181818176060915 0.4745098054409027 0.4627451002597809 0.40392157435417175
0.6071428656578064 0.0004737091367132962 0.4324110746383667 0.7137255072593689 0.5686274766921997 0.364705890417099
0.4997536838054657 0.07705668359994888 0.9897233247756958 0.3960784375667572 0.3686274588108063 0.30588236451148987
0.6603448390960693 0.05195010080933571 0.005138339940458536 0.6039215922355652 0.6039215922355652 0.5568627715110779
0.49802955985069275 0.01752723753452301 0.9901185631752014 0.3921568691730499 0.3686274588108063 0.32156863808631897
0.7238916158676147 0.07231959700584412 0.0063241105526685715 0.4627451002597809 0.4313725531101227 0.3490196168422699
0.6174876689910889 0.0004737091367132962 0.38339921832084656 0.6823529601097107 0.5372549295425415 0.32156863808631897
0.6679803133010864 0.00031580610084347427 0.11581027507781982 0.6313725709915161 0.47058823704719543 0.21176470816135406
0.7051724195480347 0.00031580610084347427 0.36798417568206787 0.5490196347236633 0.4156862795352936 0.27843138575553894
0.6608374118804932 0.00031580610084347427 0.2134387344121933 0.6392157077789307 0.4627451002597809 0.20000000298023224
0.6588670015335083 0.0 0.7229248881340027 0.6039215922355652 0.4745098054409027 0.3529411852359772
0.6990147829055786 0.0 0.8154150247573853 0.501960813999176 0.38823530077934265 0.2549019753932953
0.6593596339225769 0.00015790305042173713 0.6233201622962952 0.6470588445663452 0.529411792755127 0.3803921639919281
0.6963053941726685 0.10737407207489014 0.1826086938381195 0.35686275362968445 0.3960784375667572 0.3921568691730499
0.6150246262550354 0.00015790305042173713 0.7201581001281738 0.6000000238418579 0.5372549295425415 0.40392157435417175
0.5701970458030701 0.007737249135971069 0.00830039568245411 0.6627451181411743 0.6509804129600525 0.6235294342041016
0.6246305704116821 0.014527080580592155 0.00830039568245411 0.5372549295425415 0.5372549295425415 0.4901960790157318
0.7100985050201416 0.10579504072666168 0.005928853526711464 0.615686297416687 0.6000000238418579 0.5568627715110779
0.5512315034866333 0.023685457184910774 0.0071146246045827866 0.6235294342041016 0.6313725709915161 0.5764706134796143
0.5177339911460876 0.00015790305042173713 0.6181818246841431 0.6901960968971252 0.5843137502670288 0.47058823704719543
0.6768472790718079 0.0 0.8079051375389099 0.5254902243614197 0.40784314274787903 0.2666666805744171
0.7344827651977539 0.002526448806747794 0.864426851272583 0.27450981736183167 0.20000000298023224 0.13333334028720856
0.7039408683776855 0.00015790305042173713 0.14822134375572205 0.572549045085907 0.41960784792900085 0.20392157137393951
0.673399031162262 0.00031580610084347427 0.4541501998901367 0.6823529601097107 0.5529412031173706 0.3764705955982208
0.5724138021469116 0.044686563313007355 0.9893280863761902 0.3843137323856354 0.3607843220233917 0.30588236451148987
0.5586206912994385 0.0 0.7280632257461548 0.545098066329956 0.46666666865348816 0.3294117748737335
0.6519704461097717 0.11905889958143234 0.005533596966415644 0.5254902243614197 0.529411792755127 0.46666666865348816
0.5783251523971558 0.0004737091367132962 0.48102766275405884 0.7450980544090271 0.5921568870544434 0.3764705955982208
0.6982758641242981 0.011684825643897057 0.007509881630539894 0.45490196347236633 0.45098039507865906 0.3803921639919281
0.5142857432365417 0.0006316122016869485 0.3849802315235138 0.6980392336845398 0.545098066329956 0.32156863808631897
0.5475369691848755 0.004263382405042648 0.00830039568245411 0.6392157077789307 0.6274510025978088 0.5921568870544434
0.6300492882728577 0.00015790305042173713 0.7110671997070312 0.6313725709915161 0.5411764979362488 0.3764705955982208
0.6443349719047546 0.00015790305042173713 0.0573122538626194 0.6470588445663452 0.49803921580314636 0.24313725531101227
0.4992610812187195 0.0 0.9292489886283875 0.29411765933036804 0.22745098173618317 0.1882352977991104
0.6886699795722961 0.04200221225619316 0.9893280863761902 0.3176470696926117 0.29019609093666077 0.2666666805744171
0.7337438464164734 0.060476865619421005 0.26719367504119873 0.21568627655506134 0.23529411852359772 0.24705882370471954
0.5197044610977173 0.0006316122016869485 0.24584980309009552 0.7607843279838562 0.6078431606292725 0.3843137323856354
0.5197044610977173 0.0 0.7976284623146057 0.47843137383461 0.3764705955982208 0.24705882370471954
0.6529556512832642 0.1577451378107071 0.005533596966415644 0.6117647290229797 0.6196078658103943 0.5686274766921997
0.7024630308151245 0.00031580610084347427 0.47233203053474426 0.6705882549285889 0.5568627715110779 0.3921568691730499
0.7305418848991394 0.013737564906477928 0.9885375499725342 0.3137255012989044 0.2823529541492462 0.23137255012989044
0.5729063749313354 0.12474340945482254 0.9901185631752014 0.37254902720451355 0.3450980484485626 0.3137255012989044
0.6465517282485962 0.137849360704422 0.005533596966415644 0.5882353186607361 0.5882353186607361 0.5411764979362488
0.624876856803894 0.1149534210562706 0.005928853526711464 0.5490196347236633 0.5764706134796143 0.5137255191802979
0.509605884552002 0.00031580610084347427 0.6023715138435364 0.6941176652908325 0.5921568870544434 0.4470588266849518
0.7288177609443665 0.0014211274683475494 0.5656126737594604 0.6117647290229797 0.4901960790157318 0.3764705955982208
0.7288177609443665 0.14590241014957428 0.005533596966415644 0.6745098233222961 0.6666666865348816 0.615686297416687
0.49359604716300964 0.12979631125926971 0.005928853526711464 0.6980392336845398 0.686274528503418 0.6117647290229797
0.6000000238418579 0.03773882985115051 0.9893280863761902 0.3764705955982208 0.3450980484485626 0.29411765933036804
0.6933497786521912 0.0718458890914917 0.1715414971113205 0.239215686917305 0.2549019753932953 0.25882354378700256
0.5660098791122437 0.03473867103457451 0.9893280863761902 0.3843137323856354 0.3529411852359772 0.30980393290519714
0.5219211578369141 0.07705668359994888 0.005138339940458536 0.5960784554481506 0.6039215922355652 0.5529412031173706
0.7253694534301758 0.08463603258132935 0.0063241105526685715 0.4588235318660736 0.4313725531101227 0.3294117748737335
0.6965517401695251 0.0 0.9490118622779846 0.23529411852359772 0.1725490242242813 0.11372549086809158
0.7216748595237732 0.052739616483449936 0.3071146309375763 0.25882354378700256 0.2862745225429535 0.3176470696926117
0.6729063987731934 0.00015790305042173713 0.595652163028717 0.658823549747467 0.5490196347236633 0.3960784375667572
0.6866995096206665 0.00015790305042173713 0.687747061252594 0.6078431606292725 0.47843137383461 0.3490196168422699
0.6825123429298401 0.0 0.9162055253982544 0.32156863808631897 0.24313725531101227 0.13725490868091583
0.7123152613639832 0.10547923296689987 0.17826086282730103 0.33725491166114807 0.3764705955982208 0.37254902720451355
0.7312808036804199 0.05542397126555443 0.2905138432979584 0.2549019753932953 0.27450981736183167 0.2980392277240753
0.5837438702583313 0.00031580610084347427 0.09762845933437347 0.6784313917160034 0.5254902243614197 0.29411765933036804
0.620197057723999 0.12190115451812744 0.005928853526711464 0.5607843399047852 0.5686274766921997 0.48627451062202454
0.5953202247619629 0.0006316122016869485 0.2873517870903015 0.6823529601097107 0.5490196347236633 0.3019607961177826
0.5056650042533875 0.0007895152666606009 0.035573121160268784 0.5490196347236633 0.45490196347236633 0.3450980484485626
0.6054187417030334 0.0006316122016869485 0.23241107165813446 0.6901960968971252 0.5568627715110779 0.30980393290519714
0.6692118048667908 0.00031580610084347427 0.23517785966396332 0.6196078658103943 0.45490196347236633 0.1725490242242813
0.7145320177078247 0.11811147630214691 0.18300394713878632 0.40392157435417175 0.43529412150382996 0.4431372582912445
0.7214285731315613 0.00015790305042173713 0.4059288501739502 0.615686297416687 0.46666666865348816 0.29019609093666077
0.7337438464164734 0.059371545910835266 0.20474308729171753 0.5843137502670288 0.4431372582912445 0.24705882370471954
0.6433497667312622 0.0004737091367132962 0.1881422996520996 0.6705882549285889 0.5176470875740051 0.24705882370471954
0.5406404137611389 0.0006316122016869485 0.28972330689430237 0.7058823704719543 0.5568627715110779 0.3019607961177826
0.5610837340354919 0.06000315770506859 0.9893280863761902 0.3803921639919281 0.35686275362968445 0.3019607961177826
0.5874384045600891 0.0006316122016869485 0.35573121905326843 0.6705882549285889 0.5372549295425415 0.2980392277240753
0.5903940796852112 0.0006316122016869485 0.2857707440853119 0.6980392336845398 0.572549045085907 0.3333333432674408
0.5123152732849121 0.03994946926832199 0.9897233247756958 0.40392157435417175 0.37254902720451355 0.32156863808631897
0.5662561655044556 0.0006316122016869485 0.1513833999633789 0.686274528503418 0.5411764979362488 0.27450981736183167
0.7027093768119812 0.155376598238945 0.992094874382019 0.9843137264251709 0.9882352948188782 1.0
0.7046797871589661 0.00015790305042173713 0.0833992063999176 0.5058823823928833 0.3803921639919281 0.23137255012989044
0.5935960412025452 0.0006316122016869485 0.31541502475738525 0.6980392336845398 0.572549045085907 0.3333333432674408
0.5605911612510681 0.0006316122016869485 0.3707509934902191 0.6627451181411743 0.5529412031173706 0.364705890417099
0.628078818321228 0.10011053085327148 0.005533596966415644 0.5764706134796143 0.5882353186607361 0.5215686559677124
0.5859605669975281 0.0 0.813043475151062 0.4745098054409027 0.3764705955982208 0.2549019753932953
0.6100985407829285 0.0006316122016869485 0.29328063130378723 0.6823529601097107 0.5568627715110779 0.3176470696926117
0.6142857074737549 0.08700457960367203 0.005928853526711464 0.6980392336845398 0.7098039388656616 0.6431372761726379
0.5522167682647705 0.08005684614181519 0.9893280863761902 0.3764705955982208 0.3450980484485626 0.3019607961177826
0.6339901685714722 0.0004737091367132962 0.25691699981689453 0.6705882549285889 0.5215686559677124 0.2666666805744171
0.4992610812187195 0.013895467855036259 0.9901185631752014 0.38823530077934265 0.3607843220233917 0.3294117748737335
0.6798029541969299 0.11274277418851852 0.9905138611793518 0.3450980484485626 0.32549020648002625 0.3137255012989044
0.5556650161743164 0.024317068979144096 0.9897233247756958 0.3843137323856354 0.3607843220233917 0.30588236451148987
0.5337438583374023 0.04705510661005974 0.005533596966415644 0.7098039388656616 0.7019608020782471 0.6549019813537598
0.552955687046051 0.14321807026863098 0.006719367578625679 0.5843137502670288 0.5921568870544434 0.5058823823928833
0.6571428775787354 0.00031580610084347427 0.13201580941677094 0.6431372761726379 0.4941176474094391 0.21568627655506134
0.579802930355072 0.00031580610084347427 0.0470355749130249 0.6039215922355652 0.46666666865348816 0.2549019753932953
0.5283251404762268 0.0 0.9189723134040833 0.3176470696926117 0.250980406999588 0.1725490242242813
0.6802955865859985 0.002052739728242159 0.014229249209165573 0.5254902243614197 0.49803921580314636 0.4274509847164154
0.6869457960128784 0.00031580610084347427 0.4122529625892639 0.686274528503418 0.5529412031173706 0.364705890417099
0.5364531874656677 0.00031580610084347427 0.6063241362571716 0.6784313917160034 0.572549045085907 0.45490196347236633
0.5783251523971558 0.0004737091367132962 0.5276679992675781 0.7176470756530762 0.5921568870544434 0.3607843220233917
0.7029556632041931 0.00015790305042173713 0.09604743123054504 0.501960813999176 0.3764705955982208 0.2235294133424759
0.554679811000824 0.04137059673666954 0.0063241105526685715 0.5607843399047852 0.5529412031173706 0.4941176474094391
0.7027093768119812 0.0 0.8936758637428284 0.3607843220233917 0.2823529541492462 0.1882352977991104
0.6118226647377014 0.0004737091367132962 0.47114625573158264 0.6784313917160034 0.5372549295425415 0.34117648005485535
0.633004903793335 0.00015790305042173713 0.6667984127998352 0.615686297416687 0.49803921580314636 0.3490196168422699
0.55147784948349 0.0 0.9581027626991272 0.2666666805744171 0.20392157137393951 0.15294118225574493
0.5931034684181213 0.00031580610084347427 0.5988142490386963 0.6745098233222961 0.5764706134796143 0.41960784792900085
0.5633004903793335 0.0004737091367132962 0.0675889328122139 0.6431372761726379 0.5176470875740051 0.3176470696926117
0.5369458198547363 0.0004737091367132962 0.47193676233291626 0.7215686440467834 0.5647059082984924 0.37254902720451355
0.692364513874054 0.00031580610084347427 0.14743083715438843 0.5803921818733215 0.4274509847164154 0.19607843458652496
0.5807881951332092 0.13011211156845093 0.0063241105526685715 0.6470588445663452 0.658823549747467 0.5921568870544434
0.6975369453430176 0.0 0.9304347634315491 0.2666666805744171 0.20000000298023224 0.13725490868091583
0.7078817486763 0.06237170472741127 0.21501976251602173 0.3176470696926117 0.3137255012989044 0.1921568661928177
0.5142857432365417 0.011369019746780396 0.0063241105526685715 0.572549045085907 0.5686274766921997 0.4901960790157318
0.5211822390556335 0.11384809762239456 0.005928853526711464 0.5333333611488342 0.545098066329956 0.47843137383461
0.49802955985069275 0.0 0.8185770511627197 0.45490196347236633 0.3529411852359772 0.21568627655506134
0.7192118167877197 0.06205589696764946 0.22094862163066864 0.11372549086809158 0.11372549086809158 0.15294118225574493
0.6517241597175598 0.07626717537641525 0.005138339940458536 0.5647059082984924 0.572549045085907 0.5607843399047852
0.5980295538902283 0.0006316122016869485 0.3332015872001648 0.6627451181411743 0.5372549295425415 0.3137255012989044
0.5987684726715088 0.10153166204690933 0.005928853526711464 0.7058823704719543 0.7176470756530762 0.6352941393852234
0.6756157875061035 0.00031580610084347427 0.29328063130378723 0.6509804129600525 0.46666666865348816 0.1921568661928177
0.7317733764648438 0.0022106426768004894 0.3893280625343323 0.42352941632270813 0.3294117748737335 0.1882352977991104
0.6482758522033691 0.11574293673038483 0.9905138611793518 0.33725491166114807 0.3176470696926117 0.29411765933036804
0.49827587604522705 0.016895625740289688 0.0063241105526685715 0.5843137502670288 0.572549045085907 0.49803921580314636
0.6729063987731934 0.1408495157957077 0.991304337978363 0.3176470696926117 0.3176470696926117 0.32549020648002625
0.5642856955528259 0.06584557145833969 0.004743082914501429 0.5411764979362488 0.5372549295425415 0.46666666865348816
0.6864532232284546 0.00031580610084347427 0.23517785966396332 0.6196078658103943 0.4470588266849518 0.1921568661928177
0.5283251404762268 0.058739934116601944 0.005138339940458536 0.6509804129600525 0.6745098233222961 0.6196078658103943
0.6657635569572449 0.06505605578422546 0.9897233247756958 0.364705890417099 0.3490196168422699 0.3137255012989044
0.5251231789588928 0.07263540476560593 0.005138339940458536 0.5254902243614197 0.5176470875740051 0.4588235318660736
0.5532019734382629 0.0006316122016869485 0.24624505639076233 0.7215686440467834 0.5843137502670288 0.3333333432674408
0.7004926204681396 0.0 0.9197628498077393 0.30980393290519714 0.239215686917305 0.16078431904315948
0.6571428775787354 0.0 0.8924900889396667 0.3921568691730499 0.3019607961177826 0.16862745583057404
0.6192117929458618 0.00015790305042173713 0.0830039530992508 0.6431372761726379 0.501960813999176 0.2666666805744171
0.6332512497901917 0.00031580610084347427 0.520948588848114 0.7019608020782471 0.5686274766921997 0.3921568691730499
0.6884236335754395 0.0 0.8833991885185242 0.3960784375667572 0.30588236451148987 0.18039216101169586
0.7359606027603149 0.004263382405042648 0.9656126499176025 0.15294118225574493 0.125490203499794 0.10196078568696976
0.6817734241485596 0.00031580610084347427 0.1513833999633789 0.6274510025978088 0.45098039507865906 0.19607843458652496
0.5071428418159485 0.11969050765037537 0.9897233247756958 0.3803921639919281 0.364705890417099 0.3176470696926117
0.6455665230751038 0.0661613792181015 0.005533596966415644 0.5490196347236633 0.5372549295425415 0.47843137383461
0.552955687046051 0.1350070983171463 0.0063241105526685715 0.6549019813537598 0.6431372761726379 0.6078431606292725
0.7165024876594543 0.0 0.8960474133491516 0.3607843220233917 0.27843138575553894 0.1725490242242813
0.556157648563385 0.04389704763889313 0.005928853526711464 0.5686274766921997 0.572549045085907 0.5176470875740051
0.6317734122276306 0.13390178978443146 0.005533596966415644 0.6549019813537598 0.658823549747467 0.6039215922355652
0.49334976077079773 0.00015790305042173713 0.7154150009155273 0.4627451002597809 0.3607843220233917 0.23137255012989044
0.7073891758918762 0.00031580610084347427 0.3581027686595917 0.6274510025978088 0.47058823704719543 0.2705882489681244
0.5477832555770874 0.0006316122016869485 0.33675888180732727 0.7019608020782471 0.5607843399047852 0.32549020648002625
0.7192118167877197 0.00031580610084347427 0.5418972373008728 0.6901960968971252 0.545098066329956 0.3686274588108063
0.7280788421630859 0.06300331652164459 0.25810277462005615 0.18039216101169586 0.19607843458652496 0.2078431397676468
0.7337438464164734 0.060476865619421005 0.26719367504119873 0.21568627655506134 0.23529411852359772 0.24705882370471954
0.7246305346488953 0.11542712897062302 0.1822134405374527 0.3686274588108063 0.40392157435417175 0.4000000059604645
0.7354679703712463 0.0031580610666424036 0.26324111223220825 0.529411792755127 0.3764705955982208 0.14509804546833038
0.6687192320823669 0.12711195647716522 0.005138339940458536 0.7254902124404907 0.7254902124404907 0.6784313917160034
0.5140393972396851 0.0 0.7766798138618469 0.49803921580314636 0.3843137323856354 0.250980406999588
0.5746305584907532 0.0004737091367132962 0.4853754937648773 0.7333333492279053 0.5960784554481506 0.3686274588108063
0.6347290873527527 0.0 0.9059288501739502 0.3607843220233917 0.27843138575553894 0.16470588743686676
0.6743842363357544 0.0301594827324152 0.006719367578625679 0.6078431606292725 0.5960784554481506 0.5686274766921997
0.6236453056335449 0.1435338705778122 0.9909090995788574 0.30588236451148987 0.3019607961177826 0.32156863808631897
0.5982758402824402 0.0 0.9442687630653381 0.25882354378700256 0.19607843458652496 0.13725490868091583
0.5743842124938965 0.0004737091367132962 0.46640315651893616 0.7411764860153198 0.5960784554481506 0.38823530077934265
0.7317733764648438 0.051002684980630875 0.30869564414024353 0.2666666805744171 0.2862745225429535 0.3019607961177826
0.6502463221549988 0.00015790305042173713 0.694861650466919 0.6235294342041016 0.5058823823928833 0.364705890417099
0.6549261212348938 0.002052739728242159 0.9648221135139465 0.05882352963089943 0.04313725605607033 0.03921568766236305
0.6007389426231384 0.00031580610084347427 0.12332015484571457 0.6705882549285889 0.5333333611488342 0.3137255012989044
0.5357142686843872 0.09884730726480484 0.005533596966415644 0.7058823704719543 0.7137255072593689 0.6627451181411743
0.5342364311218262 0.05826622620224953 0.9897233247756958 0.3529411852359772 0.3294117748737335 0.2666666805744171
0.565517246723175 0.0006316122016869485 0.2806324064731598 0.7411764860153198 0.6078431606292725 0.35686275362968445
0.5884236693382263 0.07405652850866318 0.005138339940458536 0.5411764979362488 0.5490196347236633 0.49803921580314636
0.5145320296287537 0.11826938390731812 0.9897233247756958 0.3803921639919281 0.3529411852359772 0.3137255012989044
0.7369458079338074 0.13595452904701233 0.005533596966415644 0.6078431606292725 0.6000000238418579 0.5529412031173706
0.5943349599838257 0.0006316122016869485 0.3490118682384491 0.6627451181411743 0.5254902243614197 0.2980392277240753
0.6561576128005981 0.00031580610084347427 0.09090909361839294 0.6509804129600525 0.4941176474094391 0.21960784494876862
0.503201961517334 0.12758566439151764 0.005928853526711464 0.545098066329956 0.5411764979362488 0.4627451002597809
0.5470443367958069 0.0004737091367132962 0.02490118518471718 0.572549045085907 0.5568627715110779 0.5098039507865906
0.5822660326957703 0.0 0.8976284861564636 0.38823530077934265 0.29411765933036804 0.18431372940540314
0.6738916039466858 0.060476865619421005 0.005533596966415644 0.6705882549285889 0.6509804129600525 0.6352941393852234
0.5992611050605774 0.13090161979198456 0.9905138611793518 0.364705890417099 0.3529411852359772 0.3333333432674408
0.570443332195282 0.0006316122016869485 0.343873530626297 0.7058823704719543 0.5647059082984924 0.3294117748737335
0.6837438344955444 0.0 0.8723320364952087 0.4313725531101227 0.33725491166114807 0.20392157137393951
0.7071428298950195 0.0 0.9154150485992432 0.32549020648002625 0.2549019753932953 0.16862745583057404
0.6502463221549988 0.0004737091367132962 0.3241106867790222 0.6470588445663452 0.4901960790157318 0.21960784494876862
0.5701970458030701 0.0006316122016869485 0.15928854048252106 0.6980392336845398 0.5411764979362488 0.2980392277240753
0.7024630308151245 0.047844622284173965 0.0063241105526685715 0.3764705955982208 0.3490196168422699 0.2862745225429535
0.6975369453430176 0.038370441645383835 0.0063241105526685715 0.14509804546833038 0.13725490868091583 0.09019608050584793
0.7199507355690002 0.00031580610084347427 0.4596838057041168 0.658823549747467 0.5098039507865906 0.32549020648002625
0.7034482955932617 0.0015790305333212018 0.020158102735877037 0.33725491166114807 0.32156863808631897 0.27450981736183167
0.5502462983131409 0.0006316122016869485 0.32490119338035583 0.7176470756530762 0.5803921818733215 0.3529411852359772
0.7302955389022827 0.0018948365468531847 0.3237154185771942 0.5803921818733215 0.4588235318660736 0.27450981736183167
0.5258620977401733 0.011842728592455387 0.9897233247756958 0.2666666805744171 0.239215686917305 0.2078431397676468
0.6509852409362793 0.1294804960489273 0.005533596966415644 0.5803921818733215 0.5882353186607361 0.5333333611488342
0.6403940916061401 0.01105321291834116 0.9893280863761902 0.3137255012989044 0.2823529541492462 0.2705882489681244
0.573645293712616 0.0006316122016869485 0.32608696818351746 0.6823529601097107 0.5490196347236633 0.30980393290519714
0.6231527328491211 0.033791251480579376 0.9893280863761902 0.35686275362968445 0.3333333432674408 0.27843138575553894
0.6645320057868958 0.00031580610084347427 0.5509881377220154 0.7019608020782471 0.572549045085907 0.4117647111415863
0.609359622001648 0.026211906224489212 0.9893280863761902 0.35686275362968445 0.3333333432674408 0.2862745225429535
0.7182266116142273 0.00015790305042173713 0.3395256996154785 0.6274510025978088 0.46666666865348816 0.2549019753932953
0.7337438464164734 0.00236854562535882 0.8415019512176514 0.32156863808631897 0.239215686917305 0.1568627506494522
0.6399014592170715 0.0004737091367132962 0.38339921832084656 0.6666666865348816 0.5254902243614197 0.32156863808631897
0.623399019241333 0.15300805866718292 0.9909090995788574 0.9098039269447327 0.929411768913269 0.9411764740943909
0.5160098671913147 0.06726669520139694 0.9897233247756958 0.38823530077934265 0.364705890417099 0.30980393290519714
0.6928571462631226 0.11290068179368973 0.18418972194194794 0.3686274588108063 0.42352941632270813 0.4274509847164154
0.6467980146408081 0.046739302575588226 0.005533596966415644 0.5411764979362488 0.545098066329956 0.4901960790157318
0.6433497667312622 0.00015790305042173713 0.6596838235855103 0.6509804129600525 0.5254902243614197 0.37254902720451355
0.7046797871589661 0.00031580610084347427 0.4015810191631317 0.6666666865348816 0.5372549295425415 0.33725491166114807
0.5241379141807556 0.0007895152666606009 0.11699604988098145 0.6980392336845398 0.5490196347236633 0.29411765933036804
0.5418719053268433 0.09442602097988129 0.005533596966415644 0.6000000238418579 0.6039215922355652 0.5333333611488342
0.7285714149475098 0.001263224403373897 0.7505928874015808 0.5843137502670288 0.47058823704719543 0.30588236451148987
0.6214285492897034 0.0004737091367132962 0.15375493466854095 0.686274528503418 0.5254902243614197 0.27450981736183167
0.676600992679596 0.023369651287794113 0.9889327883720398 0.2862745225429535 0.25882354378700256 0.21960784494876862
0.5615763664245605 0.00015790305042173713 0.6972332000732422 0.658823549747467 0.5960784554481506 0.45490196347236633
0.548275887966156 0.0004737091367132962 0.028458498418331146 0.3686274588108063 0.3490196168422699 0.2705882489681244
0.6460590958595276 0.15079741179943085 0.991304337978363 0.9333333373069763 0.9490196108818054 0.9529411792755127
0.6152709126472473 0.05858203023672104 0.9893280863761902 0.37254902720451355 0.34117648005485535 0.2980392277240753
0.6778324842453003 0.00031580610084347427 0.23517785966396332 0.6313725709915161 0.45490196347236633 0.1921568661928177
0.7298029661178589 0.03237012401223183 0.006719367578625679 0.4941176474094391 0.4627451002597809 0.3803921639919281
0.6539409160614014 0.13737565279006958 0.005138339940458536 0.686274528503418 0.6941176652908325 0.6509804129600525
0.5721675157546997 0.0 0.9462450742721558 0.3450980484485626 0.27450981736183167 0.19607843458652496
0.5054187178611755 0.0007895152666606009 0.05770751088857651 0.7098039388656616 0.5568627715110779 0.3333333432674408
0.6332512497901917 0.13642823696136475 0.9909090995788574 0.33725491166114807 0.3176470696926117 0.3019607961177826
0.5566502213478088 0.00031580610084347427 0.6039525866508484 0.7333333492279053 0.6392157077789307 0.49803921580314636
0.7280788421630859 0.0014211274683475494 0.19565217196941376 0.5254902243614197 0.3607843220233917 0.20392157137393951
0.5056650042533875 0.011369019746780396 0.9901185631752014 0.21960784494876862 0.18039216101169586 0.1725490242242813
0.6450738906860352 0.09868940711021423 0.9901185631752014 0.3490196168422699 0.33725491166114807 0.3019607961177826
0.506157636642456 0.0006316122016869485 0.38221344351768494 0.6666666865348816 0.46666666865348816 0.2078431397676468
0.5224137902259827 0.0690036341547966 0.9897233247756958 0.3843137323856354 0.3607843220233917 0.2980392277240753
0.6495074033737183 0.00031580610084347427 0.5573122501373291 0.6627451181411743 0.5254902243614197 0.3686274588108063
0.6662561297416687 0.0004737091367132962 0.38221344351768494 0.6980392336845398 0.5568627715110779 0.32156863808631897
0.5251231789588928 0.1320069432258606 0.9897233247756958 0.3803921639919281 0.364705890417099 0.32156863808631897
0.6899014711380005 0.00031580610084347427 0.42490118741989136 0.6352941393852234 0.5137255191802979 0.3019607961177826
0.5197044610977173 0.0007895152666606009 0.14584980905056 0.7215686440467834 0.5686274766921997 0.33725491166114807
0.6677339673042297 0.0 0.792094886302948 0.5411764979362488 0.4117647111415863 0.27450981736183167
0.5044335126876831 0.1440075784921646 0.0063241105526685715 0.6705882549285889 0.6784313917160034 0.5960784554481506
0.5349753499031067 0.0007895152666606009 0.2079051434993744 0.7568627595901489 0.6078431606292725 0.364705890417099
0.5990147590637207 0.06789831072092056 0.9893280863761902 0.3960784375667572 0.3686274588108063 0.30588236451148987
0.5859605669975281 0.15300805866718292 0.0063241105526685715 0.6078431606292725 0.6196078658103943 0.5529412031173706
0.6665024757385254 0.12221696227788925 0.005138339940458536 0.5843137502670288 0.5921568870544434 0.5490196347236633
0.6642857193946838 0.08416232466697693 0.005138339940458536 0.615686297416687 0.6117647290229797 0.5921568870544434
0.5036945939064026 0.11321648210287094 0.005533596966415644 0.6666666865348816 0.6745098233222961 0.6235294342041016
0.7330049276351929 0.0022106426768004894 0.9584980010986328 0.12156862765550613 0.08627451211214066 0.05882352963089943
0.6475369334220886 0.0 0.8924900889396667 0.3607843220233917 0.27843138575553894 0.1568627506494522
0.5820196866989136 0.0006316122016869485 0.26758894324302673 0.6784313917160034 0.5529412031173706 0.3137255012989044
0.5497536659240723 0.07642507553100586 0.005138339940458536 0.658823549747467 0.6705882549285889 0.6039215922355652
0.5194581151008606 0.0 0.9229248762130737 0.30980393290519714 0.24313725531101227 0.18039216101169586
0.5864531993865967 0.11163745820522308 0.0063241105526685715 0.5843137502670288 0.5960784554481506 0.529411792755127
0.5443349480628967 0.08542554825544357 0.005138339940458536 0.4901960790157318 0.5254902243614197 0.4431372582912445
0.681034505367279 0.04973946139216423 0.005533596966415644 0.658823549747467 0.658823549747467 0.6117647290229797
0.5871921181678772 0.00031580610084347427 0.6110671758651733 0.7019608020782471 0.6078431606292725 0.4745098054409027
0.6684728860855103 0.00015790305042173713 0.06442687660455704 0.6470588445663452 0.4901960790157318 0.250980406999588
0.5364531874656677 0.04626559466123581 0.005533596966415644 0.7411764860153198 0.7450980544090271 0.6823529601097107
0.692364513874054 0.00031580610084347427 0.08418972045183182 0.5568627715110779 0.4117647111415863 0.24705882370471954
0.5401477813720703 0.0006316122016869485 0.22094862163066864 0.729411780834198 0.5882353186607361 0.3450980484485626
0.5977832674980164 0.0031580610666424036 0.00909090880304575 0.4745098054409027 0.4941176474094391 0.46666666865348816
0.6918719410896301 0.001263224403373897 0.01976284570991993 0.42352941632270813 0.3843137323856354 0.3490196168422699
0.5834975242614746 0.10721617192029953 0.9901185631752014 0.3686274588108063 0.3529411852359772 0.30588236451148987
0.5544335246086121 0.0006316122016869485 0.3549407124519348 0.6627451181411743 0.5372549295425415 0.2980392277240753
0.5327585935592651 0.0006316122016869485 0.3387351632118225 0.6941176652908325 0.5529412031173706 0.3176470696926117
0.7024630308151245 0.09963682293891907 0.18063241243362427 0.3137255012989044 0.3490196168422699 0.33725491166114807
0.6778324842453003 0.12805937230587006 0.005138339940458536 0.5921568870544434 0.6000000238418579 0.5568627715110779
0.615517258644104 0.05005526542663574 0.9893280863761902 0.37254902720451355 0.3490196168422699 0.3019607961177826
0.509605884552002 0.0007895152666606009 0.14664031565189362 0.7019608020782471 0.545098066329956 0.30588236451148987
0.7002463340759277 0.04989736154675484 0.9893280863761902 0.364705890417099 0.3490196168422699 0.3019607961177826
0.5694581270217896 0.00031580610084347427 0.056521739810705185 0.6039215922355652 0.48627451062202454 0.2823529541492462
0.5145320296287537 0.00015790305042173713 0.6992095112800598 0.5843137502670288 0.45490196347236633 0.3176470696926117
0.6413792967796326 0.0 0.8478260636329651 0.4431372582912445 0.34117648005485535 0.21176470816135406
0.6300492882728577 0.0 0.8794466257095337 0.40392157435417175 0.3137255012989044 0.1882352977991104
0.5943349599838257 0.04058108478784561 0.006719367578625679 0.6117647290229797 0.6039215922355652 0.5529412031173706
0.7150246500968933 0.00015790305042173713 0.6181818246841431 0.6470588445663452 0.5176470875740051 0.34117648005485535
0.6630541682243347 0.0 0.7679842114448547 0.572549045085907 0.43921568989753723 0.3019607961177826
0.6822659969329834 0.15048161149024963 0.992094874382019 0.9960784316062927 1.0 1.0
0.517241358757019 0.0006316122016869485 0.37272727489471436 0.6000000238418579 0.47058823704719543 0.26274511218070984
0.6091132760047913 0.0006316122016869485 0.343873530626297 0.6823529601097107 0.545098066329956 0.3176470696926117
0.6566502451896667 0.05037107318639755 0.005533596966415644 0.6196078658103943 0.6235294342041016 0.5686274766921997
0.703201949596405 0.00031580610084347427 0.32055336236953735 0.6196078658103943 0.4470588266849518 0.20000000298023224
0.7209359407424927 0.00015790305042173713 0.19920948147773743 0.5607843399047852 0.3764705955982208 0.19607843458652496
0.556157648563385 0.06442444026470184 0.9893280863761902 0.3843137323856354 0.364705890417099 0.29019609093666077
0.5568965673446655 0.149849995970726 0.9901185631752014 0.35686275362968445 0.3450980484485626 0.3176470696926117
0.49802955985069275 0.040107373148202896 0.9897233247756958 0.3921568691730499 0.364705890417099 0.3019607961177826
0.6716748476028442 0.0 0.8573122620582581 0.40784314274787903 0.30588236451148987 0.16862745583057404
0.5443349480628967 0.08542554825544357 0.005138339940458536 0.4901960790157318 0.5254902243614197 0.4431372582912445
0.7029556632041931 0.14874467253684998 0.992094874382019 0.9647058844566345 0.9803921580314636 1.0
0.7123152613639832 0.00015790305042173713 0.625296413898468 0.6117647290229797 0.48235294222831726 0.30588236451148987
0.5662561655044556 0.07500394433736801 0.9893280863761902 0.4000000059604645 0.3764705955982208 0.3294117748737335
0.737438440322876 0.0031580610666424036 0.9359683990478516 0.27450981736183167 0.21176470816135406 0.14901961386203766
0.5091133117675781 0.05542397126555443 0.005533596966415644 0.6039215922355652 0.5960784554481506 0.5137255191802979
0.6573891639709473 0.06742460280656815 0.9897233247756958 0.3529411852359772 0.32549020648002625 0.2862745225429535
0.6554186940193176 0.0004737091367132962 0.16284584999084473 0.6509804129600525 0.46666666865348816 0.1921568661928177
0.6290640234947205 0.07721459120512009 0.005533596966415644 0.686274528503418 0.658823549747467 0.6274510025978088
0.7283251285552979 0.08858361095190048 0.0063241105526685715 0.41960784792900085 0.40784314274787903 0.3333333432674408
0.5815271139144897 0.07879362255334854 0.9893280863761902 0.3921568691730499 0.3686274588108063 0.32156863808631897
0.7110837697982788 0.0 0.8007904887199402 0.5333333611488342 0.41960784792900085 0.2862745225429535
0.6977832317352295 0.08526764810085297 0.18142291903495789 0.30980393290519714 0.3333333432674408 0.32549020648002625
0.5862069129943848 0.019895784556865692 0.007905138656497002 0.5333333611488342 0.5137255191802979 0.4901960790157318
0.6635468006134033 0.00015790305042173713 0.6592885255813599 0.6509804129600525 0.5372549295425415 0.3803921639919281
0.6029556393623352 0.00015790305042173713 0.6750988364219666 0.5686274766921997 0.5098039507865906 0.38823530077934265
0.6362069249153137 0.0004737091367132962 0.34664031863212585 0.6705882549285889 0.5490196347236633 0.2980392277240753
0.570443332195282 0.00805305503308773 0.00830039568245411 0.6431372761726379 0.6313725709915161 0.6039215922355652
0.6413792967796326 0.0004737091367132962 0.18893280625343323 0.658823549747467 0.501960813999176 0.23137255012989044
0.5056650042533875 0.0004737091367132962 0.4640316069126129 0.6941176652908325 0.5333333611488342 0.3529411852359772
0.7320197224617004 0.15332385897636414 0.005533596966415644 0.6745098233222961 0.686274528503418 0.6431372761726379
0.5317733883857727 0.0006316122016869485 0.23754940927028656 0.843137264251709 0.7019608020782471 0.5058823823928833
0.5460591316223145 0.15190273523330688 0.9901185631752014 0.3490196168422699 0.33725491166114807 0.3019607961177826
0.5509852170944214 0.09584715217351913 0.005533596966415644 0.5333333611488342 0.5254902243614197 0.4745098054409027
0.6408867239952087 0.0 0.730434775352478 0.5960784554481506 0.4941176474094391 0.3490196168422699
0.5539408922195435 0.05826622620224953 0.005138339940458536 0.6470588445663452 0.6627451181411743 0.6039215922355652
0.7014778256416321 0.026369808241724968 0.006719367578625679 0.3764705955982208 0.3490196168422699 0.27450981736183167
0.6761083602905273 0.0 0.8237153887748718 0.5215686559677124 0.40392157435417175 0.2705882489681244
0.5002462863922119 0.0 0.8418972492218018 0.37254902720451355 0.3137255012989044 0.23137255012989044
0.5635467767715454 0.0006316122016869485 0.1711462438106537 0.7019608020782471 0.5411764979362488 0.29019609093666077
0.6935960650444031 0.12426970154047012 0.1766798347234726 0.3333333432674408 0.35686275362968445 0.35686275362968445
0.5758620500564575 0.1408495157957077 0.9905138611793518 0.3490196168422699 0.3294117748737335 0.30588236451148987
0.5169950723648071 0.0006316122016869485 0.2343873530626297 0.7176470756530762 0.5607843399047852 0.32156863808631897
0.7280788421630859 0.0014211274683475494 0.373913049697876 0.5803921818733215 0.4588235318660736 0.33725491166114807
0.6285714507102966 0.0004737091367132962 0.17984189093112946 0.6745098233222961 0.5372549295425415 0.27843138575553894
0.7379310131072998 0.1062687486410141 0.9909090995788574 0.2549019753932953 0.23529411852359772 0.21960784494876862
0.7305418848991394 0.024001263082027435 0.0071146246045827866 0.30980393290519714 0.3019607961177826 0.250980406999588
0.6366994976997375 0.0004737091367132962 0.20988142490386963 0.6666666865348816 0.501960813999176 0.21960784494876862
0.5694581270217896 0.0006316122016869485 0.15928854048252106 0.6980392336845398 0.5411764979362488 0.3019607961177826
0.5995073914527893 0.0006316122016869485 0.2450592815876007 0.7176470756530762 0.5764706134796143 0.34117648005485535
0.5238916277885437 0.038370441645383835 0.005533596966415644 0.5137255191802979 0.5254902243614197 0.4588235318660736
0.4963054060935974 0.0006316122016869485 0.26284584403038025 0.7333333492279053 0.5686274766921997 0.34117648005485535
0.6044334769248962 0.00805305503308773 0.00909090880304575 0.686274528503418 0.6745098233222961 0.6078431606292725
0.7098522186279297 0.00015790305042173713 0.02924901247024536 0.2549019753932953 0.21176470816135406 0.1411764770746231
0.7349753975868225 0.0030001578852534294 0.4845849871635437 0.47058823704719543 0.35686275362968445 0.1921568661928177
0.7108374238014221 0.05921364203095436 0.17865613102912903 0.3333333432674408 0.3529411852359772 0.3294117748737335
0.7088670134544373 0.08384651690721512 0.17826086282730103 0.2823529541492462 0.30588236451148987 0.29019609093666077
0.5214285850524902 0.1495341807603836 0.0063241105526685715 0.6941176652908325 0.7058823704719543 0.6235294342041016
0.7325122952461243 0.002842254936695099 0.09090909361839294 0.364705890417099 0.2705882489681244 0.16078431904315948
0.5746305584907532 0.0006316122016869485 0.25256916880607605 0.7019608020782471 0.5647059082984924 0.3137255012989044
0.5697044134140015 0.10847939550876617 0.005928853526711464 0.5411764979362488 0.5490196347236633 0.45490196347236633
