0.7497537136077881 0.47813042998313904 0.290909081697464 0.3019607961177826 0.3019607961177826 0.3019607961177826
0.9807881712913513 0.41860097646713257 0.22213438153266907 0.7098039388656616 0.7215686440467834 0.6549019813537598
0.9812808036804199 0.42396968603134155 0.04545454680919647 0.4901960790157318 0.4901960790157318 0.3960784375667572
0.9674876928329468 0.3991788923740387 0.9877470135688782 0.3176470696926117 0.3019607961177826 0.2549019753932953
0.9780788421630859 0.4517606198787689 0.7549406886100769 0.5647059082984924 0.5686274766921997 0.5490196347236633
0.9802955389022827 0.5412916541099548 0.9509881138801575 0.3843137323856354 0.37254902720451355 0.30588236451148987
0.9761083722114563 0.4058108329772949 0.4007905125617981 0.6705882549285889 0.6901960968971252 0.7019608020782471
0.820443332195282 0.5100268721580505 0.006719367578625679 0.5960784554481506 0.5921568870544434 0.5098039507865906
0.9684728980064392 0.5051318407058716 0.9893280863761902 0.3450980484485626 0.3333333432674408 0.27450981736183167
0.7470443248748779 0.4511290192604065 0.3027667999267578 0.054901961237192154 0.054901961237192154 0.054901961237192154
0.9810344576835632 0.44354966282844543 0.10592885315418243 0.6980392336845398 0.7019608020782471 0.6313725709915161
0.9726601243019104 0.43186482787132263 0.33043476939201355 0.3843137323856354 0.3921568691730499 0.34117648005485535
0.9325123429298401 0.44149690866470337 0.005533596966415644 0.5137255191802979 0.5098039507865906 0.4313725531101227
0.9448275566101074 0.5386072993278503 0.9897233247756958 0.35686275362968445 0.34117648005485535 0.2980392277240753
0.742118239402771 0.5313437581062317 0.0071146246045827866 0.29019609093666077 0.27843138575553894 0.20392157137393951
0.9766010046005249 0.5112900733947754 0.3857707381248474 0.6549019813537598 0.6705882549285889 0.6823529601097107
0.9822660088539124 0.5449234247207642 0.8079051375389099 0.529411792755127 0.5254902243614197 0.45490196347236633
0.9711822867393494 0.5370282530784607 0.31581026315689087 0.5764706134796143 0.572549045085907 0.4941176474094391
0.756403923034668 0.4913942813873291 0.007905138656497002 0.32156863808631897 0.2980392277240753 0.24313725531101227
0.9812808036804199 0.44970786571502686 0.04545454680919647 0.45098039507865906 0.45098039507865906 0.3490196168422699
0.8152709603309631 0.45033949613571167 0.006719367578625679 0.5960784554481506 0.5882353186607361 0.5058823823928833
0.743842363357544 0.4514448046684265 0.25217390060424805 0.1568627506494522 0.1568627506494522 0.14901961386203766
0.9751231670379639 0.5273962020874023 0.5122529864311218 0.6274510025978088 0.6627451181411743 0.6509804129600525
0.8633005023002625 0.43486499786376953 0.9897233247756958 0.3294117748737335 0.3294117748737335 0.2823529541492462
0.9753694534301758 0.512869119644165 0.48695650696754456 0.615686297416687 0.6509804129600525 0.6313725709915161
0.9246305227279663 0.5236064791679382 0.0063241105526685715 0.4941176474094391 0.5098039507865906 0.41960784792900085
0.8849753737449646 0.4140217900276184 0.005533596966415644 0.5843137502670288 0.5764706134796143 0.48627451062202454
0.7945812940597534 0.448444664478302 0.9901185631752014 0.24313725531101227 0.23137255012989044 0.21176470816135406
0.9756157398223877 0.40912678837776184 0.5881422758102417 0.615686297416687 0.6392157077789307 0.6392157077789307
0.9844827651977539 0.4623401165008545 0.9612648487091064 0.364705890417099 0.34117648005485535 0.29411765933036804
0.8743842244148254 0.5082899332046509 0.9897233247756958 0.21568627655506134 0.21960784494876862 0.1882352977991104
0.8502463102340698 0.47339335083961487 0.005928853526711464 0.615686297416687 0.6392157077789307 0.529411792755127
0.9337438344955444 0.46155059337615967 0.005928853526711464 0.4470588266849518 0.45490196347236633 0.3607843220233917
0.7490147948265076 0.46691930294036865 0.26166006922721863 0.18431372940540314 0.18039216101169586 0.16078431904315948
0.9807881712913513 0.3987051844596863 0.2869565188884735 0.6313725709915161 0.6431372761726379 0.5372549295425415
0.7724137902259827 0.5052897334098816 0.9897233247756958 0.22745098173618317 0.21568627655506134 0.1882352977991104
0.9174876809120178 0.49297332763671875 0.0063241105526685715 0.4588235318660736 0.4588235318660736 0.3490196168422699
0.9785714149475098 0.4740249514579773 0.021739130839705467 0.2823529541492462 0.24705882370471954 0.18039216101169586
0.8211822509765625 0.47323542833328247 0.9897233247756958 0.20392157137393951 0.1921568661928177 0.16470588743686676
0.9775862097740173 0.5362387299537659 0.716600775718689 0.5333333611488342 0.5490196347236633 0.4941176474094391
0.812561571598053 0.4504973888397217 0.006719367578625679 0.6235294342041016 0.615686297416687 0.5176470875740051
0.947044312953949 0.4721301198005676 0.0063241105526685715 0.48235294222831726 0.501960813999176 0.42352941632270813
0.9778324961662292 0.4257066249847412 0.747826099395752 0.5607843399047852 0.5647059082984924 0.545098066329956
0.8327586054801941 0.48160430788993835 0.0063241105526685715 0.5764706134796143 0.5764706134796143 0.48235294222831726
0.9810344576835632 0.45002368092536926 0.07628458738327026 0.6901960968971252 0.7098039388656616 0.6235294342041016
0.8832512497901917 0.5370282530784607 0.9897233247756958 0.33725491166114807 0.33725491166114807 0.30588236451148987
0.9578817486763 0.43470707535743713 0.9885375499725342 0.3137255012989044 0.2980392277240753 0.250980406999588
0.9032019972801208 0.4369177222251892 0.9893280863761902 0.3490196168422699 0.32549020648002625 0.27843138575553894
0.9815270900726318 0.5202905535697937 0.09565217047929764 0.6705882549285889 0.6901960968971252 0.6000000238418579
0.9012315273284912 0.44070741534233093 0.9893280863761902 0.32549020648002625 0.3176470696926117 0.2666666805744171
0.9775862097740173 0.39807358384132385 0.7162055373191833 0.5647059082984924 0.5882353186607361 0.5803921818733215
0.7492610812187195 0.4448128938674927 0.1505928784608841 0.1568627506494522 0.1725490242242813 0.16862745583057404
0.9763546586036682 0.5453971028327942 0.6166008114814758 0.6000000238418579 0.6235294342041016 0.615686297416687
0.9815270900726318 0.5363966226577759 0.07588932663202286 0.7019608020782471 0.7372549176216125 0.6313725709915161
0.9544335007667542 0.4707089960575104 0.9889327883720398 0.33725491166114807 0.32156863808631897 0.27450981736183167
0.8315271139144897 0.42712774872779846 0.9901185631752014 0.3764705955982208 0.3607843220233917 0.32549020648002625
0.7637931108474731 0.5327649116516113 0.006719367578625679 0.3450980484485626 0.3333333432674408 0.27450981736183167
0.9834975600242615 0.48697298765182495 0.8541501760482788 0.5098039507865906 0.48627451062202454 0.3921568691730499
0.742118239402771 0.397126168012619 0.1671936810016632 0.10980392247438431 0.11764705926179886 0.11372549086809158
0.8110837340354919 0.4819200932979584 0.9897233247756958 0.19607843458652496 0.18431372940540314 0.1568627506494522
0.9756157398223877 0.4187588691711426 0.4411067068576813 0.6549019813537598 0.6784313917160034 0.6784313917160034
0.7586206793785095 0.4419706165790558 0.2905138432979584 0.1568627506494522 0.1568627506494522 0.14901961386203766
0.8940886855125427 0.4973945915699005 0.9897233247756958 0.23137255012989044 0.23137255012989044 0.18431372940540314
0.8169950842857361 0.40123164653778076 0.9901185631752014 0.3764705955982208 0.37254902720451355 0.35686275362968445
0.9812808036804199 0.4020211696624756 0.10592885315418243 0.7019608020782471 0.7058823704719543 0.6352941393852234
0.9650246500968933 0.5485551953315735 0.0063241105526685715 0.5529412031173706 0.5333333611488342 0.4470588266849518
0.9416255950927734 0.5395547151565552 0.0063241105526685715 0.40784314274787903 0.42352941632270813 0.3176470696926117
0.9785714149475098 0.5228170156478882 0.7723320126533508 0.5372549295425415 0.5529412031173706 0.49803921580314636
0.7544335126876831 0.4400757849216461 0.9901185631752014 0.32549020648002625 0.30980393290519714 0.2980392277240753
0.889162540435791 0.4111795425415039 0.9901185631752014 0.3764705955982208 0.364705890417099 0.33725491166114807
0.7504926323890686 0.4459182024002075 0.30474308133125305 0.16078431904315948 0.1725490242242813 0.1921568661928177
0.8911330103874207 0.44718143343925476 0.9897233247756958 0.22745098173618317 0.22745098173618317 0.18039216101169586
0.743596076965332 0.4459182024002075 0.1403162032365799 0.0941176488995552 0.0941176488995552 0.0941176488995552
0.9748768210411072 0.4604452848434448 0.4837944805622101 0.6078431606292725 0.6431372761726379 0.6392157077789307
0.7857142686843872 0.45033949613571167 0.0071146246045827866 0.5607843399047852 0.545098066329956 0.4313725531101227
0.7448275685310364 0.45033949613571167 0.18577075004577637 0.0941176488995552 0.10196078568696976 0.09803921729326248
0.7709359526634216 0.4882362186908722 0.007509881630539894 0.37254902720451355 0.3607843220233917 0.2862745225429535
0.9815270900726318 0.5138165354728699 0.09011857956647873 0.6784313917160034 0.7137255072593689 0.6078431606292725
0.9761083722114563 0.4198642075061798 0.005533596966415644 0.5215686559677124 0.5176470875740051 0.43921568989753723
0.9812808036804199 0.4858676791191101 0.09683794528245926 0.6745098233222961 0.7058823704719543 0.6117647290229797
0.9376847147941589 0.5142902135848999 0.9893280863761902 0.32156863808631897 0.3137255012989044 0.26274511218070984
0.8290640115737915 0.4456023871898651 0.9897233247756958 0.2235294133424759 0.21176470816135406 0.1764705926179886
0.9810344576835632 0.4861834943294525 0.2142292559146881 0.686274528503418 0.6980392336845398 0.615686297416687
0.9810344576835632 0.4396020770072937 0.08102767169475555 0.6901960968971252 0.6980392336845398 0.6039215922355652
0.9088670015335083 0.4746565520763397 0.0063241105526685715 0.5176470875740051 0.5176470875740051 0.42352941632270813
0.7413793206214905 0.5092373490333557 0.007905138656497002 0.2078431397676468 0.19607843458652496 0.13725490868091583
0.9763546586036682 0.5303963422775269 0.4106719493865967 0.6627451181411743 0.686274528503418 0.6784313917160034
0.9815270900726318 0.5502921342849731 0.17391304671764374 0.658823549747467 0.6784313917160034 0.5921568870544434
0.885960578918457 0.5400283932685852 0.9897233247756958 0.30980393290519714 0.2980392277240753 0.2705882489681244
0.9810344576835632 0.4171798527240753 0.8039525747299194 0.572549045085907 0.5843137502670288 0.5490196347236633
0.8411329984664917 0.5491868257522583 0.9897233247756958 0.32156863808631897 0.30980393290519714 0.2823529541492462
0.8327586054801941 0.5302384495735168 0.9897233247756958 0.3176470696926117 0.30588236451148987 0.27843138575553894
0.9778324961662292 0.551555335521698 0.7083004117012024 0.5686274766921997 0.5803921818733215 0.5529412031173706
0.9487684965133667 0.46928784251213074 0.0063241105526685715 0.4431372582912445 0.4470588266849518 0.3764705955982208
0.9103448390960693 0.4394441843032837 0.005533596966415644 0.5215686559677124 0.529411792755127 0.43529412150382996
0.9761083722114563 0.4048634171485901 0.6288537383079529 0.6039215922355652 0.6235294342041016 0.6352941393852234
0.9165024757385254 0.4546028673648834 0.9893280863761902 0.3450980484485626 0.3294117748737335 0.2862745225429535
0.9807881712913513 0.42412757873535156 0.2288537621498108 0.6980392336845398 0.7137255072593689 0.6470588445663452
0.7923645377159119 0.4225485622882843 0.9901185631752014 0.364705890417099 0.3450980484485626 0.3294117748737335
0.9815270900726318 0.40644243359565735 0.09288537502288818 0.6941176652908325 0.6980392336845398 0.6352941393852234
0.8320196866989136 0.5022895932197571 0.9897233247756958 0.21568627655506134 0.21568627655506134 0.16862745583057404
0.9729064106941223 0.546344518661499 0.0063241105526685715 0.40784314274787903 0.4000000059604645 0.3176470696926117
0.7512315511703491 0.5138165354728699 0.007509881630539894 0.26274511218070984 0.2705882489681244 0.21960784494876862
0.9810344576835632 0.4714984893798828 0.13675889372825623 0.6901960968971252 0.6980392336845398 0.615686297416687
0.9763546586036682 0.4893415570259094 0.6466403007507324 0.7647058963775635 0.7803921699523926 0.7764706015586853
0.7852216958999634 0.5210800766944885 0.9897233247756958 0.22745098173618317 0.22745098173618317 0.19607843458652496
0.9751231670379639 0.5090793967247009 0.5541502237319946 0.5960784554481506 0.6313725709915161 0.6117647290229797
0.8862069249153137 0.5086057186126709 0.0063241105526685715 0.5607843399047852 0.572549045085907 0.45098039507865906
0.932758629322052 0.44749724864959717 0.9889327883720398 0.3137255012989044 0.2980392277240753 0.250980406999588
0.7428571581840515 0.5345017910003662 0.2968379557132721 0.30588236451148987 0.34117648005485535 0.33725491166114807
0.9830049276351929 0.42128533124923706 0.8411067128181458 0.49803921580314636 0.48627451062202454 0.4117647111415863
0.8174876570701599 0.5068687796592712 0.9897233247756958 0.20000000298023224 0.20000000298023224 0.16862745583057404
0.7908867001533508 0.494552344083786 0.9897233247756958 0.2235294133424759 0.2235294133424759 0.18431372940540314
0.7790640592575073 0.4910784661769867 0.9897233247756958 0.20000000298023224 0.20000000298023224 0.16862745583057404
0.7529556751251221 0.47813042998313904 0.9897233247756958 0.3019607961177826 0.2980392277240753 0.2823529541492462
0.9746305346488953 0.4397599995136261 0.520948588848114 0.6196078658103943 0.6352941393852234 0.6313725709915161
0.9753694534301758 0.4023369550704956 0.5782608985900879 0.6235294342041016 0.6470588445663452 0.6470588445663452
0.9761083722114563 0.5416074395179749 0.4367589056491852 0.6549019813537598 0.6784313917160034 0.6784313917160034
0.7534482479095459 0.47497236728668213 0.29525691270828247 0.30588236451148987 0.30588236451148987 0.2980392277240753
0.8433497548103333 0.5438181161880493 0.9897233247756958 0.32549020648002625 0.3137255012989044 0.2862745225429535
0.9834975600242615 0.39475762844085693 0.9229248762130737 0.42352941632270813 0.4117647111415863 0.3450980484485626
0.81083744764328 0.4684983491897583 0.9897233247756958 0.239215686917305 0.2235294133424759 0.21176470816135406
0.8504925966262817 0.4792357385158539 0.9897233247756958 0.2235294133424759 0.2235294133424759 0.1921568661928177
0.8009852170944214 0.408179372549057 0.005928853526711464 0.6431372761726379 0.6196078658103943 0.5333333611488342
0.9206896424293518 0.4737091362476349 0.9893280863761902 0.3450980484485626 0.3294117748737335 0.2862745225429535
0.7980295419692993 0.5345017910003662 0.006719367578625679 0.5490196347236633 0.5254902243614197 0.4627451002597809
0.9748768210411072 0.45270803570747375 0.5683794617652893 0.6078431606292725 0.6313725709915161 0.6313725709915161
0.7598522305488586 0.5029212236404419 0.007905138656497002 0.13333334028720856 0.13333334028720856 0.125490203499794
0.9761083722114563 0.40596872568130493 0.4071146249771118 0.6666666865348816 0.686274528503418 0.6980392336845398
0.9763546586036682 0.44639191031455994 0.9885375499725342 0.27843138575553894 0.2705882489681244 0.21960784494876862
0.7857142686843872 0.4144954979419708 0.0063241105526685715 0.43921568989753723 0.41960784792900085 0.34117648005485535
0.9527093768119812 0.476077675819397 0.9889327883720398 0.3333333432674408 0.3176470696926117 0.2705882489681244
0.9798029661178589 0.4102321267127991 0.00909090880304575 0.38823530077934265 0.35686275362968445 0.2823529541492462
0.9775862097740173 0.43028581142425537 0.7272727489471436 0.5568627715110779 0.5607843399047852 0.5372549295425415
0.9763546586036682 0.529291033744812 0.6233201622962952 0.5803921818733215 0.6000000238418579 0.5843137502670288
0.7509852051734924 0.5236064791679382 0.0071146246045827866 0.25882354378700256 0.24313725531101227 0.20000000298023224
0.9839901328086853 0.5136586427688599 0.8735178112983704 0.501960813999176 0.48627451062202454 0.37254902720451355
0.7881773114204407 0.43297016620635986 0.9901185631752014 0.34117648005485535 0.3294117748737335 0.30980393290519714
0.984236478805542 0.488867849111557 0.9233201742172241 0.42352941632270813 0.4000000059604645 0.3450980484485626
0.9763546586036682 0.5144481062889099 0.40909090638160706 0.6470588445663452 0.6705882549285889 0.6705882549285889
0.9753694534301758 0.513027012348175 0.47826087474823 0.6274510025978088 0.6509804129600525 0.6431372761726379
0.8270936012268066 0.47781461477279663 0.0063241105526685715 0.5215686559677124 0.529411792755127 0.4431372582912445
0.9046797752380371 0.5327649116516113 0.0063241105526685715 0.529411792755127 0.5372549295425415 0.4431372582912445
0.9807881712913513 0.430127888917923 0.27391305565834045 0.7058823704719543 0.7176470756530762 0.6509804129600525
0.8209359645843506 0.45933997631073 0.0063241105526685715 0.6274510025978088 0.6000000238418579 0.529411792755127
0.821921169757843 0.45286592841148376 0.0063241105526685715 0.6000000238418579 0.5960784554481506 0.5176470875740051
0.9770935773849487 0.4942365288734436 0.694861650466919 0.5411764979362488 0.5647059082984924 0.5098039507865906
0.9763546586036682 0.4795515537261963 0.3845849931240082 0.6509804129600525 0.6745098233222961 0.6745098233222961
0.9729064106941223 0.5054476261138916 0.0063241105526685715 0.4156862795352936 0.4274509847164154 0.32156863808631897
0.8113300204277039 0.49028897285461426 0.006719367578625679 0.7019608020782471 0.6980392336845398 0.615686297416687
0.9386699795722961 0.5231328010559082 0.9897233247756958 0.29411765933036804 0.27843138575553894 0.24313725531101227
0.9815270900726318 0.518711507320404 0.05415019765496254 0.6117647290229797 0.6196078658103943 0.5254902243614197
0.9812808036804199 0.40596872568130493 0.8059288263320923 0.658823549747467 0.6627451181411743 0.6392157077789307
0.9763546586036682 0.43486499786376953 0.6474308371543884 0.5843137502670288 0.5921568870544434 0.5882353186607361
0.9571428298950195 0.44449707865715027 0.005928853526711464 0.5568627715110779 0.5764706134796143 0.4901960790157318
0.9753694534301758 0.40644243359565735 0.4849802255630493 0.6274510025978088 0.6627451181411743 0.658823549747467
0.7440886497497559 0.5337123274803162 0.0071146246045827866 0.2705882489681244 0.2549019753932953 0.2078431397676468
0.9751231670379639 0.4002842307090759 0.5181818008422852 0.6235294342041016 0.658823549747467 0.6470588445663452
0.9317734241485596 0.5139744281768799 0.9893280863761902 0.32156863808631897 0.3137255012989044 0.26274511218070984
0.9539408683776855 0.5468182563781738 0.9901185631752014 0.30980393290519714 0.3019607961177826 0.2549019753932953
0.9748768210411072 0.47291961312294006 0.5624505877494812 0.6000000238418579 0.6235294342041016 0.615686297416687
0.7743842601776123 0.42949628829956055 0.006719367578625679 0.3843137323856354 0.35686275362968445 0.2823529541492462
0.8211822509765625 0.54018634557724 0.006719367578625679 0.7098039388656616 0.7098039388656616 0.6000000238418579
0.9709359407424927 0.41844308376312256 0.31936758756637573 0.5411764979362488 0.545098066329956 0.48235294222831726
0.9768472909927368 0.5212379693984985 0.3861660063266754 0.658823549747467 0.6823529601097107 0.6823529601097107
0.75 0.453971266746521 0.007509881630539894 0.23137255012989044 0.2235294133424759 0.1725490242242813
0.9812808036804199 0.4051792323589325 0.13715414702892303 0.7019608020782471 0.7098039388656616 0.6274510025978088
0.9758620858192444 0.4479709565639496 0.6181818246841431 0.5921568870544434 0.6000000238418579 0.5882353186607361
0.7692118287086487 0.4056529402732849 0.9905138611793518 0.3803921639919281 0.35686275362968445 0.364705890417099
0.8977832794189453 0.5420811772346497 0.9901185631752014 0.3137255012989044 0.3019607961177826 0.2666666805744171
0.9078817963600159 0.4939207434654236 0.0063241105526685715 0.6000000238418579 0.6039215922355652 0.47843137383461
0.9756157398223877 0.44749724864959717 0.6059288382530212 0.5960784554481506 0.6039215922355652 0.6000000238418579
0.8120689392089844 0.4228643476963043 0.0063241105526685715 0.5529412031173706 0.529411792755127 0.4431372582912445
0.9805418848991394 0.4088110029697418 0.032015811651945114 0.3137255012989044 0.2862745225429535 0.2235294133424759
0.7884236574172974 0.45855045318603516 0.0071146246045827866 0.4745098054409027 0.46666666865348816 0.3686274588108063
0.9837438464164734 0.4718143045902252 0.8889328241348267 0.47058823704719543 0.4470588266849518 0.3843137323856354
0.9012315273284912 0.3993368148803711 0.0063241105526685715 0.6431372761726379 0.6235294342041016 0.545098066329956
0.829802930355072 0.40438970923423767 0.9901185631752014 0.3686274588108063 0.35686275362968445 0.33725491166114807
0.9810344576835632 0.4711827039718628 0.10039525479078293 0.6901960968971252 0.7137255072593689 0.6117647290229797
0.9768472909927368 0.5041844248771667 0.34664031863212585 0.7254902124404907 0.7607843279838562 0.7490196228027344
0.9844827651977539 0.483499139547348 0.9529644250869751 0.3686274588108063 0.3450980484485626 0.29019609093666077
0.9748768210411072 0.44923415780067444 0.4837944805622101 0.6196078658103943 0.6431372761726379 0.6431372761726379
0.7431034445762634 0.46123480796813965 0.22569170594215393 0.1568627506494522 0.1568627506494522 0.14901961386203766
0.7465517520904541 0.4345491826534271 0.29881423711776733 0.364705890417099 0.3843137323856354 0.4000000059604645
0.9298029541969299 0.4716564118862152 0.9893280863761902 0.33725491166114807 0.32156863808631897 0.27450981736183167
0.798275887966156 0.43202275037765503 0.006719367578625679 0.4901960790157318 0.4627451002597809 0.3607843220233917
0.9810344576835632 0.40107375383377075 0.16403162479400635 0.7098039388656616 0.7176470756530762 0.6352941393852234
0.9748768210411072 0.39554712176322937 0.5264822244644165 0.6235294342041016 0.658823549747467 0.6549019813537598
0.9812808036804199 0.546344518661499 0.29407113790512085 0.501960813999176 0.49803921580314636 0.38823530077934265
0.9283251166343689 0.43470707535743713 0.9889327883720398 0.3450980484485626 0.3294117748737335 0.2823529541492462
0.8679803013801575 0.49265751242637634 0.9897233247756958 0.2235294133424759 0.2235294133424759 0.1921568661928177
0.7706896662712097 0.39838939905166626 0.9909090995788574 0.3843137323856354 0.364705890417099 0.3529411852359772
0.7901477813720703 0.5196589231491089 0.9897233247756958 0.24313725531101227 0.23137255012989044 0.20392157137393951
0.982758641242981 0.4857097864151001 0.9810276627540588 0.32156863808631897 0.2980392277240753 0.24313725531101227
0.9812808036804199 0.39854729175567627 0.14861659705638885 0.7137255072593689 0.7098039388656616 0.6274510025978088
0.7628079056739807 0.47560396790504456 0.9897233247756958 0.25882354378700256 0.24313725531101227 0.23137255012989044
0.9810344576835632 0.4628138244152069 0.12648221850395203 0.6980392336845398 0.7137255072593689 0.6235294342041016
0.8177340030670166 0.4504973888397217 0.0063241105526685715 0.5411764979362488 0.529411792755127 0.45490196347236633
0.7817733883857727 0.4707089960575104 0.0071146246045827866 0.4470588266849518 0.43529412150382996 0.3607843220233917
0.9807881712913513 0.4620243310928345 0.2592885494232178 0.686274528503418 0.6941176652908325 0.6117647290229797
0.984236478805542 0.5022895932197571 0.895652174949646 0.46666666865348816 0.4431372582912445 0.35686275362968445
0.9815270900726318 0.5313437581062317 0.14387351274490356 0.6666666865348816 0.6823529601097107 0.5843137502670288
0.8943349719047546 0.42349597811698914 0.005533596966415644 0.49803921580314636 0.4941176474094391 0.4117647111415863
0.9761083722114563 0.5474498867988586 0.5972331762313843 0.6039215922355652 0.6274510025978088 0.6117647290229797
0.9839901328086853 0.5384494066238403 0.8695651888847351 0.5137255191802979 0.48627451062202454 0.3843137323856354
0.9812808036804199 0.42365387082099915 0.06521739065647125 0.6823529601097107 0.6980392336845398 0.6000000238418579
0.9027093648910522 0.4735512435436249 0.9897233247756958 0.3294117748737335 0.32156863808631897 0.27450981736183167
0.9224137663841248 0.49265751242637634 0.0063241105526685715 0.5058823823928833 0.5176470875740051 0.40392157435417175
0.9761083722114563 0.4546028673648834 0.3901185691356659 0.6627451181411743 0.686274528503418 0.686274528503418
0.7541871666908264 0.4721301198005676 0.29011857509613037 0.21960784494876862 0.21568627655506134 0.19607843458652496
0.738916277885437 0.5202905535697937 0.2770751118659973 0.10196078568696976 0.10196078568696976 0.0941176488995552
0.9098522067070007 0.43770724534988403 0.005533596966415644 0.5803921818733215 0.5960784554481506 0.49803921580314636
0.9182265996932983 0.5071845650672913 0.9897233247756958 0.3137255012989044 0.3137255012989044 0.2666666805744171
0.9815270900726318 0.546186625957489 0.16956521570682526 0.6627451181411743 0.6823529601097107 0.5960784554481506
0.9766010046005249 0.5441339015960693 0.40355730056762695 0.6745098233222961 0.6980392336845398 0.6980392336845398
0.9403941035270691 0.39728406071662903 0.005928853526711464 0.501960813999176 0.4901960790157318 0.4156862795352936
0.9770935773849487 0.5442917943000793 0.6600790619850159 0.7254902124404907 0.7450980544090271 0.7686274647712708
0.9812808036804199 0.5275540947914124 0.17905138432979584 0.6666666865348816 0.6901960968971252 0.5882353186607361
0.9763546586036682 0.5439760088920593 0.42964425683021545 0.658823549747467 0.6823529601097107 0.6823529601097107
0.9815270900726318 0.4054950177669525 0.07470355927944183 0.6901960968971252 0.6980392336845398 0.6117647290229797
0.9756157398223877 0.4823938012123108 0.6086956262588501 0.5843137502670288 0.5921568870544434 0.572549045085907
0.7640393972396851 0.5453971028327942 0.0063241105526685715 0.4313725531101227 0.40392157435417175 0.34117648005485535
0.9751231670379639 0.5236064791679382 0.4956521689891815 0.6235294342041016 0.6470588445663452 0.6470588445663452
0.8871921300888062 0.5283436179161072 0.9897233247756958 0.34117648005485535 0.34117648005485535 0.29411765933036804
0.9539408683776855 0.4285488724708557 0.005533596966415644 0.5058823823928833 0.5176470875740051 0.45098039507865906
0.8908867239952087 0.5016579627990723 0.9897233247756958 0.2078431397676468 0.21568627655506134 0.1725490242242813
0.898522138595581 0.4222327470779419 0.005533596966415644 0.4941176474094391 0.4901960790157318 0.40784314274787903
0.9812808036804199 0.5123953819274902 0.10750988125801086 0.6666666865348816 0.686274528503418 0.5960784554481506
0.9756157398223877 0.5059213638305664 0.5802371501922607 0.5803921818733215 0.6039215922355652 0.5960784554481506
0.7899014949798584 0.4054950177669525 0.9905138611793518 0.3843137323856354 0.37254902720451355 0.3529411852359772
0.9839901328086853 0.4512869119644165 0.9280632138252258 0.4117647111415863 0.3803921639919281 0.33725491166114807
0.9807881712913513 0.4053371250629425 0.20592884719371796 0.7176470756530762 0.729411780834198 0.6627451181411743
0.9839901328086853 0.54066002368927 0.8533596992492676 0.5254902243614197 0.5058823823928833 0.3921568691730499
0.7554187178611755 0.4399178922176361 0.1608695685863495 0.11764705926179886 0.125490203499794 0.12156862765550613
0.9780788421630859 0.42618033289909363 0.7648221254348755 0.5568627715110779 0.5607843399047852 0.5411764979362488
0.9770935773849487 0.5386072993278503 0.36679843068122864 0.686274528503418 0.7058823704719543 0.7176470756530762
0.754679799079895 0.5419232845306396 0.28300395607948303 0.14901961386203766 0.14901961386203766 0.11764705926179886
0.8832512497901917 0.4339175820350647 0.005533596966415644 0.4745098054409027 0.4901960790157318 0.42352941632270813
0.9810344576835632 0.4877625107765198 0.1928853690624237 0.686274528503418 0.7019608020782471 0.6039215922355652
0.9763546586036682 0.5026053786277771 0.6494070887565613 0.7647058963775635 0.7803921699523926 0.7764706015586853
0.9810344576835632 0.45491868257522583 0.145454540848732 0.6980392336845398 0.7058823704719543 0.6235294342041016
0.9753694534301758 0.4372335374355316 0.44426876306533813 0.6431372761726379 0.6666666865348816 0.658823549747467
0.8738916516304016 0.5201326608657837 0.0063241105526685715 0.5372549295425415 0.5333333611488342 0.42352941632270813
0.9773399233818054 0.5371861457824707 0.3549407124519348 0.7333333492279053 0.7568627595901489 0.7490196228027344
0.9753694534301758 0.40123164653778076 0.34189721941947937 0.6627451181411743 0.6980392336845398 0.686274528503418
0.7391625642776489 0.5234485864639282 0.2964426875114441 0.0470588244497776 0.062745101749897 0.05882352963089943
0.7418718934059143 0.47260382771492004 0.21106719970703125 0.10196078568696976 0.10588235408067703 0.08627451211214066
0.9807881712913513 0.45302385091781616 0.21581028401851654 0.7019608020782471 0.6980392336845398 0.6196078658103943
0.9719212055206299 0.4309174120426178 0.9881423115730286 0.3137255012989044 0.2980392277240753 0.2549019753932953
0.9810344576835632 0.46739301085472107 0.072727270424366 0.7254902124404907 0.7607843279838562 0.6470588445663452
0.7512315511703491 0.4743407666683197 0.9897233247756958 0.3176470696926117 0.3176470696926117 0.30980393290519714
0.9834975600242615 0.5523448586463928 0.8185770511627197 0.5411764979362488 0.5254902243614197 0.4117647111415863
0.8783251047134399 0.40707406401634216 0.9901185631752014 0.40784314274787903 0.38823530077934265 0.364705890417099
0.9837438464164734 0.54050213098526 0.8292490243911743 0.5372549295425415 0.5254902243614197 0.40392157435417175
0.8179802894592285 0.5375019907951355 0.0063241105526685715 0.6666666865348816 0.6627451181411743 0.5529412031173706
0.9798029661178589 0.46060317754745483 0.792094886302948 0.5686274766921997 0.5568627715110779 0.5215686559677124
0.8753694295883179 0.49613136053085327 0.9897233247756958 0.2549019753932953 0.25882354378700256 0.22745098173618317
0.9817733764648438 0.4713405966758728 0.8079051375389099 0.501960813999176 0.5098039507865906 0.4588235318660736
0.9815270900726318 0.5453971028327942 0.11146245151758194 0.6627451181411743 0.686274528503418 0.5843137502670288
0.9822660088539124 0.46644559502601624 0.8106719255447388 0.5215686559677124 0.5411764979362488 0.4627451002597809
0.9815270900726318 0.42349597811698914 0.05612648278474808 0.6627451181411743 0.6705882549285889 0.5764706134796143
0.8004925847053528 0.39554712176322937 0.005928853526711464 0.4901960790157318 0.48235294222831726 0.3921568691730499
0.8539409041404724 0.4721301198005676 0.9897233247756958 0.2078431397676468 0.20000000298023224 0.15294118225574493
0.9756157398223877 0.4023369550704956 0.5988142490386963 0.615686297416687 0.6392157077789307 0.6392157077789307
0.9721674919128418 0.5103426575660706 0.33043476939201355 0.34117648005485535 0.364705890417099 0.32549020648002625
0.9243842363357544 0.45255014300346375 0.9893280863761902 0.3450980484485626 0.3294117748737335 0.2862745225429535
0.9810344576835632 0.5166587829589844 0.2762845754623413 0.6509804129600525 0.6627451181411743 0.5882353186607361
0.9492610692977905 0.5468182563781738 0.9901185631752014 0.32156863808631897 0.30588236451148987 0.25882354378700256
0.9812808036804199 0.5100268721580505 0.1359683722257614 0.6666666865348816 0.6901960968971252 0.5882353186607361
0.9812808036804199 0.44449707865715027 0.04110671952366829 0.27450981736183167 0.2666666805744171 0.1764705926179886
0.9761083722114563 0.4159166216850281 0.4122529625892639 0.658823549747467 0.6941176652908325 0.6901960968971252
0.9770935773849487 0.45270803570747375 0.7011857628822327 0.5686274766921997 0.5647059082984924 0.545098066329956
0.7615763545036316 0.46407705545425415 0.31027668714523315 0.37254902720451355 0.38823530077934265 0.3921568691730499
0.9810344576835632 0.5007105469703674 0.1762845814228058 0.6823529601097107 0.6980392336845398 0.6000000238418579
0.871921181678772 0.5400283932685852 0.9897233247756958 0.33725491166114807 0.32549020648002625 0.2980392277240753
0.9810344576835632 0.39538922905921936 0.19407114386558533 0.7254902124404907 0.7372549176216125 0.6705882549285889
0.7536945939064026 0.5507658123970032 0.0063241105526685715 0.34117648005485535 0.3333333432674408 0.2862745225429535
0.9807881712913513 0.4598136842250824 0.22213438153266907 0.6901960968971252 0.6980392336845398 0.615686297416687
0.9832512140274048 0.43518081307411194 0.8403161764144897 0.5215686559677124 0.501960813999176 0.42352941632270813
0.8315271139144897 0.48649927973747253 0.0063241105526685715 0.5490196347236633 0.5647059082984924 0.4588235318660736
0.9810344576835632 0.4116532504558563 0.12845849990844727 0.7098039388656616 0.7058823704719543 0.6352941393852234
0.9736453294754028 0.54018634557724 0.30988141894340515 0.5568627715110779 0.5607843399047852 0.49803921580314636
0.7785714268684387 0.4249171018600464 0.006719367578625679 0.42352941632270813 0.4117647111415863 0.3529411852359772
0.9817733764648438 0.546344518661499 0.08577074855566025 0.7098039388656616 0.7372549176216125 0.615686297416687
0.753201961517334 0.5496605038642883 0.0063241105526685715 0.3607843220233917 0.3450980484485626 0.2980392277240753
0.9812808036804199 0.5318174362182617 0.18656127154827118 0.658823549747467 0.6784313917160034 0.5921568870544434
0.9844827651977539 0.5168166756629944 0.9217391014099121 0.45098039507865906 0.42352941632270813 0.3490196168422699
0.9815270900726318 0.5225011706352234 0.058102767914533615 0.7764706015586853 0.7921568751335144 0.686274528503418
0.9758620858192444 0.4948681592941284 0.43478259444236755 0.6313725709915161 0.6509804129600525 0.6627451181411743
0.9697044491767883 0.5202905535697937 0.0063241105526685715 0.501960813999176 0.5176470875740051 0.4274509847164154
0.8317734003067017 0.43470707535743713 0.9901185631752014 0.34117648005485535 0.32156863808631897 0.2980392277240753
0.9753694534301758 0.5003947615623474 0.47075098752975464 0.6117647290229797 0.6470588445663452 0.6431372761726379
0.9753694534301758 0.41196906566619873 0.5861660242080688 0.6117647290229797 0.6352941393852234 0.6352941393852234
0.9844827651977539 0.5322911739349365 0.9094861745834351 0.47058823704719543 0.4470588266849518 0.3529411852359772
0.748275876045227 0.5340281128883362 0.16245059669017792 0.11372549086809158 0.13333334028720856 0.10588235408067703
0.9756157398223877 0.4138638973236084 0.46047431230545044 0.6431372761726379 0.6784313917160034 0.6745098233222961
0.9812808036804199 0.47323542833328247 0.04782608523964882 0.250980406999588 0.239215686917305 0.1725490242242813
0.9812808036804199 0.4222327470779419 0.08972331881523132 0.6941176652908325 0.7019608020782471 0.6196078658103943
0.9497537016868591 0.5502921342849731 0.0063241105526685715 0.38823530077934265 0.3803921639919281 0.2823529541492462
0.9832512140274048 0.41575872898101807 0.8616600632667542 0.4941176474094391 0.4745098054409027 0.4000000059604645
0.9807881712913513 0.43265435099601746 0.22015810012817383 0.7137255072593689 0.7098039388656616 0.6392157077789307
0.9246305227279663 0.5155534744262695 0.0063241105526685715 0.5176470875740051 0.5176470875740051 0.4156862795352936
0.9778324961662292 0.5499762892723083 0.7245059013366699 0.5490196347236633 0.5686274766921997 0.5411764979362488
0.8761083483695984 0.4909205734729767 0.9897233247756958 0.2235294133424759 0.23137255012989044 0.18039216101169586
0.9839901328086853 0.4744986593723297 0.89486163854599 0.4588235318660736 0.43529412150382996 0.3803921639919281
0.9807881712913513 0.4973945915699005 0.25889328122138977 0.6627451181411743 0.6784313917160034 0.6117647290229797
0.9773399233818054 0.5471340417861938 0.3636363744735718 0.6980392336845398 0.729411780834198 0.7411764860153198
0.9753694534301758 0.4880783259868622 0.591304361820221 0.5882353186607361 0.6117647290229797 0.6039215922355652
0.866995096206665 0.4563398063182831 0.9897233247756958 0.250980406999588 0.24313725531101227 0.19607843458652496
0.9812808036804199 0.44702354073524475 0.04308300465345383 0.29019609093666077 0.2862745225429535 0.1764705926179886
0.9753694534301758 0.4017053544521332 0.48695650696754456 0.6196078658103943 0.6509804129600525 0.658823549747467
0.9775862097740173 0.507500410079956 0.7185770869255066 0.529411792755127 0.5529412031173706 0.49803921580314636
0.9775862097740173 0.5062371492385864 0.7098814249038696 0.529411792755127 0.5529412031173706 0.49803921580314636
0.9847290515899658 0.5329228043556213 0.926877498626709 0.4588235318660736 0.43529412150382996 0.3490196168422699
0.9748768210411072 0.4590241611003876 0.4948616623878479 0.6117647290229797 0.6352941393852234 0.6352941393852234
0.9798029661178589 0.4282330572605133 0.7944663763046265 0.545098066329956 0.5490196347236633 0.5254902243614197
0.9832512140274048 0.4620243310928345 0.8454545736312866 0.5215686559677124 0.501960813999176 0.42352941632270813
0.9839901328086853 0.5466603636741638 0.856521725654602 0.5176470875740051 0.49803921580314636 0.3803921639919281
0.7751231789588928 0.4285488724708557 0.006719367578625679 0.3960784375667572 0.3686274588108063 0.29411765933036804
0.9738916158676147 0.5090793967247009 0.33675888180732727 0.6470588445663452 0.6509804129600525 0.658823549747467
0.9751231670379639 0.4822359085083008 0.5671936869621277 0.6078431606292725 0.6235294342041016 0.6196078658103943
0.7635468244552612 0.4313911199569702 0.9901185631752014 0.3843137323856354 0.3686274588108063 0.35686275362968445
0.9810344576835632 0.499921053647995 0.23280632495880127 0.6627451181411743 0.6823529601097107 0.6039215922355652
0.8778325319290161 0.40123164653778076 0.9901185631752014 0.3960784375667572 0.3764705955982208 0.3529411852359772
0.9684728980064392 0.454129159450531 0.005928853526711464 0.45490196347236633 0.4588235318660736 0.38823530077934265
0.8337438702583313 0.47007736563682556 0.9897233247756958 0.20392157137393951 0.19607843458652496 0.14901961386203766
0.8482758402824402 0.48065686225891113 0.0063241105526685715 0.6235294342041016 0.6235294342041016 0.529411792755127
0.9844827651977539 0.4576030373573303 0.968774676322937 0.3529411852359772 0.3294117748737335 0.2823529541492462
0.7970443367958069 0.47023528814315796 0.9897233247756958 0.22745098173618317 0.21568627655506134 0.19607843458652496
0.9768472909927368 0.48207801580429077 0.6715415120124817 0.5529412031173706 0.5764706134796143 0.5372549295425415
0.9810344576835632 0.42918047308921814 0.14822134375572205 0.7098039388656616 0.7058823704719543 0.6352941393852234
0.9832512140274048 0.4100742042064667 0.9154150485992432 0.43921568989753723 0.40784314274787903 0.364705890417099
0.7495073676109314 0.43297016620635986 0.2754940688610077 0.14509804546833038 0.14509804546833038 0.13725490868091583
0.8438423871994019 0.44354966282844543 0.005928853526711464 0.545098066329956 0.5607843399047852 0.47058823704719543
0.9807881712913513 0.49281540513038635 0.27272728085517883 0.6627451181411743 0.6784313917160034 0.6196078658103943
0.871921181678772 0.4656561017036438 0.005928853526711464 0.5686274766921997 0.5843137502670288 0.48627451062202454
0.9773399233818054 0.4624980390071869 0.7027667760848999 0.5686274766921997 0.5764706134796143 0.5333333611488342
0.9810344576835632 0.48128849267959595 0.15375493466854095 0.6823529601097107 0.6980392336845398 0.6078431606292725
0.9475369453430176 0.4249171018600464 0.005533596966415644 0.45098039507865906 0.45490196347236633 0.3843137323856354
0.9807881712913513 0.42633822560310364 0.2861660122871399 0.6509804129600525 0.6509804129600525 0.5411764979362488
0.9812808036804199 0.47828832268714905 0.04071146249771118 0.2549019753932953 0.239215686917305 0.1921568661928177
0.9078817963600159 0.43818095326423645 0.005533596966415644 0.5372549295425415 0.5333333611488342 0.45098039507865906
0.9834975600242615 0.40107375383377075 0.9106719493865967 0.43529412150382996 0.42352941632270813 0.364705890417099
0.8871921300888062 0.4691299498081207 0.9897233247756958 0.19607843458652496 0.19607843458652496 0.14901961386203766
0.9652709364891052 0.5493447184562683 0.9901185631752014 0.27843138575553894 0.2666666805744171 0.2078431397676468
0.75935959815979 0.4446549713611603 0.9901185631752014 0.30588236451148987 0.29019609093666077 0.27843138575553894
0.7492610812187195 0.4599715769290924 0.007509881630539894 0.2705882489681244 0.2549019753932953 0.2078431397676468
0.9810344576835632 0.43202275037765503 0.13675889372825623 0.7176470756530762 0.7137255072593689 0.6431372761726379
0.94852215051651 0.489183634519577 0.9893280863761902 0.3294117748737335 0.3137255012989044 0.2666666805744171
0.9825122952461243 0.5389230847358704 0.939920961856842 0.3843137323856354 0.364705890417099 0.2862745225429535
0.8201970458030701 0.5195010304450989 0.006719367578625679 0.5921568870544434 0.5960784554481506 0.47058823704719543
0.9768472909927368 0.5253434181213379 0.3853754997253418 0.658823549747467 0.6784313917160034 0.6941176652908325
0.9761083722114563 0.4173377454280853 0.40909090638160706 0.6666666865348816 0.6901960968971252 0.6901960968971252
0.9810344576835632 0.44702354073524475 0.12213438749313354 0.7058823704719543 0.7098039388656616 0.6470588445663452
0.9810344576835632 0.4740249514579773 0.17588932812213898 0.6941176652908325 0.7019608020782471 0.615686297416687
0.7490147948265076 0.5046581625938416 0.007905138656497002 0.3450980484485626 0.3333333432674408 0.27450981736183167
0.9807881712913513 0.4372335374355316 0.23833991587162018 0.7098039388656616 0.7058823704719543 0.6352941393852234
0.748275876045227 0.5453971028327942 0.3023715317249298 0.3490196168422699 0.35686275362968445 0.33725491166114807
0.9428571462631226 0.5131849050521851 0.9893280863761902 0.34117648005485535 0.3333333432674408 0.2862745225429535
0.8519704341888428 0.551713228225708 0.9897233247756958 0.3490196168422699 0.33725491166114807 0.3176470696926117
0.9807881712913513 0.4225485622882843 0.17944663763046265 0.7098039388656616 0.7058823704719543 0.6274510025978088
0.9830049276351929 0.529922604560852 0.8150197863578796 0.5529412031173706 0.5372549295425415 0.42352941632270813
0.7487684488296509 0.4560239911079407 0.30395257472991943 0.05882352963089943 0.05882352963089943 0.05882352963089943
0.7458128333091736 0.5150797367095947 0.007509881630539894 0.20000000298023224 0.20000000298023224 0.16078431904315948
0.9834975600242615 0.41496920585632324 0.9300395250320435 0.4274509847164154 0.40392157435417175 0.35686275362968445
0.9770935773849487 0.402494877576828 0.6818181872367859 0.572549045085907 0.5960784554481506 0.5960784554481506
0.9746305346488953 0.43502289056777954 0.5332015752792358 0.6196078658103943 0.6352941393852234 0.6313725709915161
0.9197044372558594 0.5206063389778137 0.9897233247756958 0.34117648005485535 0.3333333432674408 0.2862745225429535
0.9832512140274048 0.49881571531295776 0.8249011635780334 0.5529412031173706 0.5372549295425415 0.42352941632270813
0.9810344576835632 0.4544449746608734 0.18300394713878632 0.7019608020782471 0.6980392336845398 0.6196078658103943
0.7522167563438416 0.5340281128883362 0.9897233247756958 0.30980393290519714 0.30980393290519714 0.27843138575553894
0.9763546586036682 0.535291314125061 0.6201580762863159 0.5882353186607361 0.6078431606292725 0.5921568870544434
0.9704433679580688 0.49518394470214844 0.9893280863761902 0.3176470696926117 0.30588236451148987 0.24705882370471954
0.9169950485229492 0.518711507320404 0.9897233247756958 0.3529411852359772 0.3450980484485626 0.2980392277240753
0.7623152732849121 0.45791885256767273 0.9901185631752014 0.26274511218070984 0.250980406999588 0.23137255012989044
0.8034482598304749 0.5010263919830322 0.9897233247756958 0.18039216101169586 0.16862745583057404 0.14901961386203766
0.8524630665779114 0.4373914301395416 0.9897233247756958 0.29411765933036804 0.2823529541492462 0.2549019753932953
0.748275876045227 0.44386547803878784 0.14822134375572205 0.1764705926179886 0.1921568661928177 0.1882352977991104
0.9761083722114563 0.534975528717041 0.6079051494598389 0.5960784554481506 0.6196078658103943 0.6117647290229797
0.9810344576835632 0.5157113671302795 0.04308300465345383 0.250980406999588 0.24705882370471954 0.16862745583057404
0.9834975600242615 0.448444664478302 0.8928853869438171 0.45098039507865906 0.43921568989753723 0.3803921639919281
0.9815270900726318 0.551555335521698 0.2185770720243454 0.6705882549285889 0.6823529601097107 0.6078431606292725
0.9807881712913513 0.4315490424633026 0.1818181872367859 0.7176470756530762 0.7098039388656616 0.6509804129600525
0.8697044253349304 0.4770251214504242 0.9897233247756958 0.24705882370471954 0.23529411852359772 0.21568627655506134
0.9807881712913513 0.43218064308166504 0.23280632495880127 0.7058823704719543 0.7098039388656616 0.6392157077789307
0.9554187059402466 0.49613136053085327 0.0063241105526685715 0.5058823823928833 0.5411764979362488 0.4588235318660736
0.9766010046005249 0.4394441843032837 0.3592885434627533 0.7058823704719543 0.7372549176216125 0.7450980544090271
0.9807881712913513 0.4100742042064667 0.19960474967956543 0.7058823704719543 0.7176470756530762 0.6509804129600525
0.8418719172477722 0.48144638538360596 0.0063241105526685715 0.5176470875740051 0.5137255191802979 0.40392157435417175
0.8177340030670166 0.5010263919830322 0.9897233247756958 0.25882354378700256 0.24705882370471954 0.21960784494876862
0.9770935773849487 0.5449234247207642 0.37272727489471436 0.6901960968971252 0.7098039388656616 0.7215686440467834
0.9810344576835632 0.4563398063182831 0.06086956337094307 0.7098039388656616 0.729411780834198 0.6392157077789307
0.8982758522033691 0.40107375383377075 0.005928853526711464 0.5882353186607361 0.5803921818733215 0.4901960790157318
0.9783251285552979 0.5046581625938416 0.760079026222229 0.5372549295425415 0.5647059082984924 0.501960813999176
0.9413793087005615 0.46691930294036865 0.9893280863761902 0.3333333432674408 0.3176470696926117 0.27450981736183167
0.7576354742050171 0.42096951603889465 0.9905138611793518 0.3764705955982208 0.3607843220233917 0.35686275362968445
0.9844827651977539 0.507500410079956 0.9375494122505188 0.42352941632270813 0.3960784375667572 0.3333333432674408
0.7701970338821411 0.5504500269889832 0.9897233247756958 0.3294117748737335 0.3176470696926117 0.2980392277240753
0.8633005023002625 0.5195010304450989 0.0063241105526685715 0.5843137502670288 0.5960784554481506 0.4901960790157318
0.9761083722114563 0.5041844248771667 0.6249011754989624 0.6352941393852234 0.6509804129600525 0.6470588445663452
0.8724138140678406 0.45523449778556824 0.9897233247756958 0.2549019753932953 0.24705882370471954 0.20000000298023224
0.9812808036804199 0.4771830141544342 0.05059288442134857 0.25882354378700256 0.24705882370471954 0.1725490242242813
0.8435960412025452 0.397126168012619 0.005928853526711464 0.6470588445663452 0.6235294342041016 0.5607843399047852
0.9768472909927368 0.5319753885269165 0.38774704933166504 0.6666666865348816 0.686274528503418 0.6980392336845398
0.9761083722114563 0.41544291377067566 0.4047430753707886 0.6627451181411743 0.6980392336845398 0.6941176652908325
0.9844827651977539 0.45855045318603516 0.9869565367698669 0.32156863808631897 0.2980392277240753 0.24313725531101227
0.9618226885795593 0.3968103528022766 0.005928853526711464 0.42352941632270813 0.43921568989753723 0.3490196168422699
0.8871921300888062 0.42144322395324707 0.005533596966415644 0.5921568870544434 0.5803921818733215 0.5058823823928833
0.9778324961662292 0.448444664478302 0.7462450861930847 0.5607843399047852 0.5647059082984924 0.545098066329956
0.829802930355072 0.44670772552490234 0.9897233247756958 0.239215686917305 0.22745098173618317 0.1921568661928177
0.947044312953949 0.3991788923740387 0.005928853526711464 0.48235294222831726 0.4627451002597809 0.38823530077934265
0.9763546586036682 0.3991788923740387 0.6411067247390747 0.6039215922355652 0.6235294342041016 0.6352941393852234
