0.703201949596405 0.9955787062644958 0.970355749130249 0.529411792755127 0.5411764979362488 0.4588235318660736
0.7857142686843872 0.9456813335418701 0.9881423115730286 0.48235294222831726 0.4627451002597809 0.38823530077934265
0.8480295538902283 0.9987367987632751 0.8592885136604309 0.5215686559677124 0.4745098054409027 0.38823530077934265
0.7399014830589294 0.9647876024246216 0.9877470135688782 0.43921568989753723 0.43529412150382996 0.35686275362968445
0.7598522305488586 0.9505763649940491 0.35059288144111633 0.6470588445663452 0.4470588266849518 0.27843138575553894
0.7300492525100708 0.9965261220932007 0.43438735604286194 0.6745098233222961 0.6901960968971252 0.6000000238418579
0.6162561774253845 0.9974735379219055 0.2494071125984192 0.7254902124404907 0.7176470756530762 0.658823549747467
0.6778324842453003 0.9976314306259155 0.1920948624610901 0.7333333492279053 0.7450980544090271 0.6392157077789307
0.7073891758918762 0.9955787062644958 0.5573122501373291 0.7058823704719543 0.7254902124404907 0.7411764860153198
0.7674877047538757 0.9979472756385803 0.3185770809650421 0.615686297416687 0.6000000238418579 0.5529412031173706
0.7766009569168091 0.9982630610466003 0.42332014441490173 0.5607843399047852 0.5372549295425415 0.4431372582912445
0.7253694534301758 0.9368388056755066 0.24308300018310547 0.16862745583057404 0.1921568661928177 0.18431372940540314
0.6320196986198425 0.9343123435974121 0.007905138656497002 0.30588236451148987 0.3137255012989044 0.22745098173618317
0.7051724195480347 0.9966840147972107 0.9245059490203857 0.3843137323856354 0.3607843220233917 0.27450981736183167
0.7492610812187195 0.9346281290054321 0.19446639716625214 0.2705882489681244 0.2823529541492462 0.24705882370471954
0.7857142686843872 0.9984209537506104 0.4845849871635437 0.43921568989753723 0.4313725531101227 0.34117648005485535
0.8583743572235107 0.9974735379219055 0.048616599291563034 0.054901961237192154 0.0470588244497776 0.05098039284348488
0.814039409160614 0.9982630610466003 0.32964426279067993 0.38823530077934265 0.35686275362968445 0.2666666805744171
0.7581281065940857 0.9494709968566895 0.813043475151062 0.572549045085907 0.5333333611488342 0.43529412150382996
0.7544335126876831 0.9979472756385803 0.20079050958156586 0.6549019813537598 0.6705882549285889 0.5803921818733215
0.7115763425827026 0.9954208135604858 0.49723321199417114 0.6980392336845398 0.729411780834198 0.7411764860153198
0.6652709245681763 0.9965261220932007 0.717391312122345 0.6509804129600525 0.6705882549285889 0.6823529601097107
0.8463054299354553 0.9551555514335632 0.7245059013366699 0.529411792755127 0.3803921639919281 0.239215686917305
0.6605911254882812 0.9711037278175354 0.9169960618019104 0.45490196347236633 0.4627451002597809 0.41960784792900085
0.693842351436615 0.9586294293403625 0.9881423115730286 0.4117647111415863 0.38823530077934265 0.32549020648002625
0.7780787944793701 0.9459971785545349 0.20197628438472748 0.239215686917305 0.16078431904315948 0.11764705926179886
0.639162540435791 0.9957365989685059 0.6229249238967896 0.686274528503418 0.7176470756530762 0.7254902124404907
0.8275862336158752 0.9979472756385803 0.9375494122505188 0.501960813999176 0.47058823704719543 0.3960784375667572
0.685960590839386 0.9951050281524658 0.4533596932888031 0.7176470756530762 0.7490196228027344 0.7607843279838562
0.7768473029136658 0.9982630610466003 0.48774704337120056 0.5176470875740051 0.5058823823928833 0.4313725531101227
0.7903940677642822 0.9257855415344238 0.007905138656497002 0.45098039507865906 0.4117647111415863 0.364705890417099
0.8248768448829651 0.9984209537506104 0.3944664001464844 0.3490196168422699 0.3176470696926117 0.22745098173618317
0.7832512259483337 0.9984209537506104 0.48735177516937256 0.46666666865348816 0.4470588266849518 0.3607843220233917
0.7396551966667175 0.9971577525138855 0.9256917238235474 0.4313725531101227 0.41960784792900085 0.3607843220233917
0.6160098314285278 0.9459971785545349 0.9881423115730286 0.38823530077934265 0.3960784375667572 0.3450980484485626
0.8086206912994385 0.9494709968566895 0.31422924995422363 0.7137255072593689 0.43921568989753723 0.16862745583057404
0.6514778137207031 0.9339964985847473 0.007905138656497002 0.43529412150382996 0.4274509847164154 0.3450980484485626
0.7310344576835632 0.9396810531616211 0.20158103108406067 0.250980406999588 0.27843138575553894 0.24705882370471954
0.6541872024536133 0.897205114364624 0.29920947551727295 0.23137255012989044 0.2705882489681244 0.27450981736183167
0.7290640473365784 0.9579977989196777 0.9877470135688782 0.40392157435417175 0.3921568691730499 0.3176470696926117
0.7549260854721069 0.9494709968566895 0.5363636612892151 0.6549019813537598 0.49803921580314636 0.35686275362968445
0.8068965673446655 0.9982630610466003 0.4375494122505188 0.3843137323856354 0.3450980484485626 0.24705882370471954
0.6177340149879456 0.9063634872436523 0.9889327883720398 0.40392157435417175 0.40784314274787903 0.3764705955982208
0.7568965554237366 0.9501026272773743 0.7964426875114441 0.6235294342041016 0.5568627715110779 0.47843137383461
0.8231527209281921 0.9990525841712952 0.760869562625885 0.3333333432674408 0.29019609093666077 0.21176470816135406
0.6788177490234375 0.8795199990272522 0.29169961810112 0.25882354378700256 0.27843138575553894 0.29019609093666077
0.6647783517837524 0.891994297504425 0.28814229369163513 0.13725490868091583 0.13725490868091583 0.12941177189350128
0.8214285969734192 0.9974735379219055 0.0731225311756134 0.3764705955982208 0.3607843220233917 0.26274511218070984
0.7411330342292786 0.8953102827072144 0.0071146246045827866 0.32549020648002625 0.3019607961177826 0.239215686917305
0.7460591197013855 0.9908416271209717 0.009486165829002857 0.27450981736183167 0.27450981736183167 0.24313725531101227
0.7229064106941223 0.9958944916725159 0.37747034430503845 0.6235294342041016 0.6235294342041016 0.5843137502670288
0.6610837578773499 0.9741039276123047 0.9426877498626709 0.3803921639919281 0.3686274588108063 0.3333333432674408
0.7256157398223877 0.8801515698432922 0.0071146246045827866 0.1921568661928177 0.18431372940540314 0.13725490868091583
0.6940886974334717 0.9594188928604126 0.9881423115730286 0.40784314274787903 0.3843137323856354 0.32156863808631897
0.7588669657707214 0.8938891291618347 0.17351779341697693 0.23529411852359772 0.250980406999588 0.24705882370471954
0.7320197224617004 0.9396810531616211 0.9881423115730286 0.47058823704719543 0.4627451002597809 0.40392157435417175
0.7366995215415955 0.983735978603363 0.009881422854959965 0.30980393290519714 0.2862745225429535 0.2235294133424759
0.8034482598304749 0.9011526703834534 0.13873517513275146 0.3294117748737335 0.3137255012989044 0.27843138575553894
0.676354706287384 0.9965261220932007 0.7118577361106873 0.6549019813537598 0.6784313917160034 0.6784313917160034
0.6889162659645081 0.8739933967590332 0.2193675935268402 0.08235294371843338 0.09019608050584793 0.08627451211214066
0.6307882070541382 0.9963682293891907 0.7217391133308411 0.6392157077789307 0.6549019813537598 0.658823549747467
0.6992610692977905 0.9955787062644958 0.5699604749679565 0.6941176652908325 0.7254902124404907 0.7372549176216125
0.7716748714447021 0.902731716632843 0.006719367578625679 0.2823529541492462 0.2666666805744171 0.21960784494876862
0.6192117929458618 0.9859466552734375 0.009486165829002857 0.48235294222831726 0.4941176474094391 0.45098039507865906
0.7852216958999634 0.9984209537506104 0.5059288740158081 0.43529412150382996 0.4274509847164154 0.3294117748737335
0.6862068772315979 0.9377862215042114 0.008695651777088642 0.3843137323856354 0.364705890417099 0.2862745225429535
0.7980295419692993 0.9493131041526794 0.5699604749679565 0.6666666865348816 0.47058823704719543 0.32549020648002625
0.75 0.869572103023529 0.0071146246045827866 0.4627451002597809 0.4431372582912445 0.3686274588108063
0.6165024638175964 0.8812569379806519 0.007905138656497002 0.25882354378700256 0.250980406999588 0.20392157137393951
0.7613300681114197 0.946628749370575 0.33122530579566956 0.9098039269447327 0.8666666746139526 0.843137264251709
0.670197069644928 0.9930522441864014 0.00909090880304575 0.4156862795352936 0.40392157435417175 0.3450980484485626
0.697044312953949 0.9142586588859558 0.007905138656497002 0.27450981736183167 0.250980406999588 0.19607843458652496
0.8517241477966309 0.9565766453742981 0.7948616743087769 0.49803921580314636 0.3333333432674408 0.18431372940540314
0.6357142925262451 0.9962103366851807 0.7102766633033752 0.6509804129600525 0.6627451181411743 0.6823529601097107
0.7916256189346313 0.9977893829345703 0.13280633091926575 0.43921568989753723 0.43921568989753723 0.33725491166114807
0.7172414064407349 0.9977893829345703 0.30434781312942505 0.7019608020782471 0.7098039388656616 0.6274510025978088
0.6660098433494568 0.9977893829345703 0.16996046900749207 0.7215686440467834 0.7333333492279053 0.6274510025978088
0.7827585935592651 0.9862624406814575 0.9873517751693726 0.41960784792900085 0.3960784375667572 0.3019607961177826
0.7283251285552979 0.9294173121452332 0.9881423115730286 0.4901960790157318 0.48235294222831726 0.42352941632270813
0.8320196866989136 0.952155351638794 0.20632411539554596 0.6196078658103943 0.4156862795352936 0.1882352977991104
0.8573891520500183 0.9990525841712952 0.7561264634132385 0.250980406999588 0.21176470816135406 0.1725490242242813
0.7864531874656677 0.9069951176643372 0.9889327883720398 0.3921568691730499 0.3803921639919281 0.3137255012989044
0.8027093410491943 0.9979472756385803 0.13952569663524628 0.4117647111415863 0.3921568691730499 0.27843138575553894
0.6295566558837891 0.9977893829345703 0.16363635659217834 0.7215686440467834 0.7137255072593689 0.6549019813537598
0.7046797871589661 0.9963682293891907 0.6727272868156433 0.6627451181411743 0.6823529601097107 0.6941176652908325
0.821921169757843 0.9508921504020691 0.24308300018310547 0.6470588445663452 0.43529412150382996 0.1921568661928177
0.7428571581840515 0.8837833404541016 0.18063241243362427 0.23137255012989044 0.2549019753932953 0.239215686917305
0.6527093648910522 0.978209376335144 0.9142292737960815 0.5882353186607361 0.5882353186607361 0.5490196347236633
0.75 0.9685772657394409 0.010276679880917072 0.3803921639919281 0.3607843220233917 0.2823529541492462
0.8302955627441406 0.9990525841712952 0.7098814249038696 0.3137255012989044 0.2666666805744171 0.20392157137393951
0.8411329984664917 0.9992104768753052 0.7774703502655029 0.3137255012989044 0.2705882489681244 0.1921568661928177
0.7364531755447388 0.9641560316085815 0.009881422854959965 0.125490203499794 0.12941177189350128 0.10588235408067703
0.7736453413963318 0.9467867016792297 0.3743082880973816 0.6627451181411743 0.4470588266849518 0.2235294133424759
0.7534482479095459 0.9984209537506104 0.7679842114448547 0.6666666865348816 0.5215686559677124 0.4156862795352936
0.7948275804519653 0.9598926305770874 0.9877470135688782 0.45098039507865906 0.4313725531101227 0.3529411852359772
0.8369458317756653 0.9988946914672852 0.6221343874931335 0.27843138575553894 0.25882354378700256 0.18431372940540314
0.8216748833656311 0.9523133039474487 0.6988142132759094 0.7686274647712708 0.6823529601097107 0.5921568870544434
0.7290640473365784 0.9976314306259155 0.13280633091926575 0.6313725709915161 0.6509804129600525 0.6274510025978088
0.7940886616706848 0.896731436252594 0.0063241105526685715 0.2862745225429535 0.26274511218070984 0.21568627655506134
0.6568965315818787 0.8882046341896057 0.24822133779525757 0.1921568661928177 0.19607843458652496 0.1764705926179886
0.6864532232284546 0.9254697561264038 0.9885375499725342 0.48235294222831726 0.46666666865348816 0.4313725531101227
0.7736453413963318 0.9472603797912598 0.7944663763046265 0.5568627715110779 0.40392157435417175 0.2823529541492462
0.6731526851654053 0.994315505027771 0.9877470135688782 0.35686275362968445 0.3450980484485626 0.2705882489681244
0.8071428537368774 0.9976314306259155 0.9513834118843079 0.48235294222831726 0.45098039507865906 0.3686274588108063
0.8364531993865967 0.9540502429008484 0.6703557372093201 0.7411764860153198 0.6392157077789307 0.572549045085907
0.8137931227684021 0.9501026272773743 0.030039526522159576 0.3803921639919281 0.27843138575553894 0.1882352977991104
0.7155172228813171 0.994947075843811 0.4000000059604645 0.7490196228027344 0.772549033164978 0.772549033164978
0.8463054299354553 0.983735978603363 0.9877470135688782 0.42352941632270813 0.3921568691730499 0.30980393290519714
0.7315270900726318 0.9156797528266907 0.9885375499725342 0.43921568989753723 0.4313725531101227 0.37254902720451355
0.6778324842453003 0.9895784258842468 0.9877470135688782 0.3294117748737335 0.30588236451148987 0.24313725531101227
0.7246305346488953 0.8883625268936157 0.0071146246045827866 0.16470588743686676 0.1725490242242813 0.12941177189350128
0.8275862336158752 0.9501026272773743 0.9881423115730286 0.4588235318660736 0.42352941632270813 0.35686275362968445
0.7716748714447021 0.9234170317649841 0.24782608449459076 0.13725490868091583 0.13725490868091583 0.13725490868091583
0.75935959815979 0.9985788464546204 0.8276680111885071 0.5098039507865906 0.5529412031173706 0.5372549295425415
0.7443349957466125 0.91946941614151 0.007905138656497002 0.2666666805744171 0.24313725531101227 0.1882352977991104
0.6302955746650696 0.8956260681152344 0.9893280863761902 0.40392157435417175 0.40784314274787903 0.3843137323856354
0.6802955865859985 0.9505763649940491 0.9881423115730286 0.40784314274787903 0.4117647111415863 0.3490196168422699
0.8325123190879822 0.9985788464546204 0.4387351870536804 0.3176470696926117 0.29019609093666077 0.21568627655506134
0.8519704341888428 0.9546818137168884 0.260869562625885 0.6627451181411743 0.4117647111415863 0.16078431904315948
0.8519704341888428 0.9987367987632751 0.4620553255081177 0.250980406999588 0.21960784494876862 0.16862745583057404
0.6568965315818787 0.9979472756385803 0.08774703741073608 0.7137255072593689 0.7176470756530762 0.6470588445663452
0.6802955865859985 0.9351018667221069 0.00830039568245411 0.40392157435417175 0.4000000059604645 0.32156863808631897
0.7093595862388611 0.9254697561264038 0.00830039568245411 0.3529411852359772 0.32156863808631897 0.23137255012989044
0.676354706287384 0.9741039276123047 0.9434782862663269 0.3764705955982208 0.3607843220233917 0.32549020648002625
0.6475369334220886 0.9955787062644958 0.5003952383995056 0.729411780834198 0.7490196228027344 0.7607843279838562
0.7943349480628967 0.9981051683425903 0.23003952205181122 0.41960784792900085 0.3960784375667572 0.29411765933036804
0.7302955389022827 0.8894678950309753 0.0071146246045827866 0.21176470816135406 0.19607843458652496 0.15294118225574493
0.6899014711380005 0.886467695236206 0.3110671937465668 0.2549019753932953 0.27450981736183167 0.2862745225429535
0.6214285492897034 0.9881572723388672 0.9877470135688782 0.2980392277240753 0.29411765933036804 0.2235294133424759
0.8406403660774231 0.9542081356048584 0.5418972373008728 0.6078431606292725 0.45490196347236633 0.3019607961177826
0.6497536897659302 0.9979472756385803 0.13438735902309418 0.7333333492279053 0.7372549176216125 0.6666666865348816
0.7426108121871948 0.9977893829345703 0.35138338804244995 0.7176470756530762 0.7098039388656616 0.6196078658103943
0.7901477813720703 0.9868940711021423 0.009881422854959965 0.24705882370471954 0.239215686917305 0.1882352977991104
0.8224138021469116 0.9974735379219055 0.08418972045183182 0.3529411852359772 0.3450980484485626 0.26274511218070984
0.7780787944793701 0.9002052545547485 0.006719367578625679 0.21176470816135406 0.19607843458652496 0.14901961386203766
0.8342364430427551 0.9973156452178955 0.05375494062900543 0.07450980693101883 0.07058823853731155 0.054901961237192154
0.7689655423164368 0.9284698963165283 0.19881422817707062 0.3019607961177826 0.27843138575553894 0.23137255012989044
0.8066502213478088 0.9118900895118713 0.23201580345630646 0.11372549086809158 0.11372549086809158 0.11372549086809158
0.6935960650444031 0.9279962182044983 0.00830039568245411 0.20392157137393951 0.2078431397676468 0.1764705926179886
0.8118226528167725 0.9984209537506104 0.45652174949645996 0.364705890417099 0.34117648005485535 0.21568627655506134
0.8019704222679138 0.9501026272773743 0.7719367742538452 0.5647059082984924 0.4117647111415863 0.2823529541492462
0.8054187297821045 0.9491552114486694 0.22055335342884064 0.3333333432674408 0.250980406999588 0.13725490868091583
0.6852216720581055 0.8768356442451477 0.9897233247756958 0.43529412150382996 0.43921568989753723 0.41960784792900085
0.8613300323486328 0.9974735379219055 0.04743082821369171 0.05098039284348488 0.04313725605607033 0.0470588244497776
0.6839901208877563 0.8776251673698425 0.22569170594215393 0.11764705926179886 0.125490203499794 0.11372549086809158
0.6428571343421936 0.8847307562828064 0.007905138656497002 0.250980406999588 0.24313725531101227 0.1921568661928177
0.7871921062469482 0.9981051683425903 0.1509881466627121 0.45098039507865906 0.4431372582912445 0.3529411852359772
0.6958128213882446 0.8822043538093567 0.18616600334644318 0.239215686917305 0.2549019753932953 0.25882354378700256
0.7061576247215271 0.8983104228973389 0.0071146246045827866 0.1921568661928177 0.18431372940540314 0.13725490868091583
0.7743842601776123 0.9976314306259155 0.11541502177715302 0.5137255191802979 0.5137255191802979 0.41960784792900085
0.8586207032203674 0.9556292295455933 0.2865612506866455 0.7764706015586853 0.545098066329956 0.27843138575553894
0.7480295300483704 0.9227854013442993 0.9881423115730286 0.47058823704719543 0.4588235318660736 0.4000000059604645
0.6980295777320862 0.8736775517463684 0.25256916880607605 0.08235294371843338 0.08235294371843338 0.08235294371843338
0.7051724195480347 0.9960524439811707 0.6422924995422363 0.6666666865348816 0.686274528503418 0.6980392336845398
0.737438440322876 0.9859466552734375 0.9873517751693726 0.364705890417099 0.3607843220233917 0.27843138575553894
0.8120689392089844 0.913784921169281 0.156521737575531 0.11764705926179886 0.11372549086809158 0.09803921729326248
0.8179802894592285 0.9518395662307739 0.6731225252151489 0.7411764860153198 0.6470588445663452 0.545098066329956
0.7684729099273682 0.9351018667221069 0.19051383435726166 0.49803921580314636 0.46666666865348816 0.2862745225429535
0.8369458317756653 0.9969998598098755 0.035177864134311676 0.09019608050584793 0.07450980693101883 0.062745101749897
0.6165024638175964 0.9958944916725159 0.6885375380516052 0.6431372761726379 0.6549019813537598 0.6823529601097107
0.8480295538902283 0.9985788464546204 0.3588932752609253 0.27843138575553894 0.24313725531101227 0.18431372940540314
0.7088670134544373 0.9068372249603271 0.17944663763046265 0.16470588743686676 0.16470588743686676 0.1568627506494522
0.7884236574172974 0.9483656883239746 0.6387351751327515 0.6549019813537598 0.5098039507865906 0.40784314274787903
0.7650246024131775 0.9475761651992798 0.48102766275405884 0.6078431606292725 0.4431372582912445 0.27843138575553894
0.631280779838562 0.8709931969642639 0.17549407482147217 0.2980392277240753 0.3176470696926117 0.3294117748737335
0.8568965792655945 0.9264171719551086 0.0063241105526685715 0.47843137383461 0.4313725531101227 0.33725491166114807
0.7051724195480347 0.9976314306259155 0.23873518407344818 0.7254902124404907 0.7215686440467834 0.6392157077789307
0.8088669776916504 0.9984209537506104 0.8711462616920471 0.47843137383461 0.48627451062202454 0.4313725531101227
0.7608374357223511 0.9559450745582581 0.3810276687145233 0.46666666865348816 0.41960784792900085 0.3176470696926117
0.6472906470298767 0.9208905696868896 0.007905138656497002 0.30980393290519714 0.30588236451148987 0.23529411852359772
0.7953202128410339 0.9491552114486694 0.60513836145401 0.6823529601097107 0.5098039507865906 0.37254902720451355
0.793596088886261 0.9491552114486694 0.7699604630470276 0.5882353186607361 0.45490196347236633 0.3176470696926117
0.6679803133010864 0.9752092361450195 0.9877470135688782 0.3921568691730499 0.3960784375667572 0.32549020648002625
0.804679811000824 0.9985788464546204 0.5988142490386963 0.3490196168422699 0.32156863808631897 0.2078431397676468
0.8238916397094727 0.9523133039474487 0.5146244764328003 0.7137255072593689 0.529411792755127 0.35686275362968445
0.7884236574172974 0.9471024870872498 0.44584980607032776 0.6941176652908325 0.47843137383461 0.2666666805744171
0.6684728860855103 0.9955787062644958 0.5691699385643005 0.7019608020782471 0.7333333492279053 0.7450980544090271
0.7211822867393494 0.9753671288490295 0.9090909361839294 0.4470588266849518 0.4274509847164154 0.3529411852359772
0.7458128333091736 0.9423654079437256 0.29960474371910095 0.250980406999588 0.2666666805744171 0.26274511218070984
0.8605911135673523 0.9973156452178955 0.04229249060153961 0.054901961237192154 0.05098039284348488 0.04313725605607033
0.8583743572235107 0.9987367987632751 0.3122529685497284 0.250980406999588 0.21960784494876862 0.1764705926179886
0.7320197224617004 0.9396810531616211 0.9881423115730286 0.47058823704719543 0.4627451002597809 0.40392157435417175
0.6302955746650696 0.9415758848190308 0.9885375499725342 0.43529412150382996 0.43529412150382996 0.3960784375667572
0.8071428537368774 0.9985788464546204 0.5996047258377075 0.34117648005485535 0.3137255012989044 0.20000000298023224
0.7879310250282288 0.9977893829345703 0.9462450742721558 0.45490196347236633 0.4274509847164154 0.3529411852359772
0.7724137902259827 0.9981051683425903 0.31620553135871887 0.5764706134796143 0.5607843399047852 0.5137255191802979
0.8438423871994019 0.9532607197761536 0.06956521421670914 0.5607843399047852 0.32549020648002625 0.12156862765550613
0.820443332195282 0.9519974589347839 0.6201580762863159 0.7450980544090271 0.6000000238418579 0.4941176474094391
0.8054187297821045 0.9988946914672852 0.7458497881889343 0.37254902720451355 0.32549020648002625 0.2235294133424759
0.6699507236480713 0.9957365989685059 0.015415019355714321 0.5411764979362488 0.5333333611488342 0.4745098054409027
0.8022167682647705 0.9985788464546204 0.604347825050354 0.35686275362968445 0.3294117748737335 0.21960784494876862
0.7278324961662292 0.9074687957763672 0.17509882152080536 0.21568627655506134 0.22745098173618317 0.1921568661928177
0.7682266235351562 0.9387336373329163 0.9881423115730286 0.47843137383461 0.46666666865348816 0.3921568691730499
0.8487684726715088 0.9538922905921936 0.2335968315601349 0.7098039388656616 0.47058823704719543 0.2235294133424759
0.6362069249153137 0.8866255879402161 0.17588932812213898 0.32156863808631897 0.35686275362968445 0.3843137323856354
0.6931034326553345 0.9881572723388672 0.009486165829002857 0.47058823704719543 0.47843137383461 0.3921568691730499
0.6913793087005615 0.9976314306259155 0.32134386897087097 0.729411780834198 0.7411764860153198 0.6666666865348816
0.7576354742050171 0.9494709968566895 0.6399209499359131 0.6705882549285889 0.6901960968971252 0.6039215922355652
0.7662561535835266 0.9984209537506104 0.634782612323761 0.5803921818733215 0.5686274766921997 0.501960813999176
0.8519704341888428 0.9433128237724304 0.006719367578625679 0.529411792755127 0.4745098054409027 0.37254902720451355
0.7783251404762268 0.9172587990760803 0.9885375499725342 0.4745098054409027 0.45098039507865906 0.3960784375667572
0.8495073914527893 0.9542081356048584 0.14743083715438843 0.6470588445663452 0.3921568691730499 0.13333334028720856
0.7618226408958435 0.8927838206291199 0.006719367578625679 0.27843138575553894 0.2549019753932953 0.20000000298023224
0.7118226885795593 0.9969998598098755 0.7256916761398315 0.6352941393852234 0.6509804129600525 0.6627451181411743
0.6967980265617371 0.8754144906997681 0.26403161883354187 0.08627451211214066 0.08627451211214066 0.08627451211214066
0.7534482479095459 0.8869414329528809 0.0071146246045827866 0.4588235318660736 0.45098039507865906 0.3921568691730499
0.7731527090072632 0.9981051683425903 0.16561265289783478 0.529411792755127 0.5372549295425415 0.45490196347236633
0.8226600885391235 0.9982630610466003 0.22569170594215393 0.37254902720451355 0.3490196168422699 0.2549019753932953
0.6512315273284912 0.994157612323761 0.3699604868888855 0.5843137502670288 0.5960784554481506 0.5529412031173706
0.8295566439628601 0.9984209537506104 0.22292490303516388 0.3607843220233917 0.3333333432674408 0.25882354378700256
0.8334975242614746 0.9532607197761536 0.4632411003112793 0.772549033164978 0.5490196347236633 0.3333333432674408
0.6573891639709473 0.9731564521789551 0.9328063130378723 0.46666666865348816 0.47843137383461 0.3960784375667572
0.6894088387489319 0.8834675550460815 0.30869564414024353 0.27450981736183167 0.30588236451148987 0.3137255012989044
0.7133004665374756 0.9976314306259155 0.1561264842748642 0.7411764860153198 0.7529411911964417 0.6705882549285889
0.8408867120742798 0.9543660283088684 0.5620553493499756 0.6352941393852234 0.48627451062202454 0.3333333432674408
0.7293103337287903 0.8777830600738525 0.18418972194194794 0.22745098173618317 0.250980406999588 0.250980406999588
0.7009851932525635 0.9976314306259155 0.2770751118659973 0.7176470756530762 0.7254902124404907 0.6431372761726379
0.7347290515899658 0.9388915300369263 0.2035573124885559 0.23529411852359772 0.24705882370471954 0.20392157137393951
0.6229063868522644 0.9823148846626282 0.9877470135688782 0.37254902720451355 0.364705890417099 0.3176470696926117
0.753201961517334 0.9275224804878235 0.24743083119392395 0.1725490242242813 0.1725490242242813 0.16470588743686676
0.6992610692977905 0.8724143505096436 0.21264822781085968 0.125490203499794 0.13333334028720856 0.12941177189350128
0.6899014711380005 0.9965261220932007 0.6976284384727478 0.658823549747467 0.6823529601097107 0.6745098233222961
0.626600980758667 0.8744670748710632 0.1766798347234726 0.2823529541492462 0.3019607961177826 0.3137255012989044
0.629802942276001 0.9957365989685059 0.6118577122688293 0.6784313917160034 0.7098039388656616 0.7176470756530762
0.7652709484100342 0.9485235810279846 0.5478261113166809 0.6392157077789307 0.4627451002597809 0.30980393290519714
0.631280779838562 0.896889328956604 0.1667984127998352 0.250980406999588 0.13725490868091583 0.10588235408067703
0.684236466884613 0.9966840147972107 0.7158102989196777 0.6549019813537598 0.6784313917160034 0.6784313917160034
0.8179802894592285 0.9988946914672852 0.7177865505218506 0.33725491166114807 0.2862745225429535 0.2235294133424759
0.703201949596405 0.9955787062644958 0.5841897130012512 0.6823529601097107 0.7215686440467834 0.7254902124404907
0.7640393972396851 0.9486815333366394 0.5715414881706238 0.6039215922355652 0.4313725531101227 0.29411765933036804
0.6499999761581421 0.9979472756385803 0.124901182949543 0.7254902124404907 0.729411780834198 0.658823549747467
0.670197069644928 0.9916311502456665 0.009486165829002857 0.5372549295425415 0.5176470875740051 0.4313725531101227
0.8194581270217896 0.9518395662307739 0.5814229249954224 0.729411780834198 0.5764706134796143 0.45490196347236633
0.8275862336158752 0.9529448747634888 0.6909090876579285 0.7411764860153198 0.6549019813537598 0.5647059082984924
0.6980295777320862 0.9973156452178955 0.7782608866691589 0.615686297416687 0.6313725709915161 0.6274510025978088
0.7150246500968933 0.8989420533180237 0.0071146246045827866 0.24705882370471954 0.2235294133424759 0.1764705926179886
0.703201949596405 0.9392073154449463 0.9881423115730286 0.46666666865348816 0.47058823704719543 0.4156862795352936
0.7394088506698608 0.9960524439811707 0.011067193932831287 0.34117648005485535 0.3333333432674408 0.2862745225429535
0.6662561297416687 0.9976314306259155 0.24229249358177185 0.7450980544090271 0.7568627595901489 0.6823529601097107
0.679556667804718 0.9973156452178955 0.7932806611061096 0.6039215922355652 0.6235294342041016 0.6078431606292725
0.8527093529701233 0.9557871222496033 0.6205533742904663 0.7333333492279053 0.5921568870544434 0.49803921580314636
0.7544335126876831 0.9510500431060791 0.6446640491485596 0.40784314274787903 0.3843137323856354 0.32156863808631897
0.6852216720581055 0.9955787062644958 0.9786561131477356 0.35686275362968445 0.32549020648002625 0.27450981736183167
0.6435960531234741 0.9977893829345703 0.15849801898002625 0.729411780834198 0.7254902124404907 0.6470588445663452
0.8248768448829651 0.9532607197761536 0.8019762635231018 0.5607843399047852 0.3960784375667572 0.23137255012989044
0.7645320296287537 0.9480499029159546 0.5039525628089905 0.6784313917160034 0.49803921580314636 0.35686275362968445
0.802955687046051 0.9488394260406494 0.013438735157251358 0.2235294133424759 0.1725490242242813 0.1411764770746231
0.7899014949798584 0.9485235810279846 0.6592885255813599 0.7019608020782471 0.5254902243614197 0.3960784375667572
0.8573891520500183 0.9988946914672852 0.5003952383995056 0.24705882370471954 0.21568627655506134 0.16470588743686676
0.690640389919281 0.8956260681152344 0.007509881630539894 0.1921568661928177 0.18039216101169586 0.16078431904315948
0.8605911135673523 0.9561029672622681 0.3474308252334595 0.6470588445663452 0.40784314274787903 0.16078431904315948
0.8209359645843506 0.9524711966514587 0.7747035622596741 0.5411764979362488 0.3764705955982208 0.22745098173618317
0.6726601123809814 0.9927364587783813 0.009486165829002857 0.5254902243614197 0.5058823823928833 0.4313725531101227
0.7736453413963318 0.9472603797912598 0.8193675875663757 0.4901960790157318 0.32549020648002625 0.16862745583057404
0.7490147948265076 0.9979472756385803 0.3786561191082001 0.6901960968971252 0.6823529601097107 0.5843137502670288
0.7908867001533508 0.9482077956199646 0.3798418939113617 0.7058823704719543 0.4470588266849518 0.24313725531101227
0.7157635688781738 0.9534186124801636 0.009486165829002857 0.20392157137393951 0.20392157137393951 0.1725490242242813
0.6857143044471741 0.9351018667221069 0.9881423115730286 0.42352941632270813 0.42352941632270813 0.3764705955982208
0.821921169757843 0.9508921504020691 0.036363635212183 0.35686275362968445 0.250980406999588 0.1764705926179886
0.6283251047134399 0.9957365989685059 0.5276679992675781 0.7176470756530762 0.7490196228027344 0.7607843279838562
0.6564039587974548 0.897363007068634 0.9889327883720398 0.4117647111415863 0.4156862795352936 0.3843137323856354
0.7884236574172974 0.8998894691467285 0.1770751029253006 0.2235294133424759 0.24705882370471954 0.23137255012989044
0.7349753975868225 0.9976314306259155 0.6272727251052856 0.6313725709915161 0.6196078658103943 0.4588235318660736
0.7995073795318604 0.9979472756385803 0.145454540848732 0.41960784792900085 0.3960784375667572 0.29411765933036804
0.6293103694915771 0.8771514296531677 0.007905138656497002 0.26274511218070984 0.26274511218070984 0.21568627655506134
0.7926108241081238 0.9475761651992798 0.2541502118110657 0.24705882370471954 0.1882352977991104 0.11372549086809158
0.8073891401290894 0.9117321968078613 0.24347825348377228 0.14901961386203766 0.13333334028720856 0.13725490868091583
0.7938423752784729 0.9979472756385803 0.908695638179779 0.5647059082984924 0.5372549295425415 0.5137255191802979
0.8509852290153503 0.9553134441375732 0.48221343755722046 0.6823529601097107 0.48235294222831726 0.27450981736183167
0.6445812582969666 0.9984209537506104 0.8762845993041992 0.5215686559677124 0.5098039507865906 0.43529412150382996
0.8147783279418945 0.977893590927124 0.01067193690687418 0.12941177189350128 0.11764705926179886 0.09019608050584793
0.6522167325019836 0.9951050281524658 0.395256906747818 0.7607843279838562 0.7960784435272217 0.7921568751335144
0.8201970458030701 0.9981051683425903 0.1462450623512268 0.3490196168422699 0.32156863808631897 0.24705882370471954
0.8357142806053162 0.9985788464546204 0.866007924079895 0.5176470875740051 0.5058823823928833 0.47843137383461
0.7724137902259827 0.9982630610466003 0.5324110388755798 0.4000000059604645 0.3960784375667572 0.3176470696926117
0.7605911493301392 0.9968419671058655 0.06007905304431915 0.1764705926179886 0.16078431904315948 0.11372549086809158
0.7113300561904907 0.9960524439811707 0.5802371501922607 0.6705882549285889 0.6901960968971252 0.7137255072593689
0.7842364311218262 0.9475761651992798 0.9881423115730286 0.45098039507865906 0.4313725531101227 0.35686275362968445
0.8002462983131409 0.9488394260406494 0.1304347813129425 0.4627451002597809 0.3294117748737335 0.18431372940540314
0.8197044134140015 0.9984209537506104 0.3865612745285034 0.3607843220233917 0.3333333432674408 0.2235294133424759
0.7618226408958435 0.9543660283088684 0.7798418998718262 0.43921568989753723 0.3529411852359772 0.25882354378700256
0.7665024399757385 0.9985788464546204 0.7628458738327026 0.5568627715110779 0.529411792755127 0.4588235318660736
0.6337438225746155 0.9720511436462402 0.9249011874198914 0.4941176474094391 0.5058823823928833 0.47058823704719543
0.6226601004600525 0.9955787062644958 0.44505929946899414 0.7215686440467834 0.7529411911964417 0.7647058963775635
0.684236466884613 0.9973156452178955 0.7952569127082825 0.6000000238418579 0.6196078658103943 0.6039215922355652
0.856157660484314 0.9810516238212585 0.011462450958788395 0.08627451211214066 0.09019608050584793 0.07058823853731155
0.7458128333091736 0.8779409527778625 0.9893280863761902 0.4745098054409027 0.4431372582912445 0.43529412150382996
0.7866995334625244 0.9988946914672852 0.7889328002929688 0.43529412150382996 0.40784314274787903 0.30588236451148987
0.706403911113739 0.8766776919364929 0.31027668714523315 0.2705882489681244 0.29019609093666077 0.3019607961177826
0.8214285969734192 0.9508921504020691 0.04980237036943436 0.38823530077934265 0.2666666805744171 0.1568627506494522
0.7770935893058777 0.9055739641189575 0.9885375499725342 0.30980393290519714 0.2980392277240753 0.2235294133424759
0.8325123190879822 0.9985788464546204 0.4000000059604645 0.3294117748737335 0.2980392277240753 0.21568627655506134
0.75 0.9330490827560425 0.2758893370628357 0.21176470816135406 0.21960784494876862 0.21568627655506134
0.8379310369491577 0.935575544834137 0.006719367578625679 0.45490196347236633 0.4156862795352936 0.27843138575553894
0.6931034326553345 0.994789183139801 0.395652174949646 0.7372549176216125 0.772549033164978 0.7686274647712708
0.7458128333091736 0.9542081356048584 0.9877470135688782 0.47843137383461 0.47058823704719543 0.38823530077934265
0.6539409160614014 0.9952629208564758 0.426086962223053 0.7254902124404907 0.7607843279838562 0.7568627595901489
0.8036946058273315 0.9491552114486694 0.18023715913295746 0.42352941632270813 0.29411765933036804 0.1568627506494522
0.7830049395561218 0.9984209537506104 0.5501976013183594 0.3490196168422699 0.32156863808631897 0.2980392277240753
0.7059113383293152 0.9017843008041382 0.1818181872367859 0.15294118225574493 0.14901961386203766 0.1411764770746231
0.7608374357223511 0.9489973187446594 0.8201581239700317 0.5647059082984924 0.47843137383461 0.3843137323856354
0.8199507594108582 0.9516816735267639 0.47707509994506836 0.7333333492279053 0.5529412031173706 0.35686275362968445
0.6839901208877563 0.8818885087966919 0.26324111223220825 0.15294118225574493 0.15294118225574493 0.14509804546833038
0.7958127856254578 0.8724143505096436 0.9885375499725342 0.239215686917305 0.2235294133424759 0.18039216101169586
0.6551724076271057 0.9249960780143738 0.9885375499725342 0.4470588266849518 0.4470588266849518 0.4156862795352936
0.7805418968200684 0.9559450745582581 0.9877470135688782 0.4588235318660736 0.43921568989753723 0.364705890417099
0.6472906470298767 0.9977893829345703 0.072727270424366 0.7215686440467834 0.7254902124404907 0.6627451181411743
0.8009852170944214 0.9485235810279846 0.23517785966396332 0.3529411852359772 0.25882354378700256 0.14901961386203766
0.7743842601776123 0.9471024870872498 0.5940711498260498 0.615686297416687 0.43921568989753723 0.32549020648002625
0.699999988079071 0.9976314306259155 0.1671936810016632 0.7098039388656616 0.7215686440467834 0.6000000238418579
0.6669950485229492 0.8714669346809387 0.007509881630539894 0.06666667014360428 0.062745101749897 0.04313725605607033
0.8115763664245605 0.9510500431060791 0.6351778507232666 0.6509804129600525 0.47843137383461 0.364705890417099
0.6573891639709473 0.9954208135604858 0.47114625573158264 0.7137255072593689 0.7450980544090271 0.7568627595901489
0.6807881593704224 0.9955787062644958 0.5474308133125305 0.7058823704719543 0.7372549176216125 0.7450980544090271
0.7288177609443665 0.9963682293891907 0.43399208784103394 0.6784313917160034 0.6901960968971252 0.615686297416687
0.7007389068603516 0.9965261220932007 0.6936758756637573 0.658823549747467 0.6784313917160034 0.6901960968971252
0.6864532232284546 0.8798357844352722 0.2549407184123993 0.12941177189350128 0.12941177189350128 0.12156862765550613
0.682758629322052 0.9979472756385803 0.07035572826862335 0.7254902124404907 0.7372549176216125 0.6549019813537598
0.6366994976997375 0.9816832542419434 0.009486165829002857 0.3529411852359772 0.35686275362968445 0.3019607961177826
0.6793103218078613 0.983893871307373 0.9877470135688782 0.3764705955982208 0.364705890417099 0.30588236451148987
0.703201949596405 0.9766303300857544 0.009881422854959965 0.4000000059604645 0.3803921639919281 0.3019607961177826
0.6916255950927734 0.9976314306259155 0.22648221254348755 0.7333333492279053 0.7411764860153198 0.6549019813537598
0.8160098791122437 0.9111005663871765 0.0063241105526685715 0.4000000059604645 0.3764705955982208 0.32156863808631897
0.6512315273284912 0.897363007068634 0.29486167430877686 0.239215686917305 0.2705882489681244 0.27843138575553894
0.7834975123405457 0.9982630610466003 0.4067193567752838 0.47843137383461 0.4627451002597809 0.364705890417099
0.6793103218078613 0.9976314306259155 0.2956521809101105 0.729411780834198 0.7411764860153198 0.6666666865348816
0.6426108479499817 0.9960524439811707 0.02648221328854561 0.1882352977991104 0.16078431904315948 0.12156862765550613
0.8354679942131042 0.966840386390686 0.9881423115730286 0.4470588266849518 0.42352941632270813 0.3294117748737335
0.6935960650444031 0.9965261220932007 0.9363636374473572 0.4588235318660736 0.4470588266849518 0.3803921639919281
0.8032019734382629 0.9477341175079346 0.008695651777088642 0.35686275362968445 0.3333333432674408 0.27843138575553894
0.6839901208877563 0.8733617663383484 0.9897233247756958 0.43529412150382996 0.43529412150382996 0.4274509847164154
0.6273398995399475 0.8953102827072144 0.24387352168560028 0.250980406999588 0.2549019753932953 0.23529411852359772
0.7598522305488586 0.9475761651992798 0.3790513873100281 0.6235294342041016 0.48627451062202454 0.32156863808631897
0.7256157398223877 0.874940812587738 0.0071146246045827866 0.23137255012989044 0.23137255012989044 0.2235294133424759
0.7544335126876831 0.9336807131767273 0.1924901157617569 0.21960784494876862 0.24313725531101227 0.22745098173618317
0.6465517282485962 0.9747354984283447 0.9877470135688782 0.3921568691730499 0.3843137323856354 0.3333333432674408
0.6366994976997375 0.9966840147972107 0.760079026222229 0.6274510025978088 0.6431372761726379 0.6392157077789307
0.8032019734382629 0.9489973187446594 0.19486166536808014 0.3921568691730499 0.27843138575553894 0.16078431904315948
0.7901477813720703 0.9486815333366394 0.6936758756637573 0.686274528503418 0.545098066329956 0.4117647111415863
0.8549261093139648 0.9883151650428772 0.9877470135688782 0.3607843220233917 0.3294117748737335 0.239215686917305
0.634482741355896 0.9974735379219055 0.26245060563087463 0.7411764860153198 0.7372549176216125 0.6666666865348816
0.7940886616706848 0.9982630610466003 0.4272727370262146 0.4117647111415863 0.3960784375667572 0.29019609093666077
0.8620689511299133 0.9990525841712952 0.5308300256729126 0.23529411852359772 0.20392157137393951 0.15294118225574493
0.7536945939064026 0.9979472756385803 0.1715414971113205 0.6235294342041016 0.615686297416687 0.5647059082984924
0.7002463340759277 0.9846833944320679 0.9877470135688782 0.37254902720451355 0.3607843220233917 0.29411765933036804
0.7889162302017212 0.9156797528266907 0.9885375499725342 0.45490196347236633 0.42352941632270813 0.37254902720451355
0.7283251285552979 0.8998894691467285 0.17786560952663422 0.19607843458652496 0.20392157137393951 0.18431372940540314
0.7945812940597534 0.9480499029159546 0.448221355676651 0.7215686440467834 0.5098039507865906 0.27450981736183167
0.7349753975868225 0.9428390860557556 0.29011857509613037 0.2235294133424759 0.24705882370471954 0.239215686917305
0.8500000238418579 0.9988946914672852 0.5324110388755798 0.2666666805744171 0.239215686917305 0.1764705926179886
0.7059113383293152 0.8706774115562439 0.2347826063632965 0.05882352963089943 0.05882352963089943 0.05882352963089943
0.7615763545036316 0.9286278486251831 0.26837944984436035 0.20392157137393951 0.21176470816135406 0.20000000298023224
0.6197044253349304 0.9957365989685059 0.6118577122688293 0.6784313917160034 0.7137255072593689 0.7098039388656616
0.7598522305488586 0.9979472756385803 0.25177866220474243 0.6392157077789307 0.6431372761726379 0.572549045085907
0.6862068772315979 0.9977893829345703 0.15415020287036896 0.7176470756530762 0.729411780834198 0.615686297416687
0.7366995215415955 0.9960524439811707 0.9660078883171082 0.3803921639919281 0.35686275362968445 0.3019607961177826
0.8147783279418945 0.9985788464546204 0.8525691628456116 0.5176470875740051 0.5254902243614197 0.4745098054409027
0.7273399233818054 0.8708353042602539 0.18498024344444275 0.20392157137393951 0.22745098173618317 0.22745098173618317
0.639162540435791 0.9957365989685059 0.604347825050354 0.6901960968971252 0.7215686440467834 0.7333333492279053
0.7987684607505798 0.9485235810279846 0.05059288442134857 0.3450980484485626 0.23529411852359772 0.1411764770746231
0.8295566439628601 0.9197852611541748 0.0063241105526685715 0.2666666805744171 0.22745098173618317 0.18039216101169586
0.7798029780387878 0.9464708566665649 0.5549407005310059 0.6352941393852234 0.46666666865348816 0.3294117748737335
0.8566502332687378 0.9979472756385803 0.10671936720609665 0.21176470816135406 0.19607843458652496 0.15294118225574493
0.69852215051651 0.9284698963165283 0.9885375499725342 0.4745098054409027 0.4745098054409027 0.43529412150382996
0.7985221743583679 0.9981051683425903 0.20158103108406067 0.42352941632270813 0.4000000059604645 0.2980392277240753
0.631280779838562 0.9979472756385803 0.1513833999633789 0.7254902124404907 0.7215686440467834 0.6509804129600525
0.7130541801452637 0.9976314306259155 0.072727270424366 0.7529411911964417 0.7529411911964417 0.658823549747467
0.7768473029136658 0.9821569323539734 0.9873517751693726 0.45098039507865906 0.4313725531101227 0.3529411852359772
0.6342364549636841 0.9014685153961182 0.9889327883720398 0.40784314274787903 0.4117647111415863 0.3803921639919281
0.7054187059402466 0.9981051683425903 0.8628458380699158 0.529411792755127 0.5254902243614197 0.4470588266849518
0.6832512021064758 0.994947075843811 0.43003952503204346 0.7215686440467834 0.7529411911964417 0.7647058963775635
0.6758620738983154 0.8790462613105774 0.21660079061985016 0.13333334028720856 0.13333334028720856 0.125490203499794
0.8386699557304382 0.9531027674674988 0.1351778656244278 0.5490196347236633 0.33725491166114807 0.15294118225574493
0.757881760597229 0.9984209537506104 0.7743083238601685 0.5882353186607361 0.5607843399047852 0.45098039507865906
0.7509852051734924 0.9341544508934021 0.00909090880304575 0.49803921580314636 0.45490196347236633 0.3450980484485626
0.6497536897659302 0.9974735379219055 0.8407114744186401 0.5686274766921997 0.5686274766921997 0.5607843399047852
0.685960590839386 0.9958944916725159 0.9675889611244202 0.5803921818733215 0.5803921818733215 0.5333333611488342
0.7197044491767883 0.9958944916725159 0.49249011278152466 0.6745098233222961 0.6784313917160034 0.615686297416687
0.7009851932525635 0.8798357844352722 0.31067192554473877 0.20392157137393951 0.21960784494876862 0.2235294133424759
0.6566502451896667 0.9958944916725159 0.6501976251602173 0.7411764860153198 0.7607843279838562 0.772549033164978
0.6189655065536499 0.9957365989685059 0.560079038143158 0.7019608020782471 0.7333333492279053 0.7450980544090271
0.6460590958595276 0.9543660283088684 0.9881423115730286 0.4000000059604645 0.38823530077934265 0.3529411852359772
0.7034482955932617 0.9977893829345703 0.1201581060886383 0.7215686440467834 0.729411780834198 0.6352941393852234
0.6958128213882446 0.9535765051841736 0.00909090880304575 0.3843137323856354 0.3803921639919281 0.3019607961177826
0.6854679584503174 0.880625307559967 0.25770750641822815 0.13725490868091583 0.13725490868091583 0.12941177189350128
0.7665024399757385 0.9804199934005737 0.009881422854959965 0.364705890417099 0.3686274588108063 0.3137255012989044
0.665517270565033 0.9055739641189575 0.9889327883720398 0.4431372582912445 0.4313725531101227 0.3960784375667572
0.820443332195282 0.9984209537506104 0.3446640372276306 0.3843137323856354 0.3450980484485626 0.24705882370471954
0.7844827771186829 0.9981051683425903 0.30513834953308105 0.48627451062202454 0.4588235318660736 0.35686275362968445
0.6613300442695618 0.8815727233886719 0.007905138656497002 0.2078431397676468 0.2078431397676468 0.16862745583057404
0.6768472790718079 0.9831043481826782 0.009486165829002857 0.45098039507865906 0.4274509847164154 0.3803921639919281
0.8399015069007874 0.9990525841712952 0.6849802136421204 0.2823529541492462 0.23529411852359772 0.18039216101169586
0.7300492525100708 0.9223117232322693 0.00830039568245411 0.27843138575553894 0.27450981736183167 0.1921568661928177
0.8238916397094727 0.9881572723388672 0.01067193690687418 0.16862745583057404 0.15294118225574493 0.11764705926179886
0.7093595862388611 0.9955787062644958 0.5430830121040344 0.6941176652908325 0.7333333492279053 0.7411764860153198
0.8221675157546997 0.9979472756385803 0.12292490154504776 0.33725491166114807 0.30980393290519714 0.24705882370471954
0.8342364430427551 0.9534186124801636 0.5154150128364563 0.7686274647712708 0.5843137502670288 0.4117647111415863
0.6839901208877563 0.8708353042602539 0.21581028401851654 0.13333334028720856 0.1568627506494522 0.1568627506494522
0.7054187059402466 0.9737880825996399 0.9434782862663269 0.3450980484485626 0.3176470696926117 0.27843138575553894
0.7280788421630859 0.9865782260894775 0.9873517751693726 0.3607843220233917 0.3529411852359772 0.2705882489681244
0.6349753737449646 0.9973156452178955 0.8335968255996704 0.5647059082984924 0.572549045085907 0.5686274766921997
0.7305418848991394 0.9155218601226807 0.007905138656497002 0.25882354378700256 0.23137255012989044 0.16078431904315948
0.7192118167877197 0.9954208135604858 0.3798418939113617 0.4745098054409027 0.48235294222831726 0.4627451002597809
0.7463054060935974 0.9971577525138855 0.939920961856842 0.4274509847164154 0.40392157435417175 0.34117648005485535
0.8357142806053162 0.9985788464546204 0.8616600632667542 0.5215686559677124 0.5215686559677124 0.48235294222831726
0.7076354622840881 0.9968419671058655 0.9138339757919312 0.4117647111415863 0.3803921639919281 0.29019609093666077
0.633004903793335 0.9696826338768005 0.9106719493865967 0.3960784375667572 0.40392157435417175 0.3843137323856354
0.738916277885437 0.9224696159362793 0.17509882152080536 0.24313725531101227 0.250980406999588 0.23137255012989044
0.8581280708312988 0.9556292295455933 0.31067192554473877 0.7529411911964417 0.5411764979362488 0.2666666805744171
0.8519704341888428 0.9985788464546204 0.3379446566104889 0.24313725531101227 0.21176470816135406 0.16078431904315948
0.8448275923728943 0.9543660283088684 0.3802371621131897 0.772549033164978 0.545098066329956 0.2980392277240753
0.8509852290153503 0.9992104768753052 0.8106719255447388 0.3607843220233917 0.32549020648002625 0.21176470816135406
0.6798029541969299 0.994473397731781 0.3691699504852295 0.4941176474094391 0.48627451062202454 0.40392157435417175
