0.9337438344955444 0.9987367987632751 0.14861659705638885 0.19607843458652496 0.1725490242242813 0.11764705926179886
0.8965517282485962 0.9619453549385071 0.8335968255996704 0.4156862795352936 0.2666666805744171 0.1921568661928177
0.9640393853187561 0.9448918104171753 0.9897233247756958 0.3686274588108063 0.3450980484485626 0.25882354378700256
0.7916256189346313 0.9981051683425903 0.22727273404598236 0.4313725531101227 0.40784314274787903 0.30588236451148987
0.8884236216545105 0.9611558318138123 0.8462450504302979 0.32156863808631897 0.21568627655506134 0.1411764770746231
0.9386699795722961 0.9992104768753052 0.5901185870170593 0.18431372940540314 0.1568627506494522 0.125490203499794
0.7746305465698242 0.972682774066925 0.010276679880917072 0.4627451002597809 0.46666666865348816 0.3960784375667572
0.942364513874054 0.9663666486740112 0.7924901247024536 0.5215686559677124 0.37254902720451355 0.22745098173618317
0.9586206674575806 0.9658929705619812 0.008695651777088642 0.40784314274787903 0.38823530077934265 0.3137255012989044
0.9785714149475098 0.9709458351135254 0.6351778507232666 0.32156863808631897 0.21960784494876862 0.11372549086809158
0.8342364430427551 0.9990525841712952 0.6735177636146545 0.2980392277240753 0.250980406999588 0.1882352977991104
0.820443332195282 0.9988946914672852 0.6901185512542725 0.3294117748737335 0.27843138575553894 0.20392157137393951
0.9364532232284546 0.9652613401412964 0.7071146368980408 0.6196078658103943 0.4627451002597809 0.32156863808631897
0.8201970458030701 0.8943628668785095 0.9889327883720398 0.2823529541492462 0.25882354378700256 0.20392157137393951
0.9455664753913879 0.9662087559700012 0.677470326423645 0.4901960790157318 0.33725491166114807 0.1764705926179886
0.818965494632721 0.9519974589347839 0.7003952860832214 0.5803921818733215 0.4941176474094391 0.40392157435417175
0.7711822390556335 0.9985788464546204 0.7158102989196777 0.5333333611488342 0.5058823823928833 0.43529412150382996
0.8327586054801941 0.9534186124801636 0.5644268989562988 0.7450980544090271 0.6117647290229797 0.4627451002597809
0.8790640234947205 0.8769935369491577 0.0063241105526685715 0.5254902243614197 0.5137255191802979 0.45490196347236633
0.8807882070541382 0.9573661684989929 0.09169960767030716 0.5960784554481506 0.3490196168422699 0.18039216101169586
0.8879310488700867 0.9988946914672852 0.19090908765792847 0.18431372940540314 0.1568627506494522 0.11764705926179886
0.7810344696044922 0.9183641076087952 0.22687746584415436 0.09019608050584793 0.09803921729326248 0.08627451211214066
0.7588669657707214 0.9493131041526794 0.8241106867790222 0.5647059082984924 0.5098039507865906 0.40784314274787903
0.7990148067474365 0.9981051683425903 0.2237154096364975 0.41960784792900085 0.3921568691730499 0.27843138575553894
0.9270936250686646 0.9641560316085815 0.6636363863945007 0.6039215922355652 0.4313725531101227 0.27843138575553894
0.8635467886924744 0.9279962182044983 0.9889327883720398 0.4313725531101227 0.40392157435417175 0.34117648005485535
0.8928571343421936 0.9981051683425903 0.9237154126167297 0.501960813999176 0.47058823704719543 0.38823530077934265
0.8933497667312622 0.9589452147483826 0.10197628289461136 0.6000000238418579 0.3686274588108063 0.19607843458652496
0.9665024876594543 0.9681035876274109 0.5517786741256714 0.658823549747467 0.48627451062202454 0.34117648005485535
0.7839901447296143 0.9974735379219055 0.9735177755355835 0.45098039507865906 0.41960784792900085 0.3294117748737335
0.7783251404762268 0.9982630610466003 0.4126482307910919 0.5215686559677124 0.501960813999176 0.4156862795352936
0.7465517520904541 0.9977893829345703 0.24822133779525757 0.6980392336845398 0.6901960968971252 0.6000000238418579
0.9768472909927368 0.9982630610466003 0.9118577241897583 0.4627451002597809 0.41960784792900085 0.3333333432674408
0.8337438702583313 0.9548397064208984 0.8367589116096497 0.4470588266849518 0.29411765933036804 0.1411764770746231
0.7709359526634216 0.8713090419769287 0.0071146246045827866 0.40784314274787903 0.4000000059604645 0.3490196168422699
0.9847290515899658 0.9748933911323547 0.5308300256729126 0.3176470696926117 0.29019609093666077 0.21960784494876862
0.7852216958999634 0.9477341175079346 0.3707509934902191 0.7254902124404907 0.46666666865348816 0.22745098173618317
0.8822659850120544 0.9575240612030029 0.09169960767030716 0.6000000238418579 0.3529411852359772 0.18431372940540314
0.8972906470298767 0.9992104768753052 0.5308300256729126 0.19607843458652496 0.16862745583057404 0.12941177189350128
0.7933497428894043 0.9491552114486694 0.7648221254348755 0.6117647290229797 0.47058823704719543 0.33725491166114807
0.8635467886924744 0.9988946914672852 0.4588932693004608 0.22745098173618317 0.19607843458652496 0.15294118225574493
0.8908867239952087 0.9988946914672852 0.28893280029296875 0.1882352977991104 0.15294118225574493 0.11764705926179886
0.8694581389427185 0.9993683695793152 0.7778655886650085 0.24313725531101227 0.2078431397676468 0.14901961386203766
0.9522167444229126 0.9966840147972107 0.3079051375389099 0.21568627655506134 0.18431372940540314 0.13333334028720856
0.8837438225746155 0.9595768451690674 0.6984189748764038 0.5647059082984924 0.3921568691730499 0.2549019753932953
0.7549260854721069 0.9864203333854675 0.009881422854959965 0.2862745225429535 0.27843138575553894 0.22745098173618317
0.9369457960128784 0.9647876024246216 0.3786561191082001 0.729411780834198 0.4941176474094391 0.25882354378700256
0.7780787944793701 0.9458392262458801 0.21185770630836487 0.250980406999588 0.1725490242242813 0.12941177189350128
0.759605884552002 0.9845255017280579 0.9873517751693726 0.3960784375667572 0.3764705955982208 0.29019609093666077
0.9455664753913879 0.9657350182533264 0.36758893728256226 0.6313725709915161 0.3960784375667572 0.16078431904315948
0.7995073795318604 0.9987367987632751 0.738339900970459 0.3921568691730499 0.33725491166114807 0.23529411852359772
0.9561576247215271 0.9981051683425903 0.5150197744369507 0.1882352977991104 0.16078431904315948 0.09803921729326248
0.7825123071670532 0.9477341175079346 0.6976284384727478 0.6705882549285889 0.5176470875740051 0.38823530077934265
0.7687191963195801 0.9385756850242615 0.9881423115730286 0.4627451002597809 0.45098039507865906 0.3764705955982208
0.7881773114204407 0.9988946914672852 0.7806324362754822 0.4313725531101227 0.40392157435417175 0.3019607961177826
0.9349753856658936 0.9992104768753052 0.5889328122138977 0.1764705926179886 0.14901961386203766 0.11764705926179886
0.9847290515899658 0.9707879424095154 0.09525691717863083 0.24313725531101227 0.19607843458652496 0.13333334028720856
0.7837438583374023 0.9987367987632751 0.8288537263870239 0.5529412031173706 0.5647059082984924 0.49803921580314636
0.7849753499031067 0.9987367987632751 0.7549406886100769 0.4313725531101227 0.4117647111415863 0.3333333432674408
0.8275862336158752 0.9987367987632751 0.5347825884819031 0.3176470696926117 0.2862745225429535 0.19607843458652496
0.8327586054801941 0.8891520500183105 0.9889327883720398 0.25882354378700256 0.23529411852359772 0.18039216101169586
0.7995073795318604 0.9488394260406494 0.45494070649147034 0.7176470756530762 0.48627451062202454 0.25882354378700256
0.9113300442695618 0.9621032476425171 0.4426877498626709 0.658823549747467 0.41960784792900085 0.2078431397676468
0.8630542159080505 0.9576819539070129 0.760869562625885 0.5686274766921997 0.40392157435417175 0.2549019753932953
0.8273398876190186 0.9984209537506104 0.3122529685497284 0.364705890417099 0.32156863808631897 0.250980406999588
0.8258620500564575 0.9516816735267639 0.16403162479400635 0.5529412031173706 0.3686274588108063 0.19607843458652496
0.7980295419692993 0.9486815333366394 0.15810276567935944 0.4470588266849518 0.3176470696926117 0.18039216101169586
0.951724112033844 0.9663666486740112 0.3375494182109833 0.6235294342041016 0.4117647111415863 0.1764705926179886
0.9793103337287903 0.989420473575592 0.8841897249221802 0.4156862795352936 0.2549019753932953 0.18431372940540314
0.9162561297416687 0.9628927707672119 0.6241106986999512 0.5686274766921997 0.41960784792900085 0.27843138575553894
0.7588669657707214 0.9529448747634888 0.7260869741439819 0.40392157435417175 0.33725491166114807 0.25882354378700256
0.7603448033332825 0.9587873220443726 0.4067193567752838 0.45098039507865906 0.4156862795352936 0.3490196168422699
0.8177340030670166 0.9981051683425903 0.14426878094673157 0.35686275362968445 0.3333333432674408 0.24705882370471954
0.8492611050605774 0.9988946914672852 0.5371541380882263 0.26274511218070984 0.23529411852359772 0.16470588743686676
0.8418719172477722 0.9633665084838867 0.9881423115730286 0.4313725531101227 0.4000000059604645 0.32549020648002625
0.9852216839790344 0.880467414855957 0.9193676114082336 0.47843137383461 0.43529412150382996 0.364705890417099
0.7726600766181946 0.9474182724952698 0.8268774747848511 0.47058823704719543 0.2980392277240753 0.15294118225574493
0.9413793087005615 0.9992104768753052 0.573122501373291 0.20392157137393951 0.1882352977991104 0.14509804546833038
0.9477832317352295 0.9649454951286316 0.08616600930690765 0.6745098233222961 0.4470588266849518 0.20000000298023224
0.8142856955528259 0.9513658881187439 0.9881423115730286 0.46666666865348816 0.43921568989753723 0.3686274588108063
0.762561559677124 0.9261013865470886 0.25217390060424805 0.14901961386203766 0.1568627506494522 0.15294118225574493
0.9034482836723328 0.9990525841712952 0.3177865743637085 0.16470588743686676 0.14901961386203766 0.10196078568696976
0.9428571462631226 0.99984210729599 0.7960474491119385 0.16862745583057404 0.15294118225574493 0.10980392247438431
0.7492610812187195 0.9313122034072876 0.26798418164253235 0.19607843458652496 0.20392157137393951 0.20000000298023224
0.9733990430831909 0.9472603797912598 0.9877470135688782 0.34117648005485535 0.3176470696926117 0.23137255012989044
0.7647783160209656 0.9985788464546204 0.8181818127632141 0.5098039507865906 0.43921568989753723 0.3529411852359772
0.8790640234947205 0.9600505232810974 0.8284584879875183 0.3450980484485626 0.20000000298023224 0.125490203499794
0.7455664873123169 0.9982630610466003 0.6501976251602173 0.6549019813537598 0.6392157077789307 0.5411764979362488
0.762561559677124 0.9101531505584717 0.9885375499725342 0.4000000059604645 0.38823530077934265 0.3294117748737335
0.9339901208877563 0.9306805729866028 0.9893280863761902 0.3921568691730499 0.3607843220233917 0.2862745225429535
0.7635468244552612 0.9576819539070129 0.06837944686412811 0.12156862765550613 0.10980392247438431 0.05098039284348488
0.7719211578369141 0.9019421935081482 0.9889327883720398 0.27843138575553894 0.2705882489681244 0.1882352977991104
0.8339901566505432 0.8687825798988342 0.9885375499725342 0.23529411852359772 0.21960784494876862 0.1764705926179886
0.7736453413963318 0.9652613401412964 0.011857707053422928 0.3333333432674408 0.3333333432674408 0.29411765933036804
0.9189655184745789 0.9988946914672852 0.8695651888847351 0.4588235318660736 0.43529412150382996 0.3490196168422699
0.8295566439628601 0.9197852611541748 0.0063241105526685715 0.2666666805744171 0.22745098173618317 0.18039216101169586
0.9849753975868225 0.8733617663383484 0.9320158362388611 0.47058823704719543 0.4274509847164154 0.35686275362968445
0.9586206674575806 0.9692088961601257 0.8363636136054993 0.364705890417099 0.24313725531101227 0.16078431904315948
0.926354706287384 0.9628927707672119 0.18300394713878632 0.6196078658103943 0.3803921639919281 0.2078431397676468
0.8485221862792969 0.9973156452178955 0.04782608523964882 0.062745101749897 0.054901961237192154 0.05882352963089943
0.9330049157142639 0.9644718170166016 0.47154149413108826 0.6313725709915161 0.43529412150382996 0.1882352977991104
0.9366995096206665 0.9314700961112976 0.9893280863761902 0.40784314274787903 0.364705890417099 0.2862745225429535
0.8862069249153137 0.9598926305770874 0.7189723253250122 0.4745098054409027 0.3019607961177826 0.14901961386203766
0.8231527209281921 0.9982630610466003 0.1723320186138153 0.3450980484485626 0.3176470696926117 0.24313725531101227
0.9315270781517029 0.9985788464546204 0.896442711353302 0.43921568989753723 0.4117647111415863 0.30980393290519714
0.820443332195282 0.9884730577468872 0.010276679880917072 0.2078431397676468 0.1921568661928177 0.1568627506494522
0.9583743810653687 0.9984209537506104 0.5830039381980896 0.20392157137393951 0.1725490242242813 0.12156862765550613
0.7591133117675781 0.9513658881187439 0.3691699504852295 0.5137255191802979 0.3803921639919281 0.2705882489681244
0.9399014711380005 0.9643139243125916 0.14901185035705566 0.6666666865348816 0.42352941632270813 0.20000000298023224
0.7573891878128052 0.9120479822158813 0.16916996240615845 0.239215686917305 0.26274511218070984 0.24705882370471954
0.742118239402771 0.9150481820106506 0.007509881630539894 0.2549019753932953 0.23137255012989044 0.16862745583057404
0.942364513874054 0.9646297097206116 0.13715414702892303 0.6745098233222961 0.4313725531101227 0.1921568661928177
0.8825123310089111 0.9985788464546204 0.8897233009338379 0.4901960790157318 0.4470588266849518 0.3607843220233917
0.9165024757385254 0.9549976587295532 0.0071146246045827866 0.5490196347236633 0.5254902243614197 0.42352941632270813
0.8913792967796326 0.9598926305770874 0.5237154364585876 0.7019608020782471 0.501960813999176 0.2862745225429535
0.7655172348022461 0.9965261220932007 0.020553359761834145 0.20392157137393951 0.1882352977991104 0.14509804546833038
0.8199507594108582 0.9507342576980591 0.07588932663202286 0.4470588266849518 0.29411765933036804 0.1725490242242813
0.8800492882728577 0.9987367987632751 0.17272727191448212 0.18039216101169586 0.1725490242242813 0.12156862765550613
0.9475369453430176 0.9990525841712952 0.6980237364768982 0.26274511218070984 0.22745098173618317 0.16862745583057404
0.7470443248748779 0.9979472756385803 0.3695652186870575 0.7058823704719543 0.686274528503418 0.6000000238418579
0.7903940677642822 0.9074687957763672 0.17549407482147217 0.27450981736183167 0.29019609093666077 0.2862745225429535
0.9830049276351929 0.9733144044876099 0.6462450623512268 0.16078431904315948 0.16862745583057404 0.11372549086809158
0.8238916397094727 0.8951523900032043 0.9889327883720398 0.2862745225429535 0.27450981736183167 0.21568627655506134
0.8916256427764893 0.9977893829345703 0.058102767914533615 0.0941176488995552 0.0784313753247261 0.06666667014360428
0.9509851932525635 0.966840386390686 0.6893280744552612 0.49803921580314636 0.3490196168422699 0.20392157137393951
0.9448275566101074 0.9646297097206116 0.08695652335882187 0.6823529601097107 0.45098039507865906 0.21568627655506134
0.8384236693382263 0.9526290893554688 0.02924901247024536 0.43529412150382996 0.29019609093666077 0.11764705926179886
0.9349753856658936 0.9992104768753052 0.5418972373008728 0.1764705926179886 0.16078431904315948 0.11764705926179886
0.829802930355072 0.9526290893554688 0.37747034430503845 0.7098039388656616 0.4901960790157318 0.25882354378700256
0.9475369453430176 0.9968419671058655 0.10750988125801086 0.1411764770746231 0.11764705926179886 0.054901961237192154
0.7423645257949829 0.9366808533668518 0.19169960916042328 0.2823529541492462 0.3019607961177826 0.27450981736183167
0.9128078818321228 0.9988946914672852 0.8664031624794006 0.4588235318660736 0.43921568989753723 0.3529411852359772
0.9322659969329834 0.891678512096405 0.9893280863761902 0.3803921639919281 0.3490196168422699 0.27450981736183167
0.9071428775787354 0.9990525841712952 0.35098814964294434 0.1764705926179886 0.15294118225574493 0.10588235408067703
0.8620689511299133 0.9437865018844604 0.9885375499725342 0.4627451002597809 0.43529412150382996 0.3607843220233917
0.8192118406295776 0.9988946914672852 0.8205533623695374 0.4745098054409027 0.4470588266849518 0.37254902720451355
0.8884236216545105 0.9586294293403625 0.1766798347234726 0.6980392336845398 0.43529412150382996 0.23137255012989044
0.834482729434967 0.9766303300857544 0.9877470135688782 0.40784314274787903 0.3764705955982208 0.29411765933036804
0.9133005142211914 0.9993683695793152 0.7494071125984192 0.16078431904315948 0.13725490868091583 0.09019608050584793
0.9108374118804932 0.9992104768753052 0.6126482486724854 0.18431372940540314 0.14901961386203766 0.11372549086809158
0.809359610080719 0.9507342576980591 0.6375494003295898 0.6509804129600525 0.49803921580314636 0.3764705955982208
0.8953201770782471 0.9605242609977722 0.6126482486724854 0.6431372761726379 0.4941176474094391 0.30980393290519714
0.9339901208877563 0.8820464015007019 0.005928853526711464 0.5960784554481506 0.5921568870544434 0.5137255191802979
0.7573891878128052 0.9251539707183838 0.2292490154504776 0.6196078658103943 0.5843137502670288 0.47058823704719543
0.8743842244148254 0.9681035876274109 0.9881423115730286 0.4627451002597809 0.41960784792900085 0.34117648005485535
0.9852216839790344 0.9715774655342102 0.9664031863212585 0.42352941632270813 0.3764705955982208 0.27450981736183167
0.8418719172477722 0.9976314306259155 0.08063241094350815 0.26274511218070984 0.24705882370471954 0.21176470816135406
0.9337438344955444 0.9988946914672852 0.26205533742904663 0.18039216101169586 0.16470588743686676 0.12941177189350128
0.9613300561904907 0.9979472756385803 0.9426877498626709 0.3921568691730499 0.3843137323856354 0.29411765933036804
0.7662561535835266 0.9483656883239746 0.7039525508880615 0.5803921818733215 0.43529412150382996 0.3333333432674408
0.7544335126876831 0.908258318901062 0.16956521570682526 0.250980406999588 0.2666666805744171 0.26274511218070984
0.7844827771186829 0.9161534905433655 0.21660079061985016 0.12941177189350128 0.0941176488995552 0.06666667014360428
0.9679803252220154 0.9682614803314209 0.35138338804244995 0.7254902124404907 0.5058823823928833 0.30588236451148987
0.7926108241081238 0.9579977989196777 0.9877470135688782 0.47843137383461 0.4588235318660736 0.3843137323856354
0.75 0.9979472756385803 0.35731226205825806 0.7176470756530762 0.7176470756530762 0.6235294342041016
0.934236466884613 0.9992104768753052 0.6158102750778198 0.18039216101169586 0.1568627506494522 0.10980392247438431
0.8004925847053528 0.8921521902084351 0.1557312309741974 0.1568627506494522 0.1568627506494522 0.125490203499794
0.9539408683776855 0.9977893829345703 0.25770750641822815 0.21568627655506134 0.18431372940540314 0.10980392247438431
0.7770935893058777 0.91899573802948 0.18379446864128113 0.29019609093666077 0.3137255012989044 0.30588236451148987
0.7960591316223145 0.9218379855155945 0.17826086282730103 0.24705882370471954 0.2666666805744171 0.250980406999588
0.8433497548103333 0.9988946914672852 0.6015810370445251 0.2666666805744171 0.239215686917305 0.16862745583057404
0.7600985169410706 0.9589452147483826 0.4071146249771118 0.4588235318660736 0.42352941632270813 0.35686275362968445
0.9534482955932617 0.9951050281524658 0.1300395280122757 0.1764705926179886 0.16078431904315948 0.11764705926179886
0.7689655423164368 0.9478920102119446 0.6853755116462708 0.5882353186607361 0.4431372582912445 0.33725491166114807
0.856157660484314 0.8792041540145874 0.0063241105526685715 0.4588235318660736 0.4470588266849518 0.38823530077934265
0.8160098791122437 0.9336807131767273 0.007509881630539894 0.2823529541492462 0.250980406999588 0.16862745583057404
0.9514778256416321 0.966998279094696 0.7474308013916016 0.48235294222831726 0.33725491166114807 0.23529411852359772
0.7830049395561218 0.8907310962677002 0.9885375499725342 0.24705882370471954 0.250980406999588 0.18039216101169586
0.7652709484100342 0.9158377051353455 0.9885375499725342 0.47058823704719543 0.4588235318660736 0.3921568691730499
0.7699507474899292 0.9447339177131653 0.009486165829002857 0.32156863808631897 0.29411765933036804 0.2235294133424759
0.9150246381759644 0.9977893829345703 0.07470355927944183 0.125490203499794 0.11372549086809158 0.0941176488995552
0.8625615835189819 0.9559450745582581 0.2707509994506836 0.7686274647712708 0.5333333611488342 0.29019609093666077
0.7802955508232117 0.9984209537506104 0.8529644012451172 0.3529411852359772 0.3607843220233917 0.3490196168422699
0.867241382598877 0.9589452147483826 0.8375493884086609 0.34117648005485535 0.21568627655506134 0.11764705926179886
0.8073891401290894 0.9068372249603271 0.9889327883720398 0.34117648005485535 0.32156863808631897 0.24313725531101227
0.9002463221549988 0.9602084159851074 0.25375494360923767 0.7333333492279053 0.4745098054409027 0.24705882370471954
0.9615763425827026 0.9542081356048584 0.007905138656497002 0.572549045085907 0.5529412031173706 0.4745098054409027
0.9830049276351929 0.9737880825996399 0.5498023629188538 0.24705882370471954 0.21568627655506134 0.16470588743686676
0.7492610812187195 0.9968419671058655 0.04743082821369171 0.4000000059604645 0.3921568691730499 0.3333333432674408
0.8280788064002991 0.9987367987632751 0.85138338804245 0.5176470875740051 0.529411792755127 0.501960813999176
0.7970443367958069 0.902731716632843 0.9889327883720398 0.23137255012989044 0.2235294133424759 0.1411764770746231
0.767241358757019 0.9234170317649841 0.24071146547794342 0.13333334028720856 0.125490203499794 0.13725490868091583
0.9524630308151245 0.967156171798706 0.7482213377952576 0.48235294222831726 0.32549020648002625 0.2235294133424759
0.825123131275177 0.9990525841712952 0.7735177874565125 0.3529411852359772 0.30588236451148987 0.21176470816135406
0.9512315392494202 0.8732038736343384 0.005928853526711464 0.5215686559677124 0.5098039507865906 0.4431372582912445
0.9320197105407715 0.9638401865959167 0.24229249358177185 0.7176470756530762 0.4745098054409027 0.24313725531101227
0.8568965792655945 0.8998894691467285 0.005928853526711464 0.43529412150382996 0.4274509847164154 0.3450980484485626
0.759605884552002 0.9152060747146606 0.007509881630539894 0.3490196168422699 0.33725491166114807 0.26274511218070984
0.8805418610572815 0.9988946914672852 0.2703557312488556 0.20392157137393951 0.18039216101169586 0.13333334028720856
0.7778325080871582 0.9987367987632751 0.7300395369529724 0.47058823704719543 0.4431372582912445 0.37254902720451355
0.8820196986198425 0.9606821537017822 0.8608695864677429 0.4588235318660736 0.43529412150382996 0.34117648005485535
0.9347290396690369 0.9853150248527527 0.9893280863761902 0.3686274588108063 0.33725491166114807 0.24705882370471954
0.7581281065940857 0.9984209537506104 0.7881422638893127 0.6117647290229797 0.46666666865348816 0.3607843220233917
0.9167487621307373 0.9919469356536865 0.015415019355714321 0.05882352963089943 0.054901961237192154 0.03921568766236305
0.8128078579902649 0.9148902297019958 0.18616600334644318 0.3450980484485626 0.364705890417099 0.3490196168422699
0.9793103337287903 0.9690510034561157 0.1881422996520996 0.6039215922355652 0.4000000059604645 0.24313725531101227
0.9837438464164734 0.9684193730354309 0.8458498120307922 0.22745098173618317 0.23137255012989044 0.20000000298023224
0.8615763783454895 0.9987367987632751 0.36166009306907654 0.24313725531101227 0.21176470816135406 0.16862745583057404
0.9849753975868225 0.9720511436462402 0.8545454740524292 0.05882352963089943 0.054901961237192154 0.03921568766236305
0.7426108121871948 0.9387336373329163 0.19525691866874695 0.250980406999588 0.27450981736183167 0.23529411852359772
0.8729063868522644 0.9987367987632751 0.21027667820453644 0.21960784494876862 0.1921568661928177 0.15294118225574493
0.7544335126876831 0.9979472756385803 0.395652174949646 0.6705882549285889 0.6705882549285889 0.5686274766921997
0.9118226766586304 0.9990525841712952 0.2339920997619629 0.1764705926179886 0.15294118225574493 0.09803921729326248
0.8618226647377014 0.9987367987632751 0.34189721941947937 0.22745098173618317 0.20392157137393951 0.14901961386203766
0.9793103337287903 0.9692088961601257 0.23517785966396332 0.4470588266849518 0.32156863808631897 0.16862745583057404
0.829802930355072 0.9974735379219055 0.9699604511260986 0.4470588266849518 0.40784314274787903 0.30980393290519714
0.9541872143745422 0.9977893829345703 0.9553359746932983 0.4941176474094391 0.45098039507865906 0.3803921639919281
0.7682266235351562 0.9963682293891907 0.015019763261079788 0.21568627655506134 0.1921568661928177 0.14509804546833038
0.8162561655044556 0.9982630610466003 0.3806324005126953 0.3803921639919281 0.34117648005485535 0.23529411852359772
0.7756157517433167 0.9363650679588318 0.3071146309375763 0.23529411852359772 0.250980406999588 0.2549019753932953
0.860837459564209 0.9954208135604858 0.9849802255630493 0.4313725531101227 0.38823530077934265 0.27843138575553894
0.9120689630508423 0.9606821537017822 0.033596839755773544 0.5215686559677124 0.30980393290519714 0.16078431904315948
0.7985221743583679 0.9981051683425903 0.3648221492767334 0.42352941632270813 0.3960784375667572 0.2823529541492462
0.8027093410491943 0.9984209537506104 0.5256916880607605 0.3803921639919281 0.3529411852359772 0.24313725531101227
0.8849753737449646 0.9587873220443726 0.3581027686595917 0.658823549747467 0.43921568989753723 0.20000000298023224
0.7889162302017212 0.9477341175079346 0.09802371263504028 0.3843137323856354 0.29411765933036804 0.1725490242242813
0.8933497667312622 0.9932101964950562 0.01304347813129425 0.07450980693101883 0.07058823853731155 0.054901961237192154
0.7600985169410706 0.9491552114486694 0.6383399367332458 0.6980392336845398 0.6823529601097107 0.5764706134796143
0.8039408922195435 0.9501026272773743 0.6332015991210938 0.6666666865348816 0.5137255191802979 0.4000000059604645
0.7780787944793701 0.9347860217094421 0.9881423115730286 0.3843137323856354 0.3607843220233917 0.2980392277240753
0.7630541920661926 0.9306805729866028 0.17944663763046265 0.2549019753932953 0.29019609093666077 0.27843138575553894
0.879802942276001 0.9573661684989929 0.10830039530992508 0.6078431606292725 0.3607843220233917 0.1921568661928177
0.881280779838562 0.8746249675750732 0.0063241105526685715 0.5176470875740051 0.501960813999176 0.45490196347236633
0.8832512497901917 0.9981051683425903 0.0988142266869545 0.16078431904315948 0.14509804546833038 0.10196078568696976
0.7623152732849121 0.9696826338768005 0.010276679880917072 0.38823530077934265 0.3803921639919281 0.3294117748737335
0.9559113383293152 0.9955787062644958 0.0782608687877655 0.16470588743686676 0.1568627506494522 0.10588235408067703
0.940640389919281 0.9641560316085815 0.09525691717863083 0.6431372761726379 0.4117647111415863 0.18431372940540314
0.7539408802986145 0.9532607197761536 0.5762845873832703 0.5843137502670288 0.3921568691730499 0.23529411852359772
0.8852216601371765 0.9107847809791565 0.005928853526711464 0.43529412150382996 0.4117647111415863 0.3176470696926117
0.7613300681114197 0.9954208135604858 0.9869565367698669 0.4588235318660736 0.41960784792900085 0.3137255012989044
0.9273399114608765 0.9644718170166016 0.7557312250137329 0.5058823823928833 0.34117648005485535 0.24313725531101227
0.8009852170944214 0.946628749370575 0.008695651777088642 0.3176470696926117 0.29019609093666077 0.250980406999588
0.7783251404762268 0.946628749370575 0.5371541380882263 0.5529412031173706 0.38823530077934265 0.239215686917305
0.798275887966156 0.9480499029159546 0.269565224647522 0.30980393290519714 0.21568627655506134 0.11372549086809158
0.8573891520500183 0.9556292295455933 0.3233201503753662 0.7529411911964417 0.5372549295425415 0.27450981736183167
0.8507389426231384 0.8965734839439392 0.005928853526711464 0.4627451002597809 0.4274509847164154 0.3686274588108063
0.8726601004600525 0.9976314306259155 0.06521739065647125 0.1882352977991104 0.18039216101169586 0.13333334028720856
0.8438423871994019 0.9990525841712952 0.7292490005493164 0.2705882489681244 0.24313725531101227 0.18039216101169586
0.8633005023002625 0.9069951176643372 0.9893280863761902 0.37254902720451355 0.34117648005485535 0.2666666805744171
0.8773398995399475 0.9987367987632751 0.26719367504119873 0.21960784494876862 0.1882352977991104 0.14509804546833038
0.8418719172477722 0.8904153108596802 0.9889327883720398 0.2705882489681244 0.24705882370471954 0.1921568661928177
0.8519704341888428 0.897520899772644 0.9893280863761902 0.2235294133424759 0.21176470816135406 0.14509804546833038
0.8894088864326477 0.9600505232810974 0.6841897368431091 0.5921568870544434 0.4313725531101227 0.3137255012989044
0.7694581151008606 0.9979472756385803 0.20671936869621277 0.5647059082984924 0.5568627715110779 0.5098039507865906
0.9495074152946472 0.9655771255493164 0.16877470910549164 0.6509804129600525 0.43529412150382996 0.21568627655506134
0.8130542039871216 0.9109426736831665 0.25375494360923767 0.09019608050584793 0.08627451211214066 0.07058823853731155
0.7551724314689636 0.9666824340820312 0.010276679880917072 0.35686275362968445 0.33725491166114807 0.26274511218070984
0.9596059322357178 0.9153639674186707 0.9897233247756958 0.364705890417099 0.3333333432674408 0.25882354378700256
0.9852216839790344 0.8776251673698425 0.9474308490753174 0.43529412150382996 0.40392157435417175 0.3529411852359772
0.8982758522033691 0.9608400464057922 0.5537549257278442 0.658823549747467 0.47843137383461 0.2823529541492462
0.7699507474899292 0.9264171719551086 0.18577075004577637 0.250980406999588 0.2705882489681244 0.2549019753932953
0.8103448152542114 0.886467695236206 0.9885375499725342 0.2235294133424759 0.2078431397676468 0.16078431904315948
0.8278325200080872 0.9202589392662048 0.0063241105526685715 0.18039216101169586 0.14509804546833038 0.10980392247438431
0.8421182036399841 0.9973156452178955 0.054940711706876755 0.062745101749897 0.05882352963089943 0.03921568766236305
0.8926108479499817 0.9988946914672852 0.3011857569217682 0.1764705926179886 0.14509804546833038 0.10196078568696976
0.8901478052139282 0.9368388056755066 0.0063241105526685715 0.686274528503418 0.6627451181411743 0.5686274766921997
0.9817733764648438 0.9745776057243347 0.9731225371360779 0.3450980484485626 0.2980392277240753 0.20392157137393951
0.8815270662307739 0.9147323369979858 0.9893280863761902 0.4000000059604645 0.364705890417099 0.2980392277240753
0.7423645257949829 0.9979472756385803 0.49288538098335266 0.7019608020782471 0.7137255072593689 0.6078431606292725
0.7408866882324219 0.9221537709236145 0.9885375499725342 0.47843137383461 0.47058823704719543 0.41960784792900085
0.9487684965133667 0.9673140645027161 0.843478262424469 0.3333333432674408 0.20392157137393951 0.12941177189350128
0.8229063749313354 0.9984209537506104 0.38814228773117065 0.35686275362968445 0.32549020648002625 0.23529411852359772
0.751724123954773 0.9292594194412231 0.22529643774032593 0.5921568870544434 0.5647059082984924 0.45098039507865906
0.7431034445762634 0.9351018667221069 0.00909090880304575 0.3137255012989044 0.29411765933036804 0.21960784494876862
0.9241379499435425 0.99968421459198 0.7707509994506836 0.1568627506494522 0.1411764770746231 0.09803921729326248
0.9305418729782104 0.9644718170166016 0.6569169759750366 0.6274510025978088 0.4627451002597809 0.2980392277240753
0.7655172348022461 0.8900994658470154 0.006719367578625679 0.32549020648002625 0.30980393290519714 0.26274511218070984
0.9086207151412964 0.9606821537017822 0.13320158421993256 0.6000000238418579 0.3529411852359772 0.14509804546833038
0.8588669896125793 0.9990525841712952 0.7505928874015808 0.239215686917305 0.20000000298023224 0.16078431904315948
0.9773399233818054 0.9681035876274109 0.009881422854959965 0.5176470875740051 0.49803921580314636 0.4117647111415863
0.9460591077804565 0.9977893829345703 0.07430829852819443 0.19607843458652496 0.16862745583057404 0.10588235408067703
0.7871921062469482 0.9512079358100891 0.9881423115730286 0.46666666865348816 0.4470588266849518 0.37254902720451355
0.9036945700645447 0.9988946914672852 0.18063241243362427 0.16470588743686676 0.1411764770746231 0.0941176488995552
0.9073891639709473 0.961471676826477 0.40395256876945496 0.686274528503418 0.4431372582912445 0.250980406999588
0.8756157755851746 0.9591031074523926 0.7525691986083984 0.4470588266849518 0.29019609093666077 0.14901961386203766
0.8935960531234741 0.9617874622344971 0.8450592756271362 0.3921568691730499 0.2549019753932953 0.18039216101169586
0.932758629322052 0.9992104768753052 0.6640316247940063 0.16470588743686676 0.13725490868091583 0.10588235408067703
0.7965517044067383 0.8869414329528809 0.16245059669017792 0.1764705926179886 0.1764705926179886 0.16862745583057404
0.8815270662307739 0.8924680352210999 0.005928853526711464 0.6431372761726379 0.6039215922355652 0.5058823823928833
0.7864531874656677 0.9974735379219055 0.08774703741073608 0.41960784792900085 0.4117647111415863 0.3294117748737335
0.8894088864326477 0.9984209537506104 0.13715414702892303 0.18039216101169586 0.16470588743686676 0.12156862765550613
0.9145320057868958 0.9624190926551819 0.43913042545318604 0.658823549747467 0.4117647111415863 0.21176470816135406
0.7586206793785095 0.9347860217094421 0.00909090880304575 0.35686275362968445 0.3333333432674408 0.24705882370471954
0.9100984930992126 0.9992104768753052 0.5320158004760742 0.1882352977991104 0.16078431904315948 0.12156862765550613
0.757881760597229 0.9982630610466003 0.626086950302124 0.6000000238418579 0.6000000238418579 0.5058823823928833
0.8019704222679138 0.9501026272773743 0.7719367742538452 0.5647059082984924 0.4117647111415863 0.2823529541492462
0.8066502213478088 0.9499447345733643 0.4308300316333771 0.7176470756530762 0.4431372582912445 0.16862745583057404
0.9536945819854736 0.9677878022193909 0.8229249119758606 0.42352941632270813 0.29019609093666077 0.1921568661928177
0.7465517520904541 0.9982630610466003 0.8537549376487732 0.5254902243614197 0.5333333611488342 0.45098039507865906
0.9689655303955078 0.9952629208564758 0.47154149413108826 0.22745098173618317 0.20392157137393951 0.1411764770746231
0.8470443487167358 0.9992104768753052 0.6873517632484436 0.25882354378700256 0.22745098173618317 0.1764705926179886
0.8529556393623352 0.9554713368415833 0.499604731798172 0.7686274647712708 0.5529412031173706 0.34117648005485535
0.8334975242614746 0.9984209537506104 0.2185770720243454 0.3450980484485626 0.3176470696926117 0.24313725531101227
0.818965494632721 0.9257855415344238 0.9885375499725342 0.43529412150382996 0.40392157435417175 0.3294117748737335
0.7955664992332458 0.9963682293891907 0.015415019355714321 0.16862745583057404 0.1568627506494522 0.12156862765550613
0.9330049157142639 0.9644718170166016 0.5675889253616333 0.6392157077789307 0.48235294222831726 0.29019609093666077
0.7780787944793701 0.9455234408378601 0.2181818187236786 0.2549019753932953 0.18431372940540314 0.12941177189350128
0.9524630308151245 0.9407863616943359 0.0071146246045827866 0.5647059082984924 0.5490196347236633 0.45098039507865906
0.9354679584503174 0.9641560316085815 0.22134387493133545 0.6705882549285889 0.43529412150382996 0.20000000298023224
0.9455664753913879 0.9663666486740112 0.761660099029541 0.5411764979362488 0.3686274588108063 0.21568627655506134
0.9665024876594543 0.9988946914672852 0.8351778388023376 0.3803921639919281 0.35686275362968445 0.2705882489681244
0.8889162540435791 0.9068372249603271 0.005928853526711464 0.5333333611488342 0.501960813999176 0.41960784792900085
0.7741379141807556 0.8741512894630432 0.9889327883720398 0.3294117748737335 0.3137255012989044 0.2666666805744171
0.9004926085472107 0.9981051683425903 0.09169960767030716 0.13725490868091583 0.12156862765550613 0.08627451211214066
0.8009852170944214 0.9496289491653442 0.5411067008972168 0.686274528503418 0.4941176474094391 0.32549020648002625
0.8142856955528259 0.9502605199813843 0.9881423115730286 0.47058823704719543 0.4431372582912445 0.37254902720451355
0.793596088886261 0.9981051683425903 0.8972331881523132 0.5215686559677124 0.4117647111415863 0.364705890417099
0.8714285492897034 0.8880467414855957 0.005928853526711464 0.6745098233222961 0.6627451181411743 0.6039215922355652
0.7997536659240723 0.9486815333366394 0.12608695030212402 0.46666666865348816 0.3294117748737335 0.18039216101169586
0.9435960650444031 0.9174166917800903 0.005928853526711464 0.6117647290229797 0.5960784554481506 0.49803921580314636
0.8918719291687012 0.9988946914672852 0.33596837520599365 0.19607843458652496 0.16078431904315948 0.125490203499794
0.9834975600242615 0.9731564521789551 0.7051383256912231 0.16470588743686676 0.14509804546833038 0.16862745583057404
0.9586206674575806 0.9655771255493164 0.9897233247756958 0.37254902720451355 0.34117648005485535 0.2666666805744171
0.8007389307022095 0.9981051683425903 0.2549407184123993 0.4156862795352936 0.38823530077934265 0.27843138575553894
0.7766009569168091 0.8842570781707764 0.17826086282730103 0.24705882370471954 0.2705882489681244 0.2549019753932953
0.7911329865455627 0.9477341175079346 0.35612648725509644 0.7372549176216125 0.4901960790157318 0.21960784494876862
0.7694581151008606 0.8828359246253967 0.006719367578625679 0.35686275362968445 0.3490196168422699 0.2980392277240753
0.8330049514770508 0.9545239210128784 0.821739137172699 0.4901960790157318 0.3450980484485626 0.18039216101169586
0.8763546943664551 0.9586294293403625 0.6719367504119873 0.5686274766921997 0.4274509847164154 0.32549020648002625
0.7573891878128052 0.9362071752548218 0.19051383435726166 0.5607843399047852 0.5058823823928833 0.3921568691730499
0.7741379141807556 0.9955787062644958 0.9869565367698669 0.47058823704719543 0.4431372582912445 0.3333333432674408
0.8379310369491577 0.9538922905921936 0.5525691509246826 0.7098039388656616 0.5529412031173706 0.4117647111415863
0.9036945700645447 0.9619453549385071 0.7422924637794495 0.5058823823928833 0.3490196168422699 0.2078431397676468
0.9096059203147888 0.9990525841712952 0.24861660599708557 0.1764705926179886 0.15294118225574493 0.09803921729326248
0.7716748714447021 0.9703142046928406 0.010276679880917072 0.3490196168422699 0.33725491166114807 0.2705882489681244
0.767241358757019 0.9979472756385803 0.18537549674510956 0.572549045085907 0.5843137502670288 0.5176470875740051
0.7667487859725952 0.9482077956199646 0.5237154364585876 0.5960784554481506 0.42352941632270813 0.27843138575553894
0.7554187178611755 0.869572103023529 0.0071146246045827866 0.4313725531101227 0.4156862795352936 0.3686274588108063
0.9386699795722961 0.9984209537506104 0.12252964079380035 0.30588236451148987 0.26274511218070984 0.1921568661928177
0.762561559677124 0.9979472756385803 0.2509881556034088 0.6196078658103943 0.6235294342041016 0.5529412031173706
0.8997536897659302 0.9990525841712952 0.3177865743637085 0.1764705926179886 0.15294118225574493 0.10588235408067703
0.7778325080871582 0.9461550712585449 0.42490118741989136 0.5607843399047852 0.5372549295425415 0.4745098054409027
0.8359605669975281 0.9977893829345703 0.9442687630653381 0.48627451062202454 0.45490196347236633 0.3803921639919281
0.8399015069007874 0.9979472756385803 0.12134387344121933 0.2705882489681244 0.24705882370471954 0.1921568661928177
0.7571428418159485 0.9496289491653442 0.4750988185405731 0.43529412150382996 0.3490196168422699 0.20392157137393951
0.9753694534301758 0.9690510034561157 0.373517781496048 0.5843137502670288 0.40784314274787903 0.1921568661928177
0.7465517520904541 0.9982630610466003 0.8537549376487732 0.5254902243614197 0.5333333611488342 0.45098039507865906
0.9633004665374756 0.9992104768753052 0.8407114744186401 0.4156862795352936 0.3921568691730499 0.2980392277240753
0.8554187417030334 0.9985788464546204 0.27391305565834045 0.2666666805744171 0.23529411852359772 0.1921568661928177
0.9221674799919128 0.9633665084838867 0.5549407005310059 0.5843137502670288 0.3960784375667572 0.24705882370471954
0.9487684965133667 0.9977893829345703 0.4063241183757782 0.16078431904315948 0.14509804546833038 0.10196078568696976
0.8371921181678772 0.9856308102607727 0.011067193932831287 0.16078431904315948 0.14901961386203766 0.12156862765550613
0.9559113383293152 0.9960524439811707 0.05256916955113411 0.0313725508749485 0.0313725508749485 0.0235294122248888
0.9630541801452637 0.9682614803314209 0.7462450861930847 0.5176470875740051 0.364705890417099 0.21176470816135406
0.9320197105407715 0.8747828602790833 0.9889327883720398 0.4000000059604645 0.364705890417099 0.30588236451148987
0.9298029541969299 0.9636822938919067 0.26166006922721863 0.6784313917160034 0.43529412150382996 0.21176470816135406
0.8911330103874207 0.935417652130127 0.0063241105526685715 0.46666666865348816 0.43921568989753723 0.33725491166114807
0.8445813059806824 0.9003631472587585 0.9893280863761902 0.29019609093666077 0.2705882489681244 0.19607843458652496
0.746798038482666 0.9755250215530396 0.9873517751693726 0.3960784375667572 0.3764705955982208 0.3019607961177826
0.9445812702178955 0.9657350182533264 0.38300395011901855 0.686274528503418 0.47058823704719543 0.21960784494876862
0.7992610931396484 0.9483656883239746 0.3272727131843567 0.7058823704719543 0.45490196347236633 0.1764705926179886
0.8142856955528259 0.9513658881187439 0.6003952622413635 0.7333333492279053 0.5647059082984924 0.43921568989753723
0.8300492763519287 0.9976314306259155 0.08695652335882187 0.30588236451148987 0.29411765933036804 0.22745098173618317
0.7428571581840515 0.9619453549385071 0.9877470135688782 0.4470588266849518 0.4431372582912445 0.37254902720451355
0.8662561774253845 0.9987367987632751 0.32648220658302307 0.2078431397676468 0.1764705926179886 0.13333334028720856
0.815517246723175 0.9512079358100891 0.49723321199417114 0.7058823704719543 0.5254902243614197 0.3333333432674408
0.8916256427764893 0.9502605199813843 0.006719367578625679 0.6470588445663452 0.615686297416687 0.5254902243614197
0.8527093529701233 0.9542081356048584 0.05375494062900543 0.5686274766921997 0.364705890417099 0.21176470816135406
0.9635468125343323 0.9987367987632751 0.6660078763961792 0.18431372940540314 0.16078431904315948 0.11372549086809158
0.9135468006134033 0.9093636274337769 0.9893280863761902 0.3803921639919281 0.3490196168422699 0.27450981736183167
0.8652709126472473 0.9572082757949829 0.62687748670578 0.6392157077789307 0.48627451062202454 0.35686275362968445
0.8115763664245605 0.983262300491333 0.9877470135688782 0.4313725531101227 0.40784314274787903 0.32156863808631897
0.7603448033332825 0.9534186124801636 0.395652174949646 0.4470588266849518 0.4117647111415863 0.29019609093666077
0.8662561774253845 0.9988946914672852 0.4335968494415283 0.21568627655506134 0.1921568661928177 0.14509804546833038
0.8128078579902649 0.9974735379219055 0.9667984247207642 0.4588235318660736 0.4156862795352936 0.3294117748737335
0.9096059203147888 0.9621032476425171 0.5656126737594604 0.6000000238418579 0.4313725531101227 0.2666666805744171
0.8199507594108582 0.9984209537506104 0.3897233307361603 0.35686275362968445 0.3294117748737335 0.22745098173618317
0.7650246024131775 0.9395231604576111 0.17826086282730103 0.250980406999588 0.2549019753932953 0.2235294133424759
0.8729063868522644 0.9987367987632751 0.3075098693370819 0.20392157137393951 0.1725490242242813 0.12941177189350128
0.9061576128005981 0.9453655481338501 0.9889327883720398 0.38823530077934265 0.3450980484485626 0.25882354378700256
0.7822660207748413 0.9987367987632751 0.7727272510528564 0.4588235318660736 0.4274509847164154 0.33725491166114807
0.8339901566505432 0.8687825798988342 0.9885375499725342 0.23529411852359772 0.21960784494876862 0.1764705926179886
0.7815271019935608 0.9985788464546204 0.6711462736129761 0.4588235318660736 0.4274509847164154 0.3450980484485626
0.9667487740516663 0.9485235810279846 0.007509881630539894 0.5529412031173706 0.5215686559677124 0.43921568989753723
0.8322660326957703 0.9545239210128784 0.8233201503753662 0.43921568989753723 0.29411765933036804 0.12941177189350128
0.8534482717514038 0.9759987592697144 0.9881423115730286 0.42352941632270813 0.3921568691730499 0.30980393290519714
0.9746305346488953 0.9382598996162415 0.0071146246045827866 0.6196078658103943 0.6117647290229797 0.5215686559677124
0.8332512378692627 0.9538922905921936 0.7660079002380371 0.5803921818733215 0.4117647111415863 0.27450981736183167
0.825123131275177 0.9969998598098755 0.03794466331601143 0.10196078568696976 0.08627451211214066 0.07450980693101883
0.8394088745117188 0.9987367987632751 0.8498023748397827 0.5058823823928833 0.49803921580314636 0.4470588266849518
0.759605884552002 0.9507342576980591 0.3861660063266754 0.5176470875740051 0.40392157435417175 0.27843138575553894
0.7426108121871948 0.9981051683425903 0.8723320364952087 0.5372549295425415 0.5176470875740051 0.43921568989753723
0.7650246024131775 0.9595768451690674 0.05454545468091965 0.22745098173618317 0.22745098173618317 0.19607843458652496
0.9258620738983154 0.9627348780632019 0.12213438749313354 0.615686297416687 0.3686274588108063 0.1568627506494522
0.8337438702583313 0.9988946914672852 0.6098814010620117 0.29411765933036804 0.25882354378700256 0.1921568661928177
0.7645320296287537 0.9981051683425903 0.4747035503387451 0.6274510025978088 0.6274510025978088 0.5176470875740051
0.8389162421226501 0.9985788464546204 0.3837944567203522 0.30588236451148987 0.27843138575553894 0.20392157137393951
0.9716748595237732 0.9455234408378601 0.9901185631752014 0.3450980484485626 0.3137255012989044 0.23137255012989044
0.9061576128005981 0.9992104768753052 0.6450592875480652 0.18039216101169586 0.14901961386203766 0.10588235408067703
0.7822660207748413 0.9474182724952698 0.6494070887565613 0.6784313917160034 0.5137255191802979 0.41960784792900085
0.7849753499031067 0.9210484623908997 0.007509881630539894 0.29019609093666077 0.25882354378700256 0.21568627655506134
0.9815270900726318 0.9129953980445862 0.005533596966415644 0.6039215922355652 0.6039215922355652 0.501960813999176
0.7903940677642822 0.9976314306259155 0.11739130318164825 0.4588235318660736 0.45098039507865906 0.3607843220233917
0.7556650042533875 0.9540502429008484 0.448221355676651 0.30588236451148987 0.21568627655506134 0.16078431904315948
0.8384236693382263 0.9987367987632751 0.5106719136238098 0.3019607961177826 0.2705882489681244 0.19607843458652496
0.7591133117675781 0.9540502429008484 0.664426863193512 0.42352941632270813 0.37254902720451355 0.2980392277240753
0.8965517282485962 0.9976314306259155 0.050197627395391464 0.03921568766236305 0.03529411926865578 0.027450980618596077
0.9386699795722961 0.99968421459198 0.8118577003479004 0.19607843458652496 0.16862745583057404 0.12941177189350128
0.8133004903793335 0.9472603797912598 0.9881423115730286 0.47058823704719543 0.4431372582912445 0.37254902720451355
0.8315271139144897 0.9545239210128784 0.9881423115730286 0.45098039507865906 0.42352941632270813 0.3490196168422699
0.8943349719047546 0.9613137245178223 0.7818182110786438 0.5176470875740051 0.34117648005485535 0.22745098173618317
0.953201949596405 0.9872098565101624 0.9897233247756958 0.3294117748737335 0.2862745225429535 0.21568627655506134
0.9268472790718079 0.9990525841712952 0.8557312488555908 0.4470588266849518 0.4313725531101227 0.3333333432674408
0.8253694772720337 0.9523133039474487 0.4490118622779846 0.7137255072593689 0.5058823823928833 0.29411765933036804
0.834482729434967 0.9526290893554688 0.28814229369163513 0.7058823704719543 0.48627451062202454 0.1921568661928177
0.7842364311218262 0.9969998598098755 0.05612648278474808 0.11764705926179886 0.11372549086809158 0.10588235408067703
0.9330049157142639 0.9706300497055054 0.9893280863761902 0.30588236451148987 0.27450981736183167 0.20000000298023224
0.7583743929862976 0.9979472756385803 0.18537549674510956 0.615686297416687 0.6274510025978088 0.5529412031173706
0.8256157636642456 0.9984209537506104 0.4213438630104065 0.34117648005485535 0.3137255012989044 0.21176470816135406
0.8317734003067017 0.9542081356048584 0.799209475517273 0.4901960790157318 0.32549020648002625 0.16078431904315948
0.7401477694511414 0.9981051683425903 0.6936758756637573 0.6509804129600525 0.6352941393852234 0.529411792755127
