0.8591132760047913 0.08937312662601471 0.006719367578625679 0.5333333611488342 0.5254902243614197 0.46666666865348816
0.7088670134544373 0.23132796585559845 0.9905138611793518 0.929411768913269 0.95686274766922 0.9803921580314636
0.6862068772315979 0.15316595137119293 0.005533596966415644 0.6705882549285889 0.6823529601097107 0.6078431606292725
0.6418719291687012 0.13295435905456543 0.9909090995788574 0.3176470696926117 0.3019607961177826 0.2980392277240753
0.6578817963600159 0.08179377764463425 0.005138339940458536 0.6352941393852234 0.6352941393852234 0.6039215922355652
0.7162561416625977 0.17748302221298218 0.991304337978363 1.0 1.0 1.0
0.7918719053268433 0.09805779159069061 0.14822134375572205 0.5215686559677124 0.5098039507865906 0.4901960790157318
0.6465517282485962 0.23101216554641724 0.0063241105526685715 0.2980392277240753 0.29411765933036804 0.2235294133424759
0.6189655065536499 0.21980103850364685 0.16877470910549164 0.09803921729326248 0.09803921729326248 0.09019608050584793
0.6539409160614014 0.12426970154047012 0.9905138611793518 0.3176470696926117 0.3137255012989044 0.2980392277240753
0.8022167682647705 0.09158376604318619 0.1667984127998352 0.16470588743686676 0.16078431904315948 0.14509804546833038
0.626600980758667 0.10311069339513779 0.005533596966415644 0.5372549295425415 0.5529412031173706 0.4941176474094391
0.7115763425827026 0.11400599777698517 0.005928853526711464 0.5490196347236633 0.5529412031173706 0.5333333611488342
0.639162540435791 0.21743249893188477 0.9901185631752014 0.9921568632125854 0.9960784316062927 1.0
0.6497536897659302 0.14274436235427856 0.005533596966415644 0.6039215922355652 0.6117647290229797 0.5568627715110779
0.7241379022598267 0.09095215797424316 0.17430830001831055 0.2980392277240753 0.3333333432674408 0.32156863808631897
0.6785714030265808 0.20274750888347626 0.0063241105526685715 0.6470588445663452 0.6549019813537598 0.6000000238418579
0.6815270781517029 0.17906205356121063 0.9905138611793518 1.0 1.0 1.0
0.6647783517837524 0.11921679973602295 0.9905138611793518 0.3294117748737335 0.3176470696926117 0.2980392277240753
0.7820196747779846 0.1836412400007248 0.006719367578625679 0.5568627715110779 0.572549045085907 0.5137255191802979
0.6736453175544739 0.23480182886123657 0.006719367578625679 0.4901960790157318 0.501960813999176 0.43529412150382996
0.740394115447998 0.19406284391880035 0.9928853511810303 0.9882352948188782 1.0 1.0
0.751477837562561 0.10105795413255692 0.0063241105526685715 0.45490196347236633 0.4470588266849518 0.35686275362968445
0.6847290396690369 0.14779725670814514 0.992094874382019 1.0 1.0 0.9921568632125854
0.682758629322052 0.18869413435459137 0.005928853526711464 0.5843137502670288 0.5921568870544434 0.5490196347236633
0.6916255950927734 0.13390178978443146 0.9916995763778687 0.30980393290519714 0.30980393290519714 0.30980393290519714
0.8534482717514038 0.13563871383666992 0.9897233247756958 0.3137255012989044 0.2862745225429535 0.24705882370471954
0.6948275566101074 0.1981683224439621 0.0063241105526685715 0.6196078658103943 0.6352941393852234 0.545098066329956
0.6785714030265808 0.18727301061153412 0.005928853526711464 0.7176470756530762 0.7176470756530762 0.6705882549285889
0.7798029780387878 0.08416232466697693 0.17984189093112946 0.3176470696926117 0.3607843220233917 0.3764705955982208
0.8438423871994019 0.11100584268569946 0.006719367578625679 0.5607843399047852 0.5647059082984924 0.501960813999176
0.697044312953949 0.16232433915138245 0.005533596966415644 0.6705882549285889 0.6705882549285889 0.6235294342041016
0.7729064226150513 0.11163745820522308 0.9909090995788574 0.3019607961177826 0.2823529541492462 0.25882354378700256
0.6591132879257202 0.2327490895986557 0.2956521809101105 0.5098039507865906 0.5137255191802979 0.48235294222831726
0.8573891520500183 0.14495499432086945 0.9897233247756958 0.2980392277240753 0.2823529541492462 0.239215686917305
0.6687192320823669 0.15095531940460205 0.005138339940458536 0.5764706134796143 0.5843137502670288 0.5411764979362488
0.7972906231880188 0.2158534675836563 0.992094874382019 0.29019609093666077 0.2862745225429535 0.2666666805744171
0.6628078818321228 0.20306332409381866 0.9893280863761902 0.929411768913269 0.9450980424880981 0.9803921580314636
0.823399007320404 0.09047844260931015 0.9901185631752014 0.29411765933036804 0.2666666805744171 0.22745098173618317
0.7600985169410706 0.08132006973028183 0.9897233247756958 0.27843138575553894 0.24313725531101227 0.2078431397676468
0.8339901566505432 0.15932416915893555 0.006719367578625679 0.7176470756530762 0.7058823704719543 0.6313725709915161
0.6192117929458618 0.07989893853664398 0.005533596966415644 0.5647059082984924 0.5686274766921997 0.49803921580314636
0.8399015069007874 0.09742618352174759 0.006719367578625679 0.6470588445663452 0.6549019813537598 0.6000000238418579
0.7423645257949829 0.16248223185539246 0.9928853511810303 0.8745098114013672 0.8901960849761963 0.886274516582489
0.7987684607505798 0.21064266562461853 0.992094874382019 0.29019609093666077 0.27450981736183167 0.239215686917305
0.6662561297416687 0.18016737699508667 0.005928853526711464 0.5764706134796143 0.5843137502670288 0.572549045085907
0.7896551489830017 0.08984683454036713 0.18063241243362427 0.32156863808631897 0.3607843220233917 0.3686274588108063
0.6263546943664551 0.12032212316989899 0.005533596966415644 0.5529412031173706 0.572549045085907 0.4941176474094391
0.7408866882324219 0.12190115451812744 0.18458497524261475 0.37254902720451355 0.41960784792900085 0.41960784792900085
0.7044335007667542 0.17874625325202942 0.005928853526711464 0.615686297416687 0.6235294342041016 0.572549045085907
0.6943349838256836 0.09616295248270035 0.005928853526711464 0.4901960790157318 0.48235294222831726 0.3921568691730499
0.6958128213882446 0.2014842927455902 0.9897233247756958 0.9725490212440491 0.9882352948188782 1.0
0.7642857432365417 0.09553134441375732 0.17549407482147217 0.29019609093666077 0.32549020648002625 0.32156863808631897
0.7472906112670898 0.0920574739575386 0.9901185631752014 0.2666666805744171 0.250980406999588 0.21568627655506134
0.7679802775382996 0.2040107399225235 0.006719367578625679 0.5411764979362488 0.5529412031173706 0.43921568989753723
0.6443349719047546 0.1894836574792862 0.005928853526711464 0.5764706134796143 0.5882353186607361 0.545098066329956
0.6790640354156494 0.22848570346832275 0.2960474193096161 0.49803921580314636 0.5176470875740051 0.4941176474094391
0.8071428537368774 0.08463603258132935 0.9897233247756958 0.2823529541492462 0.2666666805744171 0.2235294133424759
0.7729064226150513 0.14179693162441254 0.005928853526711464 0.615686297416687 0.615686297416687 0.5764706134796143
0.6189655065536499 0.22327491641044617 0.2031620591878891 0.09019608050584793 0.08627451211214066 0.07058823853731155
0.7554187178611755 0.12821727991104126 0.005928853526711464 0.658823549747467 0.6470588445663452 0.6117647290229797
0.6743842363357544 0.2302226424217224 0.9885375499725342 0.95686274766922 0.9686274528503418 0.9882352948188782
0.8152709603309631 0.1692720651626587 0.9909090995788574 0.3137255012989044 0.29411765933036804 0.2705882489681244
0.754679799079895 0.16264013946056366 0.005928853526711464 0.7137255072593689 0.7176470756530762 0.6627451181411743
0.6879310607910156 0.23085425794124603 0.2960474193096161 0.48627451062202454 0.5137255191802979 0.48627451062202454
0.6711822748184204 0.19027316570281982 0.9897233247756958 0.9411764740943909 0.9607843160629272 0.9843137264251709
0.7660098671913147 0.11179535835981369 0.005928853526711464 0.6196078658103943 0.615686297416687 0.5372549295425415
0.815517246723175 0.16216643154621124 0.9909090995788574 0.29411765933036804 0.27450981736183167 0.26274511218070984
0.8044335246086121 0.11463761329650879 0.0063241105526685715 0.658823549747467 0.6705882549285889 0.6039215922355652
0.6549261212348938 0.12316437810659409 0.9905138611793518 0.33725491166114807 0.32549020648002625 0.30588236451148987
0.7470443248748779 0.2041686475276947 0.006719367578625679 0.48627451062202454 0.501960813999176 0.4117647111415863
0.7455664873123169 0.2355913519859314 0.9932806491851807 1.0 0.9960784316062927 1.0
0.6165024638175964 0.15916627645492554 0.9905138611793518 0.9176470637321472 0.9411764740943909 0.9333333373069763
0.7635468244552612 0.17716722190380096 0.0063241105526685715 0.615686297416687 0.6196078658103943 0.5647059082984924
0.6192117929458618 0.18837833404541016 0.9909090995788574 0.9764705896377563 0.9921568632125854 0.9882352948188782
0.7916256189346313 0.08953102678060532 0.006719367578625679 0.32549020648002625 0.3137255012989044 0.2549019753932953
0.7908867001533508 0.0892152190208435 0.14782609045505524 0.08627451211214066 0.08627451211214066 0.08627451211214066
0.800000011920929 0.09821569919586182 0.16758893430233002 0.1882352977991104 0.1882352977991104 0.18039216101169586
0.7268472909927368 0.2183799147605896 0.9916995763778687 0.9137254953384399 0.9333333373069763 0.9450980424880981
0.6465517282485962 0.2269066721200943 0.2956521809101105 0.45490196347236633 0.46666666865348816 0.43921568989753723
0.6403940916061401 0.09268908947706223 0.9901185631752014 0.3529411852359772 0.33725491166114807 0.3019607961177826
0.7635468244552612 0.22627507150173187 0.006719367578625679 0.41960784792900085 0.4156862795352936 0.3333333432674408
0.8374384045600891 0.10484762489795685 0.9901185631752014 0.2705882489681244 0.2549019753932953 0.2078431397676468
0.8618226647377014 0.22564345598220825 0.9909090995788574 0.3137255012989044 0.30588236451148987 0.25882354378700256
0.6987684965133667 0.1207958310842514 0.005533596966415644 0.30980393290519714 0.3137255012989044 0.2823529541492462
0.7332512140274048 0.2153797596693039 0.006719367578625679 0.6000000238418579 0.5960784554481506 0.5137255191802979
0.6697044372558594 0.17937786877155304 0.005928853526711464 0.7450980544090271 0.7490196228027344 0.7176470756530762
0.7933497428894043 0.09568924456834793 0.0063241105526685715 0.3960784375667572 0.3803921639919281 0.2823529541492462
0.6300492882728577 0.21064266562461853 0.0063241105526685715 0.5960784554481506 0.6039215922355652 0.5176470875740051
0.6751231551170349 0.09600505232810974 0.005533596966415644 0.5803921818733215 0.6117647290229797 0.529411792755127
0.6802955865859985 0.21080057322978973 0.9889327883720398 0.9686274528503418 0.9725490212440491 0.9882352948188782
0.6849753856658936 0.14148113131523132 0.005138339940458536 0.5764706134796143 0.5764706134796143 0.545098066329956
0.7078817486763 0.10674245655536652 0.17944663763046265 0.3333333432674408 0.3803921639919281 0.37254902720451355
0.679556667804718 0.1923259049654007 0.9897233247756958 0.9686274528503418 0.9843137264251709 0.9960784316062927
0.6337438225746155 0.16232433915138245 0.9905138611793518 0.8941176533699036 0.9137254953384399 0.929411768913269
0.6379310488700867 0.15600821375846863 0.005533596966415644 0.6078431606292725 0.6196078658103943 0.5843137502670288
0.7396551966667175 0.09047844260931015 0.9901185631752014 0.3019607961177826 0.2862745225429535 0.24313725531101227
0.859359622001648 0.13263855874538422 0.9897233247756958 0.2980392277240753 0.2666666805744171 0.21568627655506134
0.7977832555770874 0.15000788867473602 0.991304337978363 0.21176470816135406 0.2078431397676468 0.20000000298023224
0.6157635450363159 0.1695878803730011 0.9905138611793518 0.9764705896377563 0.9921568632125854 0.9960784316062927
0.7889162302017212 0.14527080953121185 0.991304337978363 0.25882354378700256 0.24313725531101227 0.239215686917305
0.6342364549636841 0.2324332892894745 0.9909090995788574 0.9921568632125854 0.9960784316062927 1.0
0.793596088886261 0.16516658663749695 0.9916995763778687 0.250980406999588 0.23529411852359772 0.23137255012989044
0.7411330342292786 0.1465340256690979 0.9924901127815247 0.6274510025978088 0.658823549747467 0.6705882549285889
0.6660098433494568 0.13895468413829803 0.005138339940458536 0.572549045085907 0.572549045085907 0.5254902243614197
0.8174876570701599 0.18206220865249634 0.006719367578625679 0.615686297416687 0.6352941393852234 0.5490196347236633
0.623399019241333 0.12505921721458435 0.005928853526711464 0.615686297416687 0.6117647290229797 0.5333333611488342
0.8246305584907532 0.12395389378070831 0.9905138611793518 0.2823529541492462 0.2666666805744171 0.2235294133424759
0.7637931108474731 0.11700616031885147 0.18300394713878632 0.3176470696926117 0.3607843220233917 0.3450980484485626
0.826600968837738 0.10721617192029953 0.0063241105526685715 0.5254902243614197 0.5254902243614197 0.48627451062202454
0.7849753499031067 0.206695094704628 0.9924901127815247 0.3019607961177826 0.29019609093666077 0.2705882489681244
0.7320197224617004 0.22043265402317047 0.2960474193096161 0.10588235408067703 0.10588235408067703 0.09803921729326248
0.7137930989265442 0.235275536775589 0.0071146246045827866 0.32156863808631897 0.3176470696926117 0.24705882370471954
0.8445813059806824 0.16232433915138245 0.9901185631752014 0.32549020648002625 0.29019609093666077 0.26274511218070984
0.618719220161438 0.22801199555397034 0.0063241105526685715 0.26274511218070984 0.24705882370471954 0.21176470816135406
0.7588669657707214 0.160903200507164 0.005928853526711464 0.6470588445663452 0.6549019813537598 0.6039215922355652
0.8416256308555603 0.13958629965782166 0.006719367578625679 0.5607843399047852 0.5764706134796143 0.5098039507865906
0.6403940916061401 0.14511290192604065 0.005533596966415644 0.6117647290229797 0.6196078658103943 0.5686274766921997
0.759605884552002 0.15048161149024963 0.005928853526711464 0.6392157077789307 0.6313725709915161 0.572549045085907
0.8256157636642456 0.11937470734119415 0.0063241105526685715 0.501960813999176 0.5098039507865906 0.4588235318660736
0.6268472671508789 0.103426493704319 0.9901185631752014 0.3333333432674408 0.3176470696926117 0.2823529541492462
0.7024630308151245 0.12300647050142288 0.991304337978363 0.3137255012989044 0.2980392277240753 0.29411765933036804
0.734236478805542 0.1896415650844574 0.0063241105526685715 0.5098039507865906 0.5176470875740051 0.43529412150382996
0.8554187417030334 0.15679772198200226 0.9897233247756958 0.3137255012989044 0.27843138575553894 0.250980406999588
0.7243842482566833 0.2267487794160843 0.9916995763778687 0.9960784316062927 0.9960784316062927 1.0
0.7770935893058777 0.18853624165058136 0.9924901127815247 0.2666666805744171 0.250980406999588 0.239215686917305
0.7450739145278931 0.1176377683877945 0.18300394713878632 0.3333333432674408 0.37254902720451355 0.3764705955982208
0.8019704222679138 0.09142586588859558 0.9901185631752014 0.24705882370471954 0.21960784494876862 0.18039216101169586
0.7953202128410339 0.08100426197052002 0.17470355331897736 0.2705882489681244 0.3019607961177826 0.3137255012989044
0.851477861404419 0.13674403727054596 0.006719367578625679 0.6274510025978088 0.6352941393852234 0.5490196347236633
0.6798029541969299 0.14779725670814514 0.005138339940458536 0.6666666865348816 0.6549019813537598 0.6352941393852234
0.815763533115387 0.1923259049654007 0.991304337978363 0.3333333432674408 0.32156863808631897 0.2862745225429535
0.7916256189346313 0.15016579627990723 0.0063241105526685715 0.5921568870544434 0.6000000238418579 0.5176470875740051
0.6480295658111572 0.15853466093540192 0.005533596966415644 0.6549019813537598 0.6745098233222961 0.5960784554481506
0.6504926085472107 0.1953260749578476 0.9893280863761902 0.9882352948188782 1.0 1.0
0.7487684488296509 0.11969050765037537 0.005928853526711464 0.5647059082984924 0.5568627715110779 0.49803921580314636
0.6534482836723328 0.2213800698518753 0.2956521809101105 0.3607843220233917 0.3843137323856354 0.3843137323856354
0.6768472790718079 0.08810990303754807 0.005533596966415644 0.6235294342041016 0.6352941393852234 0.6000000238418579
0.8460590839385986 0.14416548609733582 0.006719367578625679 0.5882353186607361 0.6000000238418579 0.5568627715110779
0.6428571343421936 0.13327017426490784 0.005533596966415644 0.572549045085907 0.5843137502670288 0.5411764979362488
0.7847290635108948 0.1577451378107071 0.9916995763778687 0.24705882370471954 0.24313725531101227 0.23529411852359772
0.8305418491363525 0.11669035255908966 0.0063241105526685715 0.5254902243614197 0.5098039507865906 0.46666666865348816
0.8248768448829651 0.09663666784763336 0.006719367578625679 0.46666666865348816 0.47058823704719543 0.4000000059604645
0.8300492763519287 0.08747828751802444 0.0071146246045827866 0.5882353186607361 0.5921568870544434 0.529411792755127
0.6886699795722961 0.08858361095190048 0.005533596966415644 0.4274509847164154 0.4156862795352936 0.38823530077934265
0.6561576128005981 0.19879993796348572 0.0063241105526685715 0.6117647290229797 0.6235294342041016 0.5490196347236633
0.7827585935592651 0.19737881422042847 0.006719367578625679 0.6117647290229797 0.6235294342041016 0.5098039507865906
0.6189655065536499 0.09426812082529068 0.9897233247756958 0.3607843220233917 0.3450980484485626 0.3019607961177826
0.6815270781517029 0.14574451744556427 0.9916995763778687 0.9529411792755127 0.9686274528503418 1.0
0.6793103218078613 0.13279646635055542 0.005138339940458536 0.6784313917160034 0.6666666865348816 0.6313725709915161
0.8492611050605774 0.22880151867866516 0.991304337978363 0.2823529541492462 0.2666666805744171 0.2235294133424759
0.7411330342292786 0.17716722190380096 0.0063241105526685715 0.6666666865348816 0.6627451181411743 0.5921568870544434
0.7391625642776489 0.22311700880527496 0.9928853511810303 0.9372549057006836 0.9450980424880981 0.9411764740943909
0.8334975242614746 0.20037896931171417 0.006719367578625679 0.4627451002597809 0.4745098054409027 0.3921568691730499
0.7261083722114563 0.20606347918510437 0.9916995763778687 0.9960784316062927 1.0 1.0
0.6987684965133667 0.22374862432479858 0.9897233247756958 0.9843137264251709 0.9882352948188782 0.9960784316062927
0.695320188999176 0.22074845433235168 0.9893280863761902 0.9803921580314636 0.9843137264251709 1.0
0.8088669776916504 0.20164218544960022 0.006719367578625679 0.572549045085907 0.5843137502670288 0.5098039507865906
0.7411330342292786 0.17764092981815338 0.9928853511810303 0.9882352948188782 1.0 1.0
0.8091133236885071 0.17369335889816284 0.006719367578625679 0.6392157077789307 0.6509804129600525 0.5843137502670288
0.7233990430831909 0.13090161979198456 0.9916995763778687 0.21176470816135406 0.19607843458652496 0.18431372940540314
0.7977832555770874 0.2240644246339798 0.006719367578625679 0.45490196347236633 0.46666666865348816 0.3529411852359772
0.6830049157142639 0.2300647348165512 0.006719367578625679 0.23529411852359772 0.24705882370471954 0.18039216101169586
0.7980295419692993 0.17385125160217285 0.9916995763778687 0.29019609093666077 0.27450981736183167 0.26274511218070984
0.8618226647377014 0.183799147605896 0.9901185631752014 0.3529411852359772 0.32549020648002625 0.2862745225429535
0.7524630427360535 0.10595294833183289 0.17865613102912903 0.30588236451148987 0.34117648005485535 0.3294117748737335
0.6876847147941589 0.11321648210287094 0.005533596966415644 0.572549045085907 0.6039215922355652 0.5215686559677124
0.6958128213882446 0.1610611081123352 0.005533596966415644 0.729411780834198 0.7372549176216125 0.6823529601097107
0.7623152732849121 0.09537344425916672 0.0063241105526685715 0.48627451062202454 0.47058823704719543 0.37254902720451355
0.6258620619773865 0.09568924456834793 0.9901185631752014 0.3607843220233917 0.3450980484485626 0.30980393290519714
0.6945812702178955 0.1177956759929657 0.18379446864128113 0.4000000059604645 0.45098039507865906 0.4745098054409027
0.6433497667312622 0.12395389378070831 0.9905138611793518 0.3529411852359772 0.33725491166114807 0.3019607961177826
0.6598522067070007 0.16769303381443024 0.9909090995788574 0.9137254953384399 0.9411764740943909 0.9725490212440491
0.745320200920105 0.11432180553674698 0.005928853526711464 0.5529412031173706 0.5647059082984924 0.49803921580314636
0.7172414064407349 0.1492183804512024 0.005533596966415644 0.6313725709915161 0.6313725709915161 0.5843137502670288
0.8012315034866333 0.09363650530576706 0.1711462438106537 0.125490203499794 0.125490203499794 0.125490203499794
0.7103448510169983 0.14700773358345032 0.005533596966415644 0.729411780834198 0.729411780834198 0.6901960968971252
0.7362068891525269 0.08258329331874847 0.0063241105526685715 0.572549045085907 0.5254902243614197 0.3764705955982208
0.6322659850120544 0.21348491311073303 0.0063241105526685715 0.4901960790157318 0.49803921580314636 0.4156862795352936
0.6578817963600159 0.1871151179075241 0.005928853526711464 0.5803921818733215 0.5960784554481506 0.5411764979362488
0.7709359526634216 0.23622295260429382 0.006719367578625679 0.3490196168422699 0.3333333432674408 0.23529411852359772
0.7337438464164734 0.23369650542736053 0.006719367578625679 0.35686275362968445 0.364705890417099 0.2823529541492462
0.7219212055206299 0.13879677653312683 0.992094874382019 0.21960784494876862 0.21176470816135406 0.21568627655506134
0.6630541682243347 0.2295910269021988 0.0063241105526685715 0.2980392277240753 0.29411765933036804 0.27843138575553894
0.6544334888458252 0.15190273523330688 0.991304337978363 0.9647058844566345 0.9686274528503418 0.9764705896377563
0.7492610812187195 0.12837517261505127 0.005928853526711464 0.6431372761726379 0.6470588445663452 0.5921568870544434
0.684236466884613 0.17858834564685822 0.005928853526711464 0.5764706134796143 0.5843137502670288 0.5333333611488342
0.6448276042938232 0.22595925629138947 0.0063241105526685715 0.3921568691730499 0.3803921639919281 0.32156863808631897
0.7660098671913147 0.2128533124923706 0.9928853511810303 0.34117648005485535 0.32549020648002625 0.3137255012989044
0.6674876809120178 0.1610611081123352 0.005533596966415644 0.5568627715110779 0.5686274766921997 0.5411764979362488
0.6270936131477356 0.15569239854812622 0.005533596966415644 0.6078431606292725 0.6196078658103943 0.5764706134796143
0.7379310131072998 0.13990209996700287 0.005533596966415644 0.6901960968971252 0.6666666865348816 0.6117647290229797
0.6926108598709106 0.21695879101753235 0.006719367578625679 0.5490196347236633 0.5647059082984924 0.46666666865348816
0.7160098552703857 0.1176377683877945 0.991304337978363 0.34117648005485535 0.32156863808631897 0.30588236451148987
0.6807881593704224 0.23432812094688416 0.2960474193096161 0.47843137383461 0.5058823823928833 0.4745098054409027
0.8539409041404724 0.1438496708869934 0.006719367578625679 0.615686297416687 0.6196078658103943 0.5490196347236633
0.7748768329620361 0.10816358774900436 0.17944663763046265 0.3137255012989044 0.3529411852359772 0.3607843220233917
0.6381773352622986 0.224380224943161 0.19446639716625214 0.054901961237192154 0.054901961237192154 0.0470588244497776
0.6972906589508057 0.11037422716617584 0.9909090995788574 0.34117648005485535 0.3294117748737335 0.30980393290519714
0.624876856803894 0.21301120519638062 0.28774702548980713 0.13725490868091583 0.13333334028720856 0.125490203499794
0.7903940677642822 0.08700457960367203 0.14703556895256042 0.0784313753247261 0.0784313753247261 0.0784313753247261
0.640640377998352 0.14432337880134583 0.991304337978363 0.29019609093666077 0.3019607961177826 0.32156863808631897
0.6719211935997009 0.22343280911445618 0.2956521809101105 0.24705882370471954 0.250980406999588 0.23137255012989044
0.7600985169410706 0.2125374972820282 0.006719367578625679 0.6039215922355652 0.6117647290229797 0.5176470875740051
0.6165024638175964 0.09142586588859558 0.005928853526711464 0.6549019813537598 0.658823549747467 0.5960784554481506
0.6524630784988403 0.11558502912521362 0.005138339940458536 0.6000000238418579 0.6039215922355652 0.572549045085907
0.7204433679580688 0.09426812082529068 0.17549407482147217 0.30588236451148987 0.34117648005485535 0.3294117748737335
0.7147783041000366 0.17400915920734406 0.005928853526711464 0.729411780834198 0.7372549176216125 0.686274528503418
0.6325123310089111 0.21790620684623718 0.26916995644569397 0.125490203499794 0.10980392247438431 0.10588235408067703
0.7554187178611755 0.14574451744556427 0.005928853526711464 0.6313725709915161 0.6235294342041016 0.5764706134796143
0.6790640354156494 0.08937312662601471 0.9901185631752014 0.3294117748737335 0.3019607961177826 0.2705882489681244
0.6657635569572449 0.09300489723682404 0.9901185631752014 0.3686274588108063 0.3529411852359772 0.3176470696926117
0.692118227481842 0.15016579627990723 0.005533596966415644 0.7098039388656616 0.7098039388656616 0.6627451181411743
0.6288177371025085 0.22595925629138947 0.29525691270828247 0.4431372582912445 0.4470588266849518 0.4274509847164154
0.7081280946731567 0.19311542809009552 0.0063241105526685715 0.7450980544090271 0.7490196228027344 0.686274528503418
0.8049260973930359 0.17764092981815338 0.991304337978363 0.3019607961177826 0.29019609093666077 0.2549019753932953
0.7440886497497559 0.2209063619375229 0.9932806491851807 0.9529411792755127 0.9686274528503418 0.9647058844566345
0.6620689630508423 0.17432495951652527 0.9905138611793518 0.9215686321258545 0.9372549057006836 0.9725490212440491
0.748522162437439 0.11716406047344208 0.005928853526711464 0.5176470875740051 0.529411792755127 0.4627451002597809
0.8495073914527893 0.12253276258707047 0.9901185631752014 0.3176470696926117 0.29019609093666077 0.250980406999588
0.748522162437439 0.11716406047344208 0.005928853526711464 0.5176470875740051 0.529411792755127 0.4627451002597809
0.6411330103874207 0.08210958540439606 0.9897233247756958 0.3764705955982208 0.3686274588108063 0.3176470696926117
0.7096059322357178 0.18285173177719116 0.0063241105526685715 0.6274510025978088 0.6431372761726379 0.5882353186607361
0.7701970338821411 0.12821727991104126 0.15849801898002625 0.21960784494876862 0.24705882370471954 0.2862745225429535
0.8231527209281921 0.1950102597475052 0.991304337978363 0.3333333432674408 0.32549020648002625 0.27843138575553894
0.6362069249153137 0.08210958540439606 0.9897233247756958 0.35686275362968445 0.3490196168422699 0.2980392277240753
0.7133004665374756 0.16437707841396332 0.005928853526711464 0.6823529601097107 0.6901960968971252 0.6470588445663452
0.8283251523971558 0.15995578467845917 0.9905138611793518 0.32549020648002625 0.2980392277240753 0.27450981736183167
0.7009851932525635 0.08195168524980545 0.18063241243362427 0.2862745225429535 0.30980393290519714 0.3019607961177826
0.7241379022598267 0.10184746235609055 0.1770751029253006 0.3294117748737335 0.3686274588108063 0.364705890417099
0.7926108241081238 0.08732038736343384 0.14901185035705566 0.08235294371843338 0.08235294371843338 0.08235294371843338
0.7458128333091736 0.2269066721200943 0.006719367578625679 0.4313725531101227 0.43921568989753723 0.3529411852359772
0.6706896424293518 0.20543186366558075 0.9893280863761902 0.9411764740943909 0.9607843160629272 0.9843137264251709
0.7073891758918762 0.19137848913669586 0.0063241105526685715 0.6000000238418579 0.6039215922355652 0.5411764979362488
0.7302955389022827 0.20795831084251404 0.992094874382019 1.0 1.0 1.0
0.7012315392494202 0.1836412400007248 0.005928853526711464 0.615686297416687 0.6235294342041016 0.5686274766921997
0.7706896662712097 0.13879677653312683 0.992094874382019 0.2823529541492462 0.25882354378700256 0.25882354378700256
0.8017241358757019 0.20006315410137177 0.006719367578625679 0.615686297416687 0.6313725709915161 0.5333333611488342
0.8012315034866333 0.1151113212108612 0.0063241105526685715 0.529411792755127 0.545098066329956 0.45490196347236633
0.6682265996932983 0.2295910269021988 0.2956521809101105 0.4941176474094391 0.501960813999176 0.48235294222831726
0.8536945581436157 0.09063635021448135 0.006719367578625679 0.5411764979362488 0.5333333611488342 0.48235294222831726
0.624876856803894 0.22232748568058014 0.18102766573429108 0.062745101749897 0.05882352963089943 0.05098039284348488
0.7288177609443665 0.12569083273410797 0.17865613102912903 0.40392157435417175 0.4588235318660736 0.4627451002597809
0.6357142925262451 0.23148587346076965 0.0063241105526685715 0.3294117748737335 0.3137255012989044 0.2666666805744171
0.751477837562561 0.16532449424266815 0.005928853526711464 0.6431372761726379 0.6509804129600525 0.6000000238418579
0.806157648563385 0.1779567301273346 0.006719367578625679 0.6313725709915161 0.6352941393852234 0.5647059082984924
0.6475369334220886 0.2209063619375229 0.261264830827713 0.09803921729326248 0.10196078568696976 0.08235294371843338
0.6206896305084229 0.14763934910297394 0.005533596966415644 0.5764706134796143 0.6000000238418579 0.5607843399047852
0.7334975600242615 0.1724301278591156 0.005928853526711464 0.6352941393852234 0.6235294342041016 0.5882353186607361
0.8519704341888428 0.08763618767261505 0.9901185631752014 0.3137255012989044 0.2823529541492462 0.23137255012989044
0.8591132760047913 0.14842885732650757 0.9897233247756958 0.30980393290519714 0.2705882489681244 0.23529411852359772
0.6465517282485962 0.2360650599002838 0.2956521809101105 0.4745098054409027 0.47843137383461 0.45490196347236633
0.7852216958999634 0.2272224873304367 0.9928853511810303 0.2823529541492462 0.2705882489681244 0.24313725531101227
0.8002462983131409 0.23669667541980743 0.006719367578625679 0.4588235318660736 0.4627451002597809 0.34117648005485535
0.7689655423164368 0.08226748555898666 0.006719367578625679 0.4274509847164154 0.4156862795352936 0.2862745225429535
0.7655172348022461 0.20748460292816162 0.006719367578625679 0.45098039507865906 0.45098039507865906 0.3490196168422699
0.7778325080871582 0.09142586588859558 0.17944663763046265 0.2549019753932953 0.2980392277240753 0.30588236451148987
0.7046797871589661 0.17716722190380096 0.9909090995788574 1.0 1.0 1.0
0.7330049276351929 0.19927364587783813 0.992094874382019 0.9960784316062927 0.9960784316062927 1.0
0.6684728860855103 0.14574451744556427 0.005138339940458536 0.6000000238418579 0.6078431606292725 0.5568627715110779
0.7280788421630859 0.2267487794160843 0.2964426875114441 0.4470588266849518 0.47058823704719543 0.47058823704719543
0.6731526851654053 0.21695879101753235 0.006719367578625679 0.2078431397676468 0.2078431397676468 0.1764705926179886
0.7460591197013855 0.16453497111797333 0.9928853511810303 0.95686274766922 0.9647058844566345 0.9450980424880981
0.75935959815979 0.15742933750152588 0.005928853526711464 0.7529411911964417 0.7529411911964417 0.7058823704719543
0.7980295419692993 0.08763618767261505 0.9901185631752014 0.2823529541492462 0.2549019753932953 0.21568627655506134
0.6637930870056152 0.1410074234008789 0.005138339940458536 0.6745098233222961 0.6745098233222961 0.6352941393852234
0.761083722114563 0.21206378936767578 0.9932806491851807 0.3137255012989044 0.2980392277240753 0.29411765933036804
0.6182265877723694 0.16248223185539246 0.005533596966415644 0.6352941393852234 0.6431372761726379 0.5921568870544434
0.8600985407829285 0.17369335889816284 0.9901185631752014 0.33725491166114807 0.30980393290519714 0.27843138575553894
0.7027093768119812 0.09395231306552887 0.9901185631752014 0.2823529541492462 0.26274511218070984 0.250980406999588
0.676354706287384 0.09253118932247162 0.9901185631752014 0.30588236451148987 0.29019609093666077 0.2549019753932953
0.7812808156013489 0.08400442451238632 0.006719367578625679 0.3686274588108063 0.3450980484485626 0.29019609093666077
0.7071428298950195 0.1463761180639267 0.005533596966415644 0.6941176652908325 0.6980392336845398 0.6666666865348816
0.8312807679176331 0.11337438970804214 0.9905138611793518 0.27843138575553894 0.250980406999588 0.21176470816135406
0.6581280827522278 0.11542712897062302 0.005138339940458536 0.5960784554481506 0.5960784554481506 0.5490196347236633
0.7460591197013855 0.15853466093540192 0.9928853511810303 0.9921568632125854 1.0 0.9803921580314636
0.7857142686843872 0.08179377764463425 0.18142291903495789 0.3176470696926117 0.3529411852359772 0.3803921639919281
0.6605911254882812 0.2210642695426941 0.2956521809101105 0.10588235408067703 0.12156862765550613 0.11764705926179886
0.7637931108474731 0.15174482762813568 0.005928853526711464 0.7019608020782471 0.686274528503418 0.6431372761726379
0.8091133236885071 0.1266382485628128 0.0063241105526685715 0.5529412031173706 0.5568627715110779 0.501960813999176
0.6948275566101074 0.09426812082529068 0.1826086938381195 0.3176470696926117 0.3529411852359772 0.34117648005485535
0.7620689868927002 0.08447813242673874 0.9901185631752014 0.2862745225429535 0.2705882489681244 0.23529411852359772
0.6509852409362793 0.18316753208637238 0.005928853526711464 0.7137255072593689 0.7215686440467834 0.6705882549285889
0.8142856955528259 0.2150639444589615 0.006719367578625679 0.5921568870544434 0.5921568870544434 0.4901960790157318
0.8160098791122437 0.15285015106201172 0.0063241105526685715 0.7176470756530762 0.7490196228027344 0.6901960968971252
0.7433497309684753 0.15616612136363983 0.005928853526711464 0.6549019813537598 0.6549019813537598 0.615686297416687
0.7194581031799316 0.19011527299880981 0.0063241105526685715 0.6549019813537598 0.6509804129600525 0.5686274766921997
0.7763546705245972 0.10800568759441376 0.0063241105526685715 0.6549019813537598 0.6745098233222961 0.5882353186607361
0.818965494632721 0.10011053085327148 0.006719367578625679 0.5176470875740051 0.4901960790157318 0.41960784792900085
0.8332512378692627 0.20227380096912384 0.006719367578625679 0.45490196347236633 0.46666666865348816 0.4000000059604645
0.6231527328491211 0.10768987983465195 0.9901185631752014 0.3607843220233917 0.3450980484485626 0.30980393290519714
0.6879310607910156 0.15963998436927795 0.005533596966415644 0.6470588445663452 0.6549019813537598 0.6039215922355652
0.643842339515686 0.21964314579963684 0.15770751237869263 0.0941176488995552 0.0941176488995552 0.08627451211214066
0.74064040184021 0.10816358774900436 0.17944663763046265 0.3137255012989044 0.3529411852359772 0.3490196168422699
0.7174876928329468 0.12016421556472778 0.18418972194194794 0.40784314274787903 0.45490196347236633 0.4470588266849518
0.753201961517334 0.14321807026863098 0.9924901127815247 0.26274511218070984 0.2549019753932953 0.25882354378700256
0.7172414064407349 0.10090004652738571 0.005928853526711464 0.4901960790157318 0.47843137383461 0.41960784792900085
0.6354680061340332 0.12158534675836563 0.9905138611793518 0.3529411852359772 0.3333333432674408 0.30980393290519714
0.7384236454963684 0.20322121679782867 0.9928853511810303 1.0 1.0 1.0
0.8389162421226501 0.17464077472686768 0.006719367578625679 0.5215686559677124 0.5137255191802979 0.4627451002597809
0.7495073676109314 0.15679772198200226 0.005928853526711464 0.6901960968971252 0.6941176652908325 0.6627451181411743
0.6911330223083496 0.11321648210287094 0.005533596966415644 0.5686274766921997 0.5803921818733215 0.5529412031173706
0.6618226766586304 0.1664298176765442 0.005533596966415644 0.6470588445663452 0.6509804129600525 0.6196078658103943
0.851477861404419 0.13674403727054596 0.006719367578625679 0.6274510025978088 0.6352941393852234 0.5490196347236633
0.6884236335754395 0.10816358774900436 0.005533596966415644 0.5960784554481506 0.6039215922355652 0.5529412031173706
0.7522167563438416 0.16737723350524902 0.005928853526711464 0.6549019813537598 0.658823549747467 0.6039215922355652
0.7310344576835632 0.23101216554641724 0.2964426875114441 0.4431372582912445 0.47843137383461 0.4745098054409027
0.8263546824455261 0.15727142989635468 0.0063241105526685715 0.7019608020782471 0.6901960968971252 0.615686297416687
0.814039409160614 0.1525343507528305 0.9909090995788574 0.29411765933036804 0.27450981736183167 0.250980406999588
0.63768470287323 0.14463919401168823 0.991304337978363 0.3529411852359772 0.37254902720451355 0.38823530077934265
0.6384236216545105 0.23101216554641724 0.29525691270828247 0.45490196347236633 0.45490196347236633 0.45490196347236633
0.7307881712913513 0.16437707841396332 0.992094874382019 1.0 1.0 1.0
0.7645320296287537 0.10026843845844269 0.9905138611793518 0.2980392277240753 0.2862745225429535 0.250980406999588
0.7270935773849487 0.19122059643268585 0.0063241105526685715 0.6117647290229797 0.6196078658103943 0.5333333611488342
0.761083722114563 0.1635875552892685 0.005928853526711464 0.5607843399047852 0.5647059082984924 0.5098039507865906
0.7613300681114197 0.19864203035831451 0.006719367578625679 0.6509804129600525 0.6666666865348816 0.5686274766921997
0.8448275923728943 0.14242854714393616 0.9901185631752014 0.29019609093666077 0.26274511218070984 0.23137255012989044
0.7849753499031067 0.19769461452960968 0.992094874382019 0.27843138575553894 0.27450981736183167 0.2549019753932953
0.6325123310089111 0.20827412605285645 0.9905138611793518 1.0 1.0 1.0
0.7401477694511414 0.20306332409381866 0.006719367578625679 0.5529412031173706 0.5607843399047852 0.4745098054409027
0.8581280708312988 0.20227380096912384 0.9905138611793518 0.3176470696926117 0.3019607961177826 0.25882354378700256
0.7352216839790344 0.18285173177719116 0.0063241105526685715 0.658823549747467 0.6705882549285889 0.5960784554481506
0.7556650042533875 0.18348334729671478 0.0063241105526685715 0.6627451181411743 0.6745098233222961 0.6000000238418579
0.6894088387489319 0.11669035255908966 0.17944663763046265 0.37254902720451355 0.4156862795352936 0.43921568989753723
0.8401477932929993 0.08716247975826263 0.9901185631752014 0.3019607961177826 0.2705882489681244 0.21960784494876862
0.7108374238014221 0.11290068179368973 0.9909090995788574 0.3137255012989044 0.30980393290519714 0.29019609093666077
0.8428571224212646 0.09237328171730042 0.9901185631752014 0.3019607961177826 0.2705882489681244 0.21960784494876862
0.7100985050201416 0.19327333569526672 0.0063241105526685715 0.6235294342041016 0.615686297416687 0.5647059082984924
0.8147783279418945 0.17921996116638184 0.006719367578625679 0.5843137502670288 0.5960784554481506 0.5137255191802979
0.6396551728248596 0.08668877184391022 0.9897233247756958 0.3764705955982208 0.364705890417099 0.3294117748737335
0.7450739145278931 0.1699036806821823 0.005928853526711464 0.6549019813537598 0.6392157077789307 0.5921568870544434
0.815517246723175 0.10500552505254745 0.9909090995788574 0.27843138575553894 0.250980406999588 0.21176470816135406
0.7130541801452637 0.15963998436927795 0.992094874382019 1.0 1.0 1.0
0.6209359765052795 0.17669351398944855 0.005928853526711464 0.5372549295425415 0.5490196347236633 0.5137255191802979
0.7288177609443665 0.1091110035777092 0.17984189093112946 0.3294117748737335 0.3686274588108063 0.364705890417099
0.6231527328491211 0.1408495157957077 0.005928853526711464 0.658823549747467 0.6431372761726379 0.5960784554481506
0.7443349957466125 0.12032212316989899 0.005928853526711464 0.6235294342041016 0.6117647290229797 0.5529412031173706
0.8241379261016846 0.09521553665399551 0.006719367578625679 0.49803921580314636 0.5058823823928833 0.42352941632270813
0.8342364430427551 0.11732196062803268 0.006719367578625679 0.5843137502670288 0.6117647290229797 0.5490196347236633
0.631280779838562 0.18158850073814392 0.005928853526711464 0.572549045085907 0.5921568870544434 0.5647059082984924
0.6815270781517029 0.10832148790359497 0.9905138611793518 0.3490196168422699 0.3294117748737335 0.30588236451148987
0.6209359765052795 0.23322279751300812 0.9916995763778687 1.0 1.0 1.0
0.7837438583374023 0.12505921721458435 0.1766798347234726 0.32549020648002625 0.364705890417099 0.4117647111415863
0.7945812940597534 0.15095531940460205 0.0063241105526685715 0.6431372761726379 0.6352941393852234 0.5764706134796143
0.7027093768119812 0.23653876781463623 0.0071146246045827866 0.24313725531101227 0.24705882370471954 0.18431372940540314
0.6307882070541382 0.10011053085327148 0.005533596966415644 0.5529412031173706 0.5607843399047852 0.5098039507865906
0.7317733764648438 0.1264803409576416 0.9916995763778687 0.24705882370471954 0.23137255012989044 0.21960784494876862
0.643842339515686 0.22469604015350342 0.18498024344444275 0.08235294371843338 0.07450980693101883 0.0784313753247261
0.7216748595237732 0.080372653901577 0.0063241105526685715 0.501960813999176 0.48235294222831726 0.3960784375667572
0.800000011920929 0.21885362267494202 0.992094874382019 0.30588236451148987 0.2862745225429535 0.26274511218070984
0.635960578918457 0.21901153028011322 0.2656126618385315 0.11372549086809158 0.10980392247438431 0.10196078568696976
0.8433497548103333 0.18285173177719116 0.9905138611793518 0.32549020648002625 0.2980392277240753 0.2666666805744171
0.6295566558837891 0.1552186906337738 0.9909090995788574 0.8784313797950745 0.9019607901573181 0.9019607901573181
0.7709359526634216 0.1610611081123352 0.992094874382019 0.2666666805744171 0.24313725531101227 0.24313725531101227
0.7100985050201416 0.14700773358345032 0.005533596966415644 0.6196078658103943 0.6196078658103943 0.5803921818733215
0.6453201770782471 0.22059056162834167 0.0063241105526685715 0.45098039507865906 0.4470588266849518 0.3686274588108063
0.7088670134544373 0.1236380860209465 0.005533596966415644 0.5764706134796143 0.5764706134796143 0.5372549295425415
0.7310344576835632 0.22895942628383636 0.992094874382019 0.9686274528503418 0.9843137264251709 0.9960784316062927
0.7177339792251587 0.09916311502456665 0.005928853526711464 0.501960813999176 0.4901960790157318 0.4156862795352936
0.8300492763519287 0.09126795828342438 0.9901185631752014 0.2980392277240753 0.27450981736183167 0.22745098173618317
0.8283251523971558 0.1664298176765442 0.006719367578625679 0.6274510025978088 0.615686297416687 0.5568627715110779
0.7810344696044922 0.10879520326852798 0.0063241105526685715 0.5607843399047852 0.5686274766921997 0.4745098054409027
0.7783251404762268 0.12190115451812744 0.005928853526711464 0.6235294342041016 0.6078431606292725 0.5607843399047852
0.7280788421630859 0.12379598617553711 0.9916995763778687 0.18431372940540314 0.16470588743686676 0.15294118225574493
0.6768472790718079 0.15900836884975433 0.991304337978363 0.9019607901573181 0.9098039269447327 0.95686274766922
0.6465517282485962 0.091899573802948 0.005533596966415644 0.5176470875740051 0.5254902243614197 0.47058823704719543
0.6532019972801208 0.09663666784763336 0.005138339940458536 0.5098039507865906 0.5098039507865906 0.4627451002597809
0.7059113383293152 0.20274750888347626 0.006719367578625679 0.4627451002597809 0.47058823704719543 0.38823530077934265
0.7958127856254578 0.11258487403392792 0.0063241105526685715 0.5411764979362488 0.5490196347236633 0.49803921580314636
0.798275887966156 0.21190589666366577 0.992094874382019 0.27450981736183167 0.2705882489681244 0.250980406999588
0.7950738668441772 0.1869572103023529 0.9916995763778687 0.2823529541492462 0.2705882489681244 0.250980406999588
0.7120689749717712 0.18822042644023895 0.0063241105526685715 0.6901960968971252 0.6941176652908325 0.6235294342041016
0.6428571343421936 0.18348334729671478 0.9897233247756958 0.9450980424880981 0.9647058844566345 0.9882352948188782
0.8012315034866333 0.09442602097988129 0.16521738469600677 0.12941177189350128 0.125490203499794 0.11764705926179886
0.6894088387489319 0.14558660984039307 0.992094874382019 0.8156862854957581 0.8392156958580017 0.8941176533699036
0.6775861978530884 0.09837359935045242 0.005533596966415644 0.4901960790157318 0.4941176474094391 0.43921568989753723
0.6421182155609131 0.21980103850364685 0.9901185631752014 0.9725490212440491 0.9882352948188782 1.0
0.6719211935997009 0.12758566439151764 0.005138339940458536 0.6549019813537598 0.6549019813537598 0.6078431606292725
0.7487684488296509 0.17006158828735352 0.0063241105526685715 0.6627451181411743 0.6549019813537598 0.5960784554481506
0.7903940677642822 0.12316437810659409 0.18023715913295746 0.3176470696926117 0.3686274588108063 0.40392157435417175
0.6268472671508789 0.20795831084251404 0.9909090995788574 0.9960784316062927 0.9960784316062927 0.9960784316062927
0.7209359407424927 0.21616926789283752 0.991304337978363 0.9803921580314636 0.9843137264251709 1.0
0.7684729099273682 0.15916627645492554 0.005928853526711464 0.6470588445663452 0.6470588445663452 0.6000000238418579
0.7081280946731567 0.13453339040279388 0.005533596966415644 0.6470588445663452 0.6470588445663452 0.6000000238418579
0.6379310488700867 0.22327491641044617 0.23241107165813446 0.10588235408067703 0.10196078568696976 0.08627451211214066
0.8246305584907532 0.10595294833183289 0.9905138611793518 0.27450981736183167 0.25882354378700256 0.21568627655506134
0.7943349480628967 0.11653245240449905 0.1620553433895111 0.1411764770746231 0.125490203499794 0.12156862765550613
0.8492611050605774 0.16706141829490662 0.9901185631752014 0.3176470696926117 0.2980392277240753 0.27450981736183167
0.7229064106941223 0.11321648210287094 0.18142291903495789 0.364705890417099 0.4000000059604645 0.3960784375667572
0.6532019972801208 0.2360650599002838 0.0063241105526685715 0.30980393290519714 0.2980392277240753 0.239215686917305
0.7347290515899658 0.13105952739715576 0.16442687809467316 0.5843137502670288 0.6039215922355652 0.5764706134796143
0.7381773591041565 0.17669351398944855 0.0063241105526685715 0.6431372761726379 0.6470588445663452 0.5843137502670288
0.6320196986198425 0.19658929109573364 0.0063241105526685715 0.49803921580314636 0.501960813999176 0.4313725531101227
0.8544334769248962 0.0975840836763382 0.9897233247756958 0.3176470696926117 0.2862745225429535 0.23529411852359772
0.7347290515899658 0.09379441291093826 0.17391304671764374 0.2980392277240753 0.3333333432674408 0.32156863808631897
0.6933497786521912 0.07974103838205338 0.17351779341697693 0.29411765933036804 0.3294117748737335 0.3176470696926117
0.796798050403595 0.10611084848642349 0.17786560952663422 0.239215686917305 0.25882354378700256 0.2705882489681244
0.7078817486763 0.12726984918117523 0.1715414971113205 0.5058823823928833 0.5333333611488342 0.5058823823928833
0.6798029541969299 0.11084794253110886 0.9905138611793518 0.35686275362968445 0.33725491166114807 0.32156863808631897
0.7197044491767883 0.09663666784763336 0.17588932812213898 0.32156863808631897 0.35686275362968445 0.3450980484485626
0.7908867001533508 0.21127428114414215 0.9924901127815247 0.2666666805744171 0.26274511218070984 0.24313725531101227
0.8544334769248962 0.12711195647716522 0.006719367578625679 0.5803921818733215 0.5843137502670288 0.5215686559677124
0.7135468125343323 0.14179693162441254 0.992094874382019 0.239215686917305 0.24313725531101227 0.25882354378700256
0.7743842601776123 0.14163903892040253 0.005928853526711464 0.6039215922355652 0.6039215922355652 0.5568627715110779
0.7140393853187561 0.18553608655929565 0.0063241105526685715 0.6823529601097107 0.6745098233222961 0.6235294342041016
0.8315271139144897 0.13705985248088837 0.9905138611793518 0.30588236451148987 0.27843138575553894 0.239215686917305
0.7706896662712097 0.09726827591657639 0.9905138611793518 0.2980392277240753 0.26274511218070984 0.22745098173618317
0.8103448152542114 0.2152218520641327 0.006719367578625679 0.5843137502670288 0.5843137502670288 0.48235294222831726
0.6509852409362793 0.12584872543811798 0.9905138611793518 0.32549020648002625 0.32156863808631897 0.30588236451148987
0.6963053941726685 0.21459023654460907 0.9893280863761902 0.9882352948188782 1.0 1.0
0.8100985288619995 0.10532133281230927 0.0063241105526685715 0.14901961386203766 0.16470588743686676 0.10980392247438431
0.8440886735916138 0.11842728406190872 0.9901185631752014 0.2823529541492462 0.2549019753932953 0.21568627655506134
0.634482741355896 0.22185377776622772 0.2185770720243454 0.0941176488995552 0.09019608050584793 0.07450980693101883
0.6499999761581421 0.12174324691295624 0.005533596966415644 0.5411764979362488 0.5333333611488342 0.4745098054409027
0.7571428418159485 0.16611400246620178 0.005928853526711464 0.6431372761726379 0.6470588445663452 0.5921568870544434
0.6731526851654053 0.18569397926330566 0.005928853526711464 0.6274510025978088 0.6352941393852234 0.5921568870544434
