0.6539409160614014 0.33412283658981323 0.2976284623146057 0.5411764979362488 0.572549045085907 0.5803921818733215
0.7100985050201416 0.3134375512599945 0.9932806491851807 0.9098039269447327 0.929411768913269 0.9411764740943909
0.7120689749717712 0.38386231660842896 0.15494070947170258 0.07058823853731155 0.07058823853731155 0.07058823853731155
0.6568965315818787 0.2589609920978546 0.2956521809101105 0.4588235318660736 0.47843137383461 0.45098039507865906
0.8105911612510681 0.36886152625083923 0.005928853526711464 0.6196078658103943 0.615686297416687 0.545098066329956
0.8618226647377014 0.24032843112945557 0.006719367578625679 0.5764706134796143 0.5686274766921997 0.47843137383461
0.8347290754318237 0.2532764971256256 0.992094874382019 0.29411765933036804 0.2862745225429535 0.239215686917305
0.7381773591041565 0.2613295316696167 0.0071146246045827866 0.21176470816135406 0.20392157137393951 0.14509804546833038
0.7320197224617004 0.3295436501502991 0.29960474371910095 0.5372549295425415 0.5764706134796143 0.572549045085907
0.6889162659645081 0.24853940308094025 0.9893280863761902 0.9686274528503418 0.9725490212440491 0.9882352948188782
0.7815271019935608 0.36949312686920166 0.9916995763778687 0.3803921639919281 0.3764705955982208 0.35686275362968445
0.7174876928329468 0.2764882445335388 0.007509881630539894 0.19607843458652496 0.18039216101169586 0.13333334028720856
0.8184729218482971 0.367440402507782 0.9909090995788574 0.40392157435417175 0.38823530077934265 0.3764705955982208
0.7206896543502808 0.3650718331336975 0.15691699087619781 0.06666667014360428 0.07450980693101883 0.07058823853731155
0.6162561774253845 0.3881256878376007 0.9893280863761902 0.364705890417099 0.3490196168422699 0.3529411852359772
0.6832512021064758 0.32938575744628906 0.992094874382019 0.8627451062202454 0.8901960849761963 0.9215686321258545
0.7992610931396484 0.3188062608242035 0.9928853511810303 0.3960784375667572 0.3843137323856354 0.364705890417099
0.7770935893058777 0.24048633873462677 0.9932806491851807 0.2823529541492462 0.27843138575553894 0.2705882489681244
0.617241382598877 0.2693825960159302 0.18023715913295746 0.07058823853731155 0.07450980693101883 0.08235294371843338
0.7527093887329102 0.3484920263290405 0.27865612506866455 0.11372549086809158 0.11372549086809158 0.10588235408067703
0.761083722114563 0.3936522901058197 0.0063241105526685715 0.27843138575553894 0.2705882489681244 0.21960784494876862
0.7140393853187561 0.345649778842926 0.0071146246045827866 0.35686275362968445 0.38823530077934265 0.3294117748737335
0.8426108360290527 0.3159639835357666 0.9916995763778687 0.3686274588108063 0.3686274588108063 0.3294117748737335
0.7019704580307007 0.38007262349128723 0.15770751237869263 0.062745101749897 0.07058823853731155 0.06666667014360428
0.7635468244552612 0.2869098484516144 0.007509881630539894 0.3960784375667572 0.38823530077934265 0.34117648005485535
0.618719220161438 0.24538134038448334 0.29525691270828247 0.49803921580314636 0.5215686559677124 0.48235294222831726
0.640640377998352 0.33554399013519287 0.9901185631752014 0.239215686917305 0.24313725531101227 0.21960784494876862
0.7509852051734924 0.38654667139053345 0.30039525032043457 0.3529411852359772 0.37254902720451355 0.35686275362968445
0.8403940796852112 0.30064740777015686 0.9916995763778687 0.3529411852359772 0.34117648005485535 0.3137255012989044
0.635960578918457 0.25122374296188354 0.0063241105526685715 0.18039216101169586 0.18039216101169586 0.13333334028720856
0.6497536897659302 0.25485551357269287 0.9905138611793518 0.9254902005195618 0.9450980424880981 0.9686274528503418
0.7798029780387878 0.338228315114975 0.9932806491851807 0.4117647111415863 0.4156862795352936 0.3843137323856354
0.7423645257949829 0.3339649438858032 0.14703556895256042 0.04313725605607033 0.03921568766236305 0.0313725508749485
0.7344827651977539 0.32385915517807007 0.007509881630539894 0.07058823853731155 0.06666667014360428 0.05098039284348488
0.690640389919281 0.26843518018722534 0.2960474193096161 0.47058823704719543 0.49803921580314636 0.47058823704719543
0.826600968837738 0.30870047211647034 0.992094874382019 0.3803921639919281 0.3686274588108063 0.34117648005485535
0.7445812821388245 0.3762829601764679 0.005928853526711464 0.21960784494876862 0.2078431397676468 0.18039216101169586
0.6825123429298401 0.29496288299560547 0.0071146246045827866 0.05098039284348488 0.07450980693101883 0.07450980693101883
0.7100985050201416 0.38670456409454346 0.9916995763778687 0.4117647111415863 0.4117647111415863 0.4117647111415863
0.7527093887329102 0.3126480281352997 0.0071146246045827866 0.1764705926179886 0.16470588743686676 0.10588235408067703
0.6736453175544739 0.26575082540512085 0.9901185631752014 0.9647058844566345 0.9843137264251709 0.9960784316062927
0.8243842124938965 0.3415443003177643 0.0063241105526685715 0.5568627715110779 0.5647059082984924 0.5098039507865906
0.6199507117271423 0.3597031533718109 0.9889327883720398 0.3333333432674408 0.3294117748737335 0.30980393290519714
0.6603448390960693 0.3023843467235565 0.005533596966415644 0.16862745583057404 0.16862745583057404 0.12156862765550613
0.7573891878128052 0.25406599044799805 0.0071146246045827866 0.27450981736183167 0.2705882489681244 0.20000000298023224
0.7165024876594543 0.33996525406837463 0.29960474371910095 0.5098039507865906 0.5529412031173706 0.5372549295425415
0.6283251047134399 0.35228168964385986 0.29802370071411133 0.6078431606292725 0.6235294342041016 0.6352941393852234
0.684482753276825 0.3587557375431061 0.0063241105526685715 0.4431372582912445 0.45098039507865906 0.3686274588108063
0.8421182036399841 0.29796305298805237 0.0063241105526685715 0.5215686559677124 0.529411792755127 0.4470588266849518
0.7729064226150513 0.3585978150367737 0.9924901127815247 0.4000000059604645 0.3803921639919281 0.3686274588108063
0.7433497309684753 0.2651192247867584 0.0071146246045827866 0.22745098173618317 0.21960784494876862 0.16862745583057404
0.6692118048667908 0.28533080220222473 0.2956521809101105 0.4941176474094391 0.501960813999176 0.4901960790157318
0.7396551966667175 0.3301752805709839 0.0071146246045827866 0.1882352977991104 0.1764705926179886 0.1411764770746231
0.6822659969329834 0.2782251834869385 0.9909090995788574 0.9686274528503418 0.9882352948188782 1.0
0.6184729337692261 0.3339649438858032 0.2968379557132721 0.572549045085907 0.5921568870544434 0.6039215922355652
0.6586207151412964 0.31738513708114624 0.005533596966415644 0.250980406999588 0.2549019753932953 0.2235294133424759
0.6465517282485962 0.2643297016620636 0.9909090995788574 0.9372549057006836 0.95686274766922 0.9725490212440491
0.8051724433898926 0.36696669459342957 0.991304337978363 0.40784314274787903 0.3960784375667572 0.3764705955982208
0.8460590839385986 0.3871782720088959 0.9905138611793518 0.3686274588108063 0.35686275362968445 0.33725491166114807
0.7879310250282288 0.27190905809402466 0.9932806491851807 0.2823529541492462 0.27843138575553894 0.26274511218070984
0.6886699795722961 0.23969683051109314 0.00830039568245411 0.2235294133424759 0.2235294133424759 0.1921568661928177
0.7492610812187195 0.367756187915802 0.15454545617103577 0.08627451211214066 0.09019608050584793 0.09803921729326248
0.748275876045227 0.37265118956565857 0.9924901127815247 0.3843137323856354 0.3921568691730499 0.3803921639919281
0.7810344696044922 0.25943470001220703 0.9932806491851807 0.27450981736183167 0.2705882489681244 0.26274511218070984
0.7280788421630859 0.3390178382396698 0.20197628438472748 0.05882352963089943 0.062745101749897 0.0784313753247261
0.6650246381759644 0.35717669129371643 0.29920947551727295 0.6470588445663452 0.6705882549285889 0.6705882549285889
0.6551724076271057 0.25675034523010254 0.2956521809101105 0.47058823704719543 0.4941176474094391 0.45490196347236633
0.8288177251815796 0.2790146768093109 0.0063241105526685715 0.4588235318660736 0.46666666865348816 0.37254902720451355
0.7408866882324219 0.3761250674724579 0.992094874382019 0.40784314274787903 0.40392157435417175 0.38823530077934265
0.7448275685310364 0.33143851161003113 0.16363635659217834 0.0941176488995552 0.07450980693101883 0.062745101749897
0.7071428298950195 0.38891521096229553 0.005928853526711464 0.239215686917305 0.250980406999588 0.21568627655506134
0.6899014711380005 0.34975525736808777 0.29960474371910095 0.5882353186607361 0.6235294342041016 0.6039215922355652
0.6529556512832642 0.2992262840270996 0.005533596966415644 0.06666667014360428 0.062745101749897 0.0470588244497776
0.6618226766586304 0.2783830761909485 0.0063241105526685715 0.23137255012989044 0.23137255012989044 0.20000000298023224
0.80147784948349 0.26827728748321533 0.9928853511810303 0.2980392277240753 0.3019607961177826 0.2823529541492462
0.7472906112670898 0.3412284851074219 0.15968379378318787 0.07058823853731155 0.0941176488995552 0.0941176488995552
0.7408866882324219 0.2963840067386627 0.007509881630539894 0.34117648005485535 0.32549020648002625 0.27843138575553894
0.678078830242157 0.2982788681983948 0.29328063130378723 0.48627451062202454 0.5058823823928833 0.48235294222831726
0.8243842124938965 0.2501184344291687 0.006719367578625679 0.4470588266849518 0.4588235318660736 0.3529411852359772
0.7620689868927002 0.3707563579082489 0.30553358793258667 0.3019607961177826 0.32549020648002625 0.3176470696926117
0.6165024638175964 0.30364754796028137 0.9932806491851807 1.0 1.0 0.9921568632125854
0.6504926085472107 0.24522343277931213 0.2956521809101105 0.46666666865348816 0.47843137383461 0.4431372582912445
0.8413792848587036 0.36617717146873474 0.9905138611793518 0.3960784375667572 0.3843137323856354 0.35686275362968445
0.6783251166343689 0.24301278591156006 0.9889327883720398 0.9607843160629272 0.9764705896377563 0.9882352948188782
0.8339901566505432 0.3417021930217743 0.9916995763778687 0.3921568691730499 0.3921568691730499 0.3529411852359772
0.8458127975463867 0.3131217360496521 0.005928853526711464 0.4901960790157318 0.501960813999176 0.41960784792900085
0.743596076965332 0.3704405426979065 0.3019762933254242 0.06666667014360428 0.07058823853731155 0.08627451211214066
0.7448275685310364 0.34864991903305054 0.9932806491851807 0.4000000059604645 0.40392157435417175 0.3843137323856354
0.8243842124938965 0.27743566036224365 0.0063241105526685715 0.5568627715110779 0.5607843399047852 0.4901960790157318
0.6724137663841248 0.36112427711486816 0.29960474371910095 0.6470588445663452 0.6627451181411743 0.6666666865348816
0.7876847386360168 0.3791252076625824 0.991304337978363 0.3921568691730499 0.3803921639919281 0.3607843220233917
0.6568965315818787 0.24048633873462677 0.0063241105526685715 0.29019609093666077 0.27843138575553894 0.21176470816135406
0.8024630546569824 0.3472287952899933 0.992094874382019 0.40392157435417175 0.4000000059604645 0.3803921639919281
0.6665024757385254 0.24506552517414093 0.9893280863761902 0.9490196108818054 0.9647058844566345 0.9764705896377563
0.7504926323890686 0.24522343277931213 0.006719367578625679 0.30980393290519714 0.29019609093666077 0.21568627655506134
0.7770935893058777 0.3014369308948517 0.9936758875846863 0.32549020648002625 0.32549020648002625 0.3176470696926117
0.8342364430427551 0.24348649382591248 0.9916995763778687 0.29019609093666077 0.29019609093666077 0.250980406999588
0.7246305346488953 0.2957524061203003 0.992094874382019 1.0 1.0 1.0
0.7357142567634583 0.31075319647789 0.29446640610694885 0.49803921580314636 0.5411764979362488 0.5098039507865906
0.7337438464164734 0.32591187953948975 0.0071146246045827866 0.19607843458652496 0.19607843458652496 0.16470588743686676
0.7192118167877197 0.3499131500720978 0.16798418760299683 0.04313725605607033 0.054901961237192154 0.07450980693101883
0.8613300323486328 0.3328596353530884 0.0071146246045827866 0.48235294222831726 0.47843137383461 0.4000000059604645
0.6672413945198059 0.3475446105003357 0.9905138611793518 0.32156863808631897 0.30588236451148987 0.30980393290519714
0.7039408683776855 0.3647560477256775 0.29960474371910095 0.6078431606292725 0.6274510025978088 0.6117647290229797
0.8221675157546997 0.3423337936401367 0.005928853526711464 0.6039215922355652 0.6196078658103943 0.5607843399047852
0.6849753856658936 0.23732827603816986 0.006719367578625679 0.2549019753932953 0.2666666805744171 0.239215686917305
0.7216748595237732 0.30364754796028137 0.007905138656497002 0.22745098173618317 0.21960784494876862 0.1725490242242813
0.7399014830589294 0.30538448691368103 0.9928853511810303 1.0 0.9960784316062927 1.0
0.7736453413963318 0.3799147307872772 0.9916995763778687 0.3803921639919281 0.3843137323856354 0.3529411852359772
0.6532019972801208 0.2441181093454361 0.17312252521514893 0.0470588244497776 0.062745101749897 0.06666667014360428
0.6221674680709839 0.3844939172267914 0.005928853526711464 0.21960784494876862 0.21960784494876862 0.1882352977991104
0.6637930870056152 0.3357018828392029 0.29802370071411133 0.5254902243614197 0.5607843399047852 0.5568627715110779
0.6199507117271423 0.25990840792655945 0.29525691270828247 0.47843137383461 0.501960813999176 0.4941176474094391
0.6995074152946472 0.2848570942878723 0.2960474193096161 0.47843137383461 0.48235294222831726 0.4588235318660736
0.8423645496368408 0.32638558745384216 0.9916995763778687 0.3921568691730499 0.3921568691730499 0.3529411852359772
0.7334975600242615 0.23985472321510315 0.9924901127815247 0.9843137264251709 0.9882352948188782 0.9960784316062927
0.6482758522033691 0.2902258038520813 0.005928853526711464 0.20392157137393951 0.20392157137393951 0.16470588743686676
0.7091132998466492 0.2899099886417389 0.29407113790512085 0.4941176474094391 0.5215686559677124 0.4941176474094391
0.7573891878128052 0.24885520339012146 0.29446640610694885 0.10980392247438431 0.10980392247438431 0.10196078568696976
0.7857142686843872 0.30570030212402344 0.9932806491851807 0.29411765933036804 0.29019609093666077 0.2823529541492462
0.7921182513237 0.2474340796470642 0.9928853511810303 0.2823529541492462 0.2823529541492462 0.2823529541492462
0.7605911493301392 0.35796621441841125 0.30474308133125305 0.4588235318660736 0.47843137383461 0.4901960790157318
0.6854679584503174 0.27506712079048157 0.9909090995788574 0.9647058844566345 0.9843137264251709 1.0
0.743596076965332 0.32922786474227905 0.9936758875846863 0.9607843160629272 1.0 1.0
0.8512315154075623 0.3645981252193451 0.0063241105526685715 0.5568627715110779 0.545098066329956 0.48627451062202454
0.6832512021064758 0.3137533664703369 0.0071146246045827866 0.0313725508749485 0.06666667014360428 0.0470588244497776
0.7899014949798584 0.37170377373695374 0.005928853526711464 0.5176470875740051 0.4901960790157318 0.4156862795352936
0.7448275685310364 0.35559767484664917 0.2754940688610077 0.11372549086809158 0.10980392247438431 0.10196078568696976
0.685960590839386 0.35496604442596436 0.1766798347234726 0.0470588244497776 0.054901961237192154 0.05098039284348488
0.6295566558837891 0.372967004776001 0.29920947551727295 0.6313725709915161 0.6352941393852234 0.6549019813537598
0.7866995334625244 0.3249644637107849 0.0063241105526685715 0.4941176474094391 0.47058823704719543 0.40784314274787903
0.7004926204681396 0.2793304920196533 0.991304337978363 0.9372549057006836 0.9647058844566345 1.0
0.685960590839386 0.2501184344291687 0.2960474193096161 0.4588235318660736 0.47843137383461 0.45098039507865906
0.7108374238014221 0.2959102988243103 0.2920948565006256 0.48235294222831726 0.501960813999176 0.4745098054409027
0.6832512021064758 0.3415443003177643 0.1766798347234726 0.05882352963089943 0.05882352963089943 0.05882352963089943
0.817241370677948 0.24269698560237885 0.992094874382019 0.30588236451148987 0.29019609093666077 0.2549019753932953
0.6253694295883179 0.2960682213306427 0.29525691270828247 0.5372549295425415 0.5529412031173706 0.5568627715110779
0.695320188999176 0.3941259980201721 0.17549407482147217 0.062745101749897 0.07058823853731155 0.05882352963089943
0.7093595862388611 0.38070425391197205 0.17509882152080536 0.0470588244497776 0.054901961237192154 0.05098039284348488
0.7428571581840515 0.34012317657470703 0.20039525628089905 0.05882352963089943 0.05882352963089943 0.05098039284348488
0.7189655303955078 0.33554399013519287 0.9924901127815247 0.3960784375667572 0.4000000059604645 0.40784314274787903
0.8559113144874573 0.2709616422653198 0.0063241105526685715 0.46666666865348816 0.4745098054409027 0.3803921639919281
0.7241379022598267 0.3252802789211273 0.16482213139533997 0.054901961237192154 0.05098039284348488 0.04313725605607033
0.7115763425827026 0.37833571434020996 0.17509882152080536 0.0470588244497776 0.0470588244497776 0.0470588244497776
0.6615763306617737 0.39238905906677246 0.9897233247756958 0.4117647111415863 0.3960784375667572 0.3921568691730499
0.693842351436615 0.264961302280426 0.2960474193096161 0.45098039507865906 0.47058823704719543 0.4431372582912445
0.6253694295883179 0.36586135625839233 0.003952569328248501 0.25882354378700256 0.24705882370471954 0.21176470816135406
0.7036945819854736 0.3939681053161621 0.005928853526711464 0.3176470696926117 0.32549020648002625 0.2823529541492462
0.7251231670379639 0.33712300658226013 0.1932806372642517 0.16862745583057404 0.16862745583057404 0.16862745583057404
0.7522167563438416 0.37786200642585754 0.992094874382019 0.3803921639919281 0.3764705955982208 0.3607843220233917
0.7635468244552612 0.3481762111186981 0.9932806491851807 0.4000000059604645 0.3843137323856354 0.37254902720451355
0.8549261093139648 0.38638874888420105 0.9901185631752014 0.3803921639919281 0.3686274588108063 0.3490196168422699
0.6642857193946838 0.3767566680908203 0.004743082914501429 0.34117648005485535 0.3686274588108063 0.30588236451148987
0.6334975361824036 0.38702037930488586 0.9893280863761902 0.3529411852359772 0.33725491166114807 0.34117648005485535
0.7465517520904541 0.3709142506122589 0.27786561846733093 0.2980392277240753 0.32156863808631897 0.3137255012989044
0.7455664873123169 0.34391283988952637 0.260474294424057 0.10980392247438431 0.10980392247438431 0.10196078568696976
0.7174876928329468 0.25185537338256836 0.9909090995788574 0.95686274766922 0.9960784316062927 1.0
0.8261083960533142 0.32022738456726074 0.005928853526711464 0.5254902243614197 0.5372549295425415 0.47058823704719543
0.7155172228813171 0.2820148468017578 0.2956521809101105 0.48627451062202454 0.5098039507865906 0.47058823704719543
0.738916277885437 0.3941259980201721 0.3011857569217682 0.6392157077789307 0.658823549747467 0.6745098233222961
0.6177340149879456 0.3936522901058197 0.9893280863761902 0.3764705955982208 0.3607843220233917 0.35686275362968445
0.767241358757019 0.36033475399017334 0.9924901127815247 0.3803921639919281 0.3764705955982208 0.3607843220233917
0.7197044491767883 0.3649139404296875 0.0063241105526685715 0.27843138575553894 0.2823529541492462 0.25882354378700256
0.7940886616706848 0.3740723133087158 0.005928853526711464 0.6078431606292725 0.5960784554481506 0.5215686559677124
0.7899014949798584 0.37170377373695374 0.005928853526711464 0.5176470875740051 0.4901960790157318 0.4156862795352936
0.8431034684181213 0.36949312686920166 0.0063241105526685715 0.6196078658103943 0.5960784554481506 0.5490196347236633
0.7443349957466125 0.34691300988197327 0.19486166536808014 0.05882352963089943 0.05882352963089943 0.05098039284348488
0.7354679703712463 0.23780198395252228 0.006719367578625679 0.3490196168422699 0.35686275362968445 0.26274511218070984
0.6566502451896667 0.321648508310318 0.2972331941127777 0.4431372582912445 0.46666666865348816 0.46666666865348816
0.759605884552002 0.24064424633979797 0.006719367578625679 0.23529411852359772 0.239215686917305 0.16862745583057404
0.7862069010734558 0.33475446701049805 0.0063241105526685715 0.3960784375667572 0.3843137323856354 0.32549020648002625
0.7268472909927368 0.38891521096229553 0.18932805955410004 0.18431372940540314 0.18431372940540314 0.1764705926179886
0.6854679584503174 0.3533870279788971 0.1766798347234726 0.05098039284348488 0.05882352963089943 0.054901961237192154
0.8022167682647705 0.2499605268239975 0.9924901127815247 0.3019607961177826 0.2980392277240753 0.2823529541492462
0.7711822390556335 0.31122690439224243 0.006719367578625679 0.3803921639919281 0.35686275362968445 0.3019607961177826
0.6950739026069641 0.27490919828414917 0.2960474193096161 0.47058823704719543 0.47843137383461 0.46666666865348816
0.7650246024131775 0.3156481981277466 0.0071146246045827866 0.23137255012989044 0.2235294133424759 0.1764705926179886
0.6785714030265808 0.3514921963214874 0.0063241105526685715 0.364705890417099 0.37254902720451355 0.3176470696926117
0.6241379380226135 0.32543817162513733 0.004347825888544321 0.27843138575553894 0.2666666805744171 0.23137255012989044
0.7172414064407349 0.26243487000465393 0.2960474193096161 0.47058823704719543 0.47843137383461 0.46666666865348816
0.7256157398223877 0.3825990855693817 0.005928853526711464 0.19607843458652496 0.19607843458652496 0.1568627506494522
0.7293103337287903 0.3652297556400299 0.15296442806720734 0.1921568661928177 0.18431372940540314 0.1882352977991104
0.6342364549636841 0.26527711749076843 0.29525691270828247 0.47843137383461 0.4901960790157318 0.45490196347236633
0.6908866763114929 0.30317384004592896 0.00830039568245411 0.0784313753247261 0.07450980693101883 0.05882352963089943
0.6657635569572449 0.36065056920051575 0.005138339940458536 0.3686274588108063 0.40392157435417175 0.33725491166114807
0.7224137783050537 0.37170377373695374 0.29960474371910095 0.5647059082984924 0.5882353186607361 0.5803921818733215
0.7559113502502441 0.24364440143108368 0.006719367578625679 0.29411765933036804 0.2823529541492462 0.2235294133424759
0.8135467767715454 0.3044370710849762 0.9924901127815247 0.34117648005485535 0.3294117748737335 0.29411765933036804
0.7369458079338074 0.33712300658226013 0.30000001192092896 0.5568627715110779 0.6039215922355652 0.5960784554481506
0.8605911135673523 0.35749250650405884 0.9905138611793518 0.3960784375667572 0.3843137323856354 0.35686275362968445
0.7618226408958435 0.25075003504753113 0.29407113790512085 0.1411764770746231 0.13725490868091583 0.11764705926179886
0.7002463340759277 0.27759355306625366 0.007509881630539894 0.22745098173618317 0.21960784494876862 0.16862745583057404
0.8396551609039307 0.36065056920051575 0.9909090995788574 0.38823530077934265 0.3764705955982208 0.3490196168422699
0.6465517282485962 0.2981209456920624 0.005533596966415644 0.0470588244497776 0.05098039284348488 0.027450980618596077
0.7815271019935608 0.31138479709625244 0.006719367578625679 0.3803921639919281 0.3921568691730499 0.30980393290519714
0.7650246024131775 0.24317069351673126 0.28972330689430237 0.18039216101169586 0.18039216101169586 0.18039216101169586
0.7347290515899658 0.3295436501502991 0.29960474371910095 0.5411764979362488 0.5882353186607361 0.5803921818733215
0.7379310131072998 0.327017217874527 0.0071146246045827866 0.18039216101169586 0.18039216101169586 0.14901961386203766
0.6672413945198059 0.24522343277931213 0.2956521809101105 0.45098039507865906 0.48235294222831726 0.43921568989753723
0.7475369572639465 0.3585978150367737 0.1774703562259674 0.11372549086809158 0.11372549086809158 0.11372549086809158
0.643842339515686 0.3423337936401367 0.9897233247756958 0.30980393290519714 0.29411765933036804 0.29019609093666077
0.6987684965133667 0.28864675760269165 0.9916995763778687 0.9098039269447327 0.9372549057006836 0.9686274528503418
0.6625615954399109 0.2666982412338257 0.0063241105526685715 0.2235294133424759 0.2235294133424759 0.18431372940540314
0.6822659969329834 0.3742302358150482 0.9909090995788574 0.364705890417099 0.364705890417099 0.37254902720451355
0.7805418968200684 0.3857571482658386 0.991304337978363 0.38823530077934265 0.3921568691730499 0.37254902720451355
0.6817734241485596 0.3194378614425659 0.0071146246045827866 0.26274511218070984 0.29019609093666077 0.3294117748737335
0.7460591197013855 0.3857571482658386 0.0063241105526685715 0.16470588743686676 0.15294118225574493 0.11764705926179886
0.7802955508232117 0.2409600466489792 0.006719367578625679 0.3843137323856354 0.3843137323856354 0.29019609093666077
0.6948275566101074 0.3069635331630707 0.009486165829002857 0.03529411926865578 0.03529411926865578 0.03529411926865578
0.7330049276351929 0.3682298958301544 0.29960474371910095 0.545098066329956 0.5803921818733215 0.6078431606292725
0.7036945819854736 0.27696195244789124 0.2960474193096161 0.4745098054409027 0.4941176474094391 0.46666666865348816
0.7007389068603516 0.2823306620121002 0.2960474193096161 0.48627451062202454 0.4941176474094391 0.4745098054409027
0.6751231551170349 0.367756187915802 0.005533596966415644 0.38823530077934265 0.4000000059604645 0.3333333432674408
0.7071428298950195 0.3900205194950104 0.29960474371910095 0.6549019813537598 0.6627451181411743 0.6509804129600525
0.8034482598304749 0.26338228583335876 0.0071146246045827866 0.5254902243614197 0.5372549295425415 0.45490196347236633
0.6238916516304016 0.27427759766578674 0.005928853526711464 0.2705882489681244 0.2705882489681244 0.23137255012989044
0.765763521194458 0.2583293914794922 0.29525691270828247 0.14509804546833038 0.16078431904315948 0.16470588743686676
0.7224137783050537 0.2385915070772171 0.0071146246045827866 0.3450980484485626 0.33725491166114807 0.2862745225429535
0.7219212055206299 0.36949312686920166 0.9924901127815247 0.42352941632270813 0.40784314274787903 0.40392157435417175
0.6916255950927734 0.34612348675727844 0.29920947551727295 0.5647059082984924 0.6000000238418579 0.5882353186607361
0.860837459564209 0.338228315114975 0.0071146246045827866 0.501960813999176 0.49803921580314636 0.4274509847164154
0.7100985050201416 0.29164692759513855 0.9916995763778687 0.9490196108818054 0.9686274528503418 0.9843137264251709
0.8536945581436157 0.25722405314445496 0.006719367578625679 0.5960784554481506 0.6039215922355652 0.5176470875740051
0.7477832436561584 0.2502763271331787 0.2964426875114441 0.48627451062202454 0.5098039507865906 0.501960813999176
0.6948275566101074 0.247276172041893 0.009486165829002857 0.07058823853731155 0.07450980693101883 0.04313725605607033
0.6539409160614014 0.32622769474983215 0.992094874382019 0.9215686321258545 0.9254902005195618 0.9450980424880981
0.7004926204681396 0.27490919828414917 0.2960474193096161 0.4941176474094391 0.501960813999176 0.4901960790157318
0.6482758522033691 0.32022738456726074 0.2968379557132721 0.45098039507865906 0.48627451062202454 0.4745098054409027
0.6209359765052795 0.33807042241096497 0.9889327883720398 0.27450981736183167 0.2549019753932953 0.23137255012989044
0.7628079056739807 0.3532291054725647 0.3110671937465668 0.47843137383461 0.5254902243614197 0.5254902243614197
0.8088669776916504 0.3139112591743469 0.005928853526711464 0.5058823823928833 0.5215686559677124 0.4627451002597809
0.8470443487167358 0.3334912359714508 0.006719367578625679 0.501960813999176 0.4901960790157318 0.42352941632270813
0.7763546705245972 0.34912362694740295 0.9928853511810303 0.3921568691730499 0.38823530077934265 0.37254902720451355
0.6977832317352295 0.27143535017967224 0.9905138611793518 0.9333333373069763 0.9529411792755127 0.9764705896377563
0.7108374238014221 0.2959102988243103 0.2920948565006256 0.48235294222831726 0.501960813999176 0.4745098054409027
0.7039408683776855 0.33475446701049805 0.17075099050998688 0.06666667014360428 0.062745101749897 0.054901961237192154
0.8551723957061768 0.3080688416957855 0.991304337978363 0.4000000059604645 0.3921568691730499 0.3450980484485626
0.623399019241333 0.2793304920196533 0.005928853526711464 0.18431372940540314 0.18431372940540314 0.14509804546833038
0.6645320057868958 0.3822832703590393 0.004743082914501429 0.3803921639919281 0.40784314274787903 0.3450980484485626
0.7349753975868225 0.2725406587123871 0.007509881630539894 0.24705882370471954 0.2235294133424759 0.16862745583057404
0.687438428401947 0.3483341336250305 0.006719367578625679 0.4588235318660736 0.47843137383461 0.38823530077934265
0.8327586054801941 0.3788094222545624 0.9905138611793518 0.38823530077934265 0.3764705955982208 0.35686275362968445
0.6179803013801575 0.33475446701049805 0.9897233247756958 0.43921568989753723 0.4156862795352936 0.4156862795352936
0.7155172228813171 0.2820148468017578 0.2956521809101105 0.48627451062202454 0.5098039507865906 0.47058823704719543
0.7320197224617004 0.24869729578495026 0.992094874382019 1.0 1.0 1.0
0.8241379261016846 0.3909679353237152 0.005928853526711464 0.6078431606292725 0.6000000238418579 0.5176470875740051
0.6783251166343689 0.26543501019477844 0.9901185631752014 0.9647058844566345 0.9843137264251709 0.9960784316062927
0.7359606027603149 0.3507026731967926 0.9932806491851807 0.4156862795352936 0.4117647111415863 0.3921568691730499
0.8270936012268066 0.36365070939064026 0.005928853526711464 0.6666666865348816 0.6549019813537598 0.5882353186607361
0.6315270662307739 0.3699668347835541 0.29881423711776733 0.6392157077789307 0.6431372761726379 0.6509804129600525
0.6578817963600159 0.2878572642803192 0.2956521809101105 0.501960813999176 0.5137255191802979 0.48627451062202454
0.6167487502098083 0.38686245679855347 0.9893280863761902 0.35686275362968445 0.3490196168422699 0.3529411852359772
0.7960591316223145 0.3071214258670807 0.0063241105526685715 0.3333333432674408 0.3450980484485626 0.27843138575553894
0.6258620619773865 0.30854254961013794 0.005138339940458536 0.054901961237192154 0.05098039284348488 0.03529411926865578
0.7583743929862976 0.31185850501060486 0.0071146246045827866 0.25882354378700256 0.24313725531101227 0.19607843458652496
0.7559113502502441 0.3878098726272583 0.0063241105526685715 0.29019609093666077 0.27450981736183167 0.22745098173618317
0.7268472909927368 0.24601294100284576 0.9916995763778687 1.0 1.0 1.0
0.6903941035270691 0.2952786982059479 0.29367589950561523 0.47058823704719543 0.4941176474094391 0.45490196347236633
0.6778324842453003 0.29448917508125305 0.006719367578625679 0.24313725531101227 0.250980406999588 0.2078431397676468
0.6554186940193176 0.35433444380760193 0.29881423711776733 0.6313725709915161 0.6470588445663452 0.6509804129600525
0.7110837697982788 0.3022264242172241 0.9924901127815247 1.0 1.0 1.0
0.7559113502502441 0.38149377703666687 0.29841896891593933 0.12941177189350128 0.125490203499794 0.10980392247438431
0.6615763306617737 0.3211748003959656 0.9936758875846863 0.929411768913269 0.9411764740943909 0.9607843160629272
0.7714285850524902 0.30333176255226135 0.9936758875846863 0.32156863808631897 0.3176470696926117 0.30980393290519714
0.7051724195480347 0.32591187953948975 0.29881423711776733 0.47058823704719543 0.4745098054409027 0.48235294222831726
0.6637930870056152 0.35733458399772644 0.29920947551727295 0.6392157077789307 0.6627451181411743 0.6627451181411743
0.7068965435028076 0.3154902756214142 0.2956521809101105 0.4470588266849518 0.48235294222831726 0.4627451002597809
0.8399015069007874 0.367440402507782 0.9905138611793518 0.35686275362968445 0.3450980484485626 0.3176470696926117
0.6714285612106323 0.29133111238479614 0.9916995763778687 0.9764705896377563 0.9921568632125854 0.9960784316062927
0.8359605669975281 0.36049264669418335 0.0063241105526685715 0.658823549747467 0.6470588445663452 0.572549045085907
0.7448275685310364 0.3499131500720978 0.19565217196941376 0.0941176488995552 0.0941176488995552 0.08627451211214066
0.6445812582969666 0.34596556425094604 0.004347825888544321 0.37254902720451355 0.3803921639919281 0.33725491166114807
0.6650246381759644 0.24538134038448334 0.2956521809101105 0.45098039507865906 0.48235294222831726 0.43921568989753723
0.6532019972801208 0.30364754796028137 0.005533596966415644 0.22745098173618317 0.2235294133424759 0.20392157137393951
0.6847290396690369 0.3426496088504791 0.17549407482147217 0.05882352963089943 0.05882352963089943 0.05882352963089943
0.8342364430427551 0.3628612160682678 0.9909090995788574 0.4000000059604645 0.38823530077934265 0.3686274588108063
0.743596076965332 0.33175429701805115 0.1774703562259674 0.0941176488995552 0.0784313753247261 0.07450980693101883
0.7987684607505798 0.27980419993400574 0.9928853511810303 0.27843138575553894 0.27450981736183167 0.2549019753932953
0.6798029541969299 0.3585978150367737 0.005928853526711464 0.4431372582912445 0.4313725531101227 0.3960784375667572
0.7229064106941223 0.2990683615207672 0.2924901247024536 0.501960813999176 0.529411792755127 0.49803921580314636
0.665517270565033 0.3873361647129059 0.29960474371910095 0.6235294342041016 0.6313725709915161 0.6196078658103943
0.75935959815979 0.29212063550949097 0.007509881630539894 0.21176470816135406 0.21568627655506134 0.15294118225574493
0.6428571343421936 0.2753829061985016 0.0063241105526685715 0.16470588743686676 0.16470588743686676 0.11764705926179886
0.7458128333091736 0.35717669129371643 0.25138339400291443 0.1568627506494522 0.16078431904315948 0.1411764770746231
0.732758641242981 0.2638559937477112 0.0071146246045827866 0.27450981736183167 0.25882354378700256 0.21176470816135406
0.796798050403595 0.3192799687385559 0.9928853511810303 0.40392157435417175 0.3843137323856354 0.3686274588108063
0.7458128333091736 0.2899099886417389 0.007509881630539894 0.30980393290519714 0.2862745225429535 0.239215686917305
0.7490147948265076 0.3440707325935364 0.0063241105526685715 0.32156863808631897 0.3137255012989044 0.2666666805744171
0.6214285492897034 0.27696195244789124 0.18300394713878632 0.08235294371843338 0.08627451211214066 0.0941176488995552
0.75 0.3848097324371338 0.291304349899292 0.11764705926179886 0.125490203499794 0.11372549086809158
0.8379310369491577 0.25090792775154114 0.006719367578625679 0.5411764979362488 0.5490196347236633 0.46666666865348816
0.7997536659240723 0.38954681158065796 0.005928853526711464 0.5764706134796143 0.5568627715110779 0.48235294222831726
0.620197057723999 0.305226594209671 0.29486167430877686 0.5607843399047852 0.5803921818733215 0.6039215922355652
0.7926108241081238 0.23701247572898865 0.006719367578625679 0.6000000238418579 0.6039215922355652 0.48235294222831726
0.7162561416625977 0.3279646337032318 0.9932806491851807 0.8980392217636108 0.9215686321258545 0.9215686321258545
0.6830049157142639 0.3931785821914673 0.005533596966415644 0.4588235318660736 0.46666666865348816 0.4470588266849518
0.6192117929458618 0.3101215958595276 0.9932806491851807 0.9960784316062927 1.0 1.0
0.6652709245681763 0.31454285979270935 0.2964426875114441 0.4627451002597809 0.48627451062202454 0.47843137383461
0.623399019241333 0.2586452066898346 0.005928853526711464 0.1882352977991104 0.1764705926179886 0.1411764770746231
0.6435960531234741 0.2588030993938446 0.2956521809101105 0.47843137383461 0.4901960790157318 0.4627451002597809
0.823399007320404 0.27506712079048157 0.992094874382019 0.3333333432674408 0.32156863808631897 0.29411765933036804
0.7401477694511414 0.3854413330554962 0.14822134375572205 0.05098039284348488 0.05098039284348488 0.05098039284348488
0.6492610573768616 0.3704405426979065 0.003952569328248501 0.3686274588108063 0.37254902720451355 0.30980393290519714
0.7527093887329102 0.2839096784591675 0.007509881630539894 0.21176470816135406 0.19607843458652496 0.14901961386203766
0.6864532232284546 0.2382756918668747 0.9885375499725342 0.9647058844566345 0.9803921580314636 0.9921568632125854
0.756403923034668 0.30096322298049927 0.9940711259841919 0.27843138575553894 0.26274511218070984 0.250980406999588
0.8399015069007874 0.26890888810157776 0.0063241105526685715 0.6352941393852234 0.6509804129600525 0.5607843399047852
0.8485221862792969 0.27948838472366333 0.0063241105526685715 0.501960813999176 0.5137255191802979 0.4313725531101227
0.6992610692977905 0.36317700147628784 0.17549407482147217 0.18039216101169586 0.1725490242242813 0.1764705926179886
0.6640394330024719 0.31722721457481384 0.005928853526711464 0.1882352977991104 0.1921568661928177 0.16078431904315948
0.6751231551170349 0.3447023630142212 0.29881423711776733 0.5882353186607361 0.6117647290229797 0.5960784554481506
0.7366995215415955 0.3240170478820801 0.9940711259841919 0.843137264251709 0.8823529481887817 0.9176470637321472
0.8229063749313354 0.3480183184146881 0.005928853526711464 0.6666666865348816 0.6549019813537598 0.6274510025978088
0.8364531993865967 0.2870677411556244 0.992094874382019 0.3333333432674408 0.32156863808631897 0.29411765933036804
0.6832512021064758 0.3704405426979065 0.1770751029253006 0.05098039284348488 0.05882352963089943 0.054901961237192154
0.6165024638175964 0.32906994223594666 0.9885375499725342 0.8588235378265381 0.8941176533699036 0.9215686321258545
0.6352216601371765 0.36033475399017334 0.0035573123022913933 0.3019607961177826 0.3019607961177826 0.26274511218070984
0.7128078937530518 0.34943944215774536 0.1608695685863495 0.05882352963089943 0.05882352963089943 0.05882352963089943
0.6179803013801575 0.2908574044704437 0.005533596966415644 0.15294118225574493 0.1411764770746231 0.11372549086809158
0.6231527328491211 0.34343913197517395 0.0035573123022913933 0.23529411852359772 0.23529411852359772 0.20392157137393951
0.6605911254882812 0.30348965525627136 0.29407113790512085 0.49803921580314636 0.5176470875740051 0.4901960790157318
0.8036946058273315 0.3308068811893463 0.005928853526711464 0.5176470875740051 0.529411792755127 0.4627451002597809
0.8386699557304382 0.2960682213306427 0.0063241105526685715 0.45490196347236633 0.46666666865348816 0.3843137323856354
0.7938423752784729 0.33491235971450806 0.005928853526711464 0.529411792755127 0.501960813999176 0.4313725531101227
0.7938423752784729 0.3331754207611084 0.005928853526711464 0.4588235318660736 0.4313725531101227 0.35686275362968445
0.7778325080871582 0.2551713287830353 0.9932806491851807 0.27450981736183167 0.2823529541492462 0.27843138575553894
0.6613300442695618 0.38038843870162964 0.004347825888544321 0.4588235318660736 0.4901960790157318 0.4313725531101227
0.7182266116142273 0.3585978150367737 0.006719367578625679 0.062745101749897 0.06666667014360428 0.04313725605607033
0.7315270900726318 0.37265118956565857 0.9924901127815247 0.4117647111415863 0.3960784375667572 0.3843137323856354
0.6408867239952087 0.3109110891819 0.005138339940458536 0.20392157137393951 0.2078431397676468 0.18431372940540314
0.7472906112670898 0.2900679111480713 0.291304349899292 0.48627451062202454 0.5137255191802979 0.48235294222831726
0.7155172228813171 0.3385441303253174 0.1664031594991684 0.04313725605607033 0.05882352963089943 0.07058823853731155
0.6253694295883179 0.24885520339012146 0.29525691270828247 0.4941176474094391 0.49803921580314636 0.4745098054409027
0.6322659850120544 0.3448602557182312 0.0035573123022913933 0.25882354378700256 0.2666666805744171 0.2235294133424759
0.6549261212348938 0.2693825960159302 0.15810276567935944 0.07058823853731155 0.0784313753247261 0.07450980693101883
0.6682265996932983 0.3671245872974396 0.29960474371910095 0.6431372761726379 0.6627451181411743 0.6745098233222961
0.8278325200080872 0.32670140266418457 0.992094874382019 0.3960784375667572 0.3960784375667572 0.364705890417099
0.7261083722114563 0.28612032532691956 0.29407113790512085 0.47843137383461 0.49803921580314636 0.48235294222831726
0.7125615477561951 0.29701563715934753 0.007905138656497002 0.1568627506494522 0.14901961386203766 0.09803921729326248
0.7357142567634583 0.38338860869407654 0.208695650100708 0.13333334028720856 0.13333334028720856 0.125490203499794
0.7844827771186829 0.2616453468799591 0.0071146246045827866 0.42352941632270813 0.4274509847164154 0.30588236451148987
0.6229063868522644 0.29780516028404236 0.005533596966415644 0.14901961386203766 0.13725490868091583 0.10980392247438431
0.743596076965332 0.3848097324371338 0.2656126618385315 0.12941177189350128 0.12941177189350128 0.12156862765550613
0.6950739026069641 0.2851729094982147 0.2960474193096161 0.4941176474094391 0.5058823823928833 0.47058823704719543
0.7209359407424927 0.3829149007797241 0.29960474371910095 0.6235294342041016 0.6431372761726379 0.6274510025978088
0.6362069249153137 0.351018488407135 0.29802370071411133 0.6117647290229797 0.6274510025978088 0.6235294342041016
0.7283251285552979 0.3707563579082489 0.9924901127815247 0.4117647111415863 0.3960784375667572 0.3843137323856354
0.618719220161438 0.24538134038448334 0.29525691270828247 0.49803921580314636 0.5215686559677124 0.48235294222831726
0.7007389068603516 0.33254382014274597 0.1719367653131485 0.062745101749897 0.062745101749897 0.054901961237192154
0.8007389307022095 0.38117796182632446 0.9909090995788574 0.40392157435417175 0.3921568691730499 0.364705890417099
0.6820197105407715 0.27506712079048157 0.9909090995788574 0.9607843160629272 0.9803921580314636 0.9921568632125854
0.6815270781517029 0.36980894207954407 0.9909090995788574 0.3960784375667572 0.3960784375667572 0.40392157435417175
0.6662561297416687 0.25106585025787354 0.9893280863761902 0.9529411792755127 0.9725490212440491 0.9882352948188782
0.6182265877723694 0.24601294100284576 0.29525691270828247 0.49803921580314636 0.5215686559677124 0.48235294222831726
0.6160098314285278 0.3765987753868103 0.005138339940458536 0.250980406999588 0.239215686917305 0.20392157137393951
0.6857143044471741 0.3769145607948303 0.29960474371910095 0.6313725709915161 0.6352941393852234 0.6431372761726379
0.748275876045227 0.367598295211792 0.1766798347234726 0.11764705926179886 0.125490203499794 0.12156862765550613
0.6581280827522278 0.23953892290592194 0.9897233247756958 0.9176470637321472 0.9450980424880981 0.9764705896377563
0.7334975600242615 0.33759671449661255 0.9932806491851807 0.42352941632270813 0.42352941632270813 0.4156862795352936
0.617241382598877 0.3797568380832672 0.9889327883720398 0.37254902720451355 0.3686274588108063 0.3607843220233917
0.7147783041000366 0.24774987995624542 0.2964426875114441 0.46666666865348816 0.48627451062202454 0.4627451002597809
0.7450739145278931 0.3715458810329437 0.14584980905056 0.07058823853731155 0.06666667014360428 0.05882352963089943
0.814039409160614 0.3453339636325836 0.992094874382019 0.3921568691730499 0.3764705955982208 0.34117648005485535
0.7298029661178589 0.34864991903305054 0.20434781908988953 0.20392157137393951 0.20392157137393951 0.21176470816135406
0.7679802775382996 0.316121906042099 0.9936758875846863 0.18431372940540314 0.16470588743686676 0.1882352977991104
0.6440886855125427 0.31422707438468933 0.004743082914501429 0.20392157137393951 0.20392157137393951 0.1568627506494522
0.7805418968200684 0.327017217874527 0.9932806491851807 0.32156863808631897 0.32156863808631897 0.3294117748737335
0.7911329865455627 0.3423337936401367 0.9924901127815247 0.43529412150382996 0.43529412150382996 0.40392157435417175
0.7061576247215271 0.3538607358932495 0.0071146246045827866 0.4117647111415863 0.4274509847164154 0.37254902720451355
0.8453202247619629 0.24901311099529266 0.006719367578625679 0.5372549295425415 0.5529412031173706 0.45490196347236633
0.7093595862388611 0.3398073613643646 0.29960474371910095 0.4901960790157318 0.5333333611488342 0.5176470875740051
0.7256157398223877 0.25359228253364563 0.9916995763778687 0.9725490212440491 0.9882352948188782 0.9921568632125854
0.7211822867393494 0.3652297556400299 0.15691699087619781 0.06666667014360428 0.07450980693101883 0.07058823853731155
0.8258620500564575 0.3702826499938965 0.9905138611793518 0.3921568691730499 0.3803921639919281 0.3607843220233917
0.7458128333091736 0.35843992233276367 0.19130434095859528 0.06666667014360428 0.06666667014360428 0.05882352963089943
0.6507388949394226 0.2504342198371887 0.0063241105526685715 0.2549019753932953 0.25882354378700256 0.19607843458652496
0.7211822867393494 0.3015948235988617 0.007905138656497002 0.23137255012989044 0.2235294133424759 0.1725490242242813
0.7199507355690002 0.305226594209671 0.9928853511810303 1.0 1.0 1.0
0.7460591197013855 0.38023054599761963 0.992094874382019 0.38823530077934265 0.3843137323856354 0.3686274588108063
0.7477832436561584 0.3443865478038788 0.9932806491851807 0.3803921639919281 0.3843137323856354 0.364705890417099
0.7490147948265076 0.24538134038448334 0.9936758875846863 0.5882353186607361 0.6078431606292725 0.6313725709915161
0.8039408922195435 0.2816990315914154 0.9928853511810303 0.3137255012989044 0.30980393290519714 0.29019609093666077
0.7068965435028076 0.37549343705177307 0.16047431528568268 0.06666667014360428 0.06666667014360428 0.06666667014360428
0.6216748952865601 0.3357018828392029 0.2972331941127777 0.5764706134796143 0.5960784554481506 0.6078431606292725
0.7800492644309998 0.2635401785373688 0.0071146246045827866 0.38823530077934265 0.3843137323856354 0.30588236451148987
0.7844827771186829 0.30538448691368103 0.9932806491851807 0.29411765933036804 0.29019609093666077 0.2823529541492462
0.8086206912994385 0.2873835563659668 0.0063241105526685715 0.6313725709915161 0.6470588445663452 0.5568627715110779
0.7411330342292786 0.33996525406837463 0.006719367578625679 0.250980406999588 0.250980406999588 0.21176470816135406
0.8224138021469116 0.3737565279006958 0.9905138611793518 0.4156862795352936 0.4000000059604645 0.38823530077934265
0.8527093529701233 0.3184904456138611 0.991304337978363 0.4000000059604645 0.38823530077934265 0.3529411852359772
0.6847290396690369 0.3849676251411438 0.005533596966415644 0.06666667014360428 0.07058823853731155 0.03921568766236305
0.7960591316223145 0.2635401785373688 0.9928853511810303 0.29411765933036804 0.2980392277240753 0.27450981736183167
0.8467980027198792 0.3854413330554962 0.9905138611793518 0.4000000059604645 0.38823530077934265 0.3686274588108063
0.7933497428894043 0.2730143666267395 0.9928853511810303 0.2666666805744171 0.26274511218070984 0.24705882370471954
0.7411330342292786 0.3792831301689148 0.2031620591878891 0.26274511218070984 0.25882354378700256 0.250980406999588
0.7426108121871948 0.3396494686603546 0.14743083715438843 0.14509804546833038 0.05882352963089943 0.06666667014360428
0.7633004784584045 0.2469603717327118 0.29328063130378723 0.1568627506494522 0.1568627506494522 0.10980392247438431
0.8017241358757019 0.3183325529098511 0.9928853511810303 0.3960784375667572 0.3960784375667572 0.364705890417099
0.6640394330024719 0.38149377703666687 0.29960474371910095 0.6313725709915161 0.6392157077789307 0.6352941393852234
0.634482741355896 0.31722721457481384 0.004743082914501429 0.239215686917305 0.239215686917305 0.1921568661928177
0.7497537136077881 0.2780672609806061 0.9936758875846863 0.3333333432674408 0.3607843220233917 0.3921568691730499
0.7800492644309998 0.37249329686164856 0.9916995763778687 0.3764705955982208 0.3764705955982208 0.3450980484485626
0.6253694295883179 0.3540186285972595 0.29802370071411133 0.6117647290229797 0.6274510025978088 0.6392157077789307
0.6881773471832275 0.2412758618593216 0.00830039568245411 0.32156863808631897 0.30980393290519714 0.2823529541492462
0.7475369572639465 0.3080688416957855 0.29367589950561523 0.5176470875740051 0.5529412031173706 0.5333333611488342
0.6857143044471741 0.3769145607948303 0.29960474371910095 0.6313725709915161 0.6352941393852234 0.6431372761726379
0.6396551728248596 0.38670456409454346 0.005533596966415644 0.2549019753932953 0.2549019753932953 0.2078431397676468
0.7206896543502808 0.3819674849510193 0.1766798347234726 0.03921568766236305 0.04313725605607033 0.05098039284348488
0.748275876045227 0.31170061230659485 0.007509881630539894 0.19607843458652496 0.18039216101169586 0.14509804546833038
0.7113300561904907 0.2761724293231964 0.2960474193096161 0.48235294222831726 0.501960813999176 0.4745098054409027
0.6679803133010864 0.24048633873462677 0.9889327883720398 0.9450980424880981 0.9647058844566345 0.9803921580314636
0.7825123071670532 0.3848097324371338 0.0063241105526685715 0.30980393290519714 0.32156863808631897 0.2549019753932953
