0.4448275864124298 0.7467235326766968 0.9905138611793518 0.3137255012989044 0.3137255012989044 0.2823529541492462
0.27266010642051697 0.6894047260284424 0.00830039568245411 0.6313725709915161 0.6627451181411743 0.572549045085907
0.48152709007263184 0.7587241530418396 0.003952569328248501 0.3333333432674408 0.3333333432674408 0.2862745225429535
0.3522167503833771 0.6785094141960144 0.2292490154504776 0.13333334028720856 0.13333334028720856 0.125490203499794
0.24827586114406586 0.70203697681427 0.007905138656497002 0.5490196347236633 0.5568627715110779 0.4745098054409027
0.2770935893058777 0.6922469735145569 0.00830039568245411 0.6235294342041016 0.6431372761726379 0.5529412031173706
0.4766009747982025 0.7718300819396973 0.9901185631752014 0.2980392277240753 0.30980393290519714 0.2823529541492462
0.2647783160209656 0.751776397228241 0.007905138656497002 0.5529412031173706 0.545098066329956 0.4470588266849518
0.26773399114608765 0.6876677870750427 0.007905138656497002 0.5686274766921997 0.5490196347236633 0.47058823704719543
0.3502463102340698 0.7809884548187256 0.2972331941127777 0.5686274766921997 0.5960784554481506 0.6196078658103943
0.4036945700645447 0.7603031992912292 0.2964426875114441 0.5568627715110779 0.5882353186607361 0.5960784554481506
0.3482758700847626 0.6330333352088928 0.18339921534061432 0.21960784494876862 0.22745098173618317 0.2235294133424759
0.4687192142009735 0.7554081678390503 0.0031620552763342857 0.239215686917305 0.2549019753932953 0.20000000298023224
0.4798029661178589 0.6701405048370361 0.9909090995788574 0.32549020648002625 0.3294117748737335 0.30588236451148987
0.277339905500412 0.6469287872314453 0.9976284503936768 0.9960784316062927 0.9960784316062927 0.9960784316062927
0.48669952154159546 0.7656718492507935 0.9901185631752014 0.34117648005485535 0.32549020648002625 0.3137255012989044
0.39827585220336914 0.7669351100921631 0.0071146246045827866 0.239215686917305 0.23137255012989044 0.18431372940540314
0.4330049157142639 0.691299557685852 0.29920947551727295 0.47058823704719543 0.4941176474094391 0.4941176474094391
0.43916255235671997 0.7554081678390503 0.9905138611793518 0.30588236451148987 0.3137255012989044 0.2705882489681244
0.3775862157344818 0.6633507013320923 0.2964426875114441 0.47058823704719543 0.4941176474094391 0.48627451062202454
0.24852216243743896 0.649139404296875 0.9972332119941711 0.9960784316062927 1.0 1.0
0.4490147829055786 0.7730933427810669 0.9901185631752014 0.33725491166114807 0.3333333432674408 0.3176470696926117
0.3534482717514038 0.6837201714515686 0.24387352168560028 0.10588235408067703 0.10588235408067703 0.09803921729326248
0.25541871786117554 0.7734091281890869 0.00830039568245411 0.49803921580314636 0.4901960790157318 0.40784314274787903
0.39162561297416687 0.7533554434776306 0.9905138611793518 0.32549020648002625 0.32549020648002625 0.2862745225429535
0.43152710795402527 0.7314069271087646 0.0035573123022913933 0.3019607961177826 0.3019607961177826 0.26274511218070984
0.317241370677948 0.7064582109451294 0.00909090880304575 0.4117647111415863 0.40784314274787903 0.3294117748737335
0.3699507415294647 0.6475604176521301 0.006719367578625679 0.3450980484485626 0.3490196168422699 0.29411765933036804
0.2982758581638336 0.7397757768630981 0.007905138656497002 0.5529412031173706 0.545098066329956 0.4470588266849518
0.29482758045196533 0.6821411848068237 0.007905138656497002 0.6274510025978088 0.658823549747467 0.5686274766921997
0.43078818917274475 0.6829307079315186 0.9909090995788574 0.3137255012989044 0.3176470696926117 0.2862745225429535
0.4093596041202545 0.7513027191162109 0.9905138611793518 0.30588236451148987 0.3019607961177826 0.2823529541492462
0.4411329925060272 0.6800884008407593 0.1822134405374527 0.04313725605607033 0.04313725605607033 0.04313725605607033
0.24679802358150482 0.7015632390975952 0.007905138656497002 0.6000000238418579 0.6078431606292725 0.5254902243614197
0.40295565128326416 0.734880805015564 0.9905138611793518 0.3294117748737335 0.3333333432674408 0.3019607961177826
0.34704434871673584 0.6856150031089783 0.28300395607948303 0.08627451211214066 0.08627451211214066 0.0784313753247261
0.3300492465496063 0.7015632390975952 0.29407113790512085 0.09019608050584793 0.09019608050584793 0.08235294371843338
0.3261083662509918 0.7839886546134949 0.9909090995788574 0.4156862795352936 0.40784314274787903 0.4117647111415863
0.46576353907585144 0.724301278591156 0.2960474193096161 0.48627451062202454 0.501960813999176 0.5058823823928833
0.31083744764328003 0.7424601316452026 0.007905138656497002 0.32549020648002625 0.3333333432674408 0.239215686917305
0.26699507236480713 0.6976156830787659 0.007905138656497002 0.6509804129600525 0.6470588445663452 0.5647059082984924
0.36403942108154297 0.6507184505462646 0.006719367578625679 0.3686274588108063 0.364705890417099 0.29411765933036804
0.3280788064002991 0.6974577903747559 0.9909090995788574 0.3764705955982208 0.37254902720451355 0.364705890417099
0.4357142746448517 0.7200378775596619 0.0023715414572507143 0.27843138575553894 0.29019609093666077 0.26274511218070984
0.46625617146492004 0.762671709060669 0.9905138611793518 0.32549020648002625 0.32549020648002625 0.29411765933036804
0.48596060276031494 0.6984052062034607 0.0003952569095417857 0.42352941632270813 0.42352941632270813 0.3294117748737335
0.440640389919281 0.7816200852394104 0.2960474193096161 0.5607843399047852 0.6000000238418579 0.6039215922355652
0.4330049157142639 0.7538291215896606 0.9905138611793518 0.3137255012989044 0.30980393290519714 0.29019609093666077
0.3362068831920624 0.7067740559577942 0.2960474193096161 0.48235294222831726 0.5215686559677124 0.5254902243614197
0.4807881712913513 0.6573503613471985 0.991304337978363 0.3333333432674408 0.3333333432674408 0.3019607961177826
0.4157635569572449 0.6418758630752563 0.17944663763046265 0.05882352963089943 0.05882352963089943 0.05882352963089943
0.3997536897659302 0.7004579305648804 0.007509881630539894 0.1882352977991104 0.1882352977991104 0.1411764770746231
0.4413793087005615 0.6999841928482056 0.9909090995788574 0.3137255012989044 0.3176470696926117 0.2862745225429535
0.460098534822464 0.7141954898834229 0.9909090995788574 0.26274511218070984 0.26274511218070984 0.23137255012989044
0.4004926085472107 0.6936680674552917 0.9909090995788574 0.32549020648002625 0.3294117748737335 0.2980392277240753
0.46280789375305176 0.70203697681427 0.0019762846641242504 0.14509804546833038 0.14509804546833038 0.15294118225574493
0.2778325080871582 0.7768830060958862 0.9928853511810303 0.9411764740943909 0.95686274766922 0.9607843160629272
0.35935959219932556 0.7337754368782043 0.01462450623512268 0.16078431904315948 0.1568627506494522 0.13725490868091583
0.41822659969329834 0.6456655859947205 0.991304337978363 0.3137255012989044 0.3137255012989044 0.2823529541492462
0.4450739026069641 0.7115111351013184 0.9909090995788574 0.3176470696926117 0.3176470696926117 0.27843138575553894
0.4839901626110077 0.7277751564979553 0.0031620552763342857 0.0235294122248888 0.019607843831181526 0.0
0.26773399114608765 0.7484604716300964 0.007905138656497002 0.5215686559677124 0.5137255191802979 0.42352941632270813
0.278817743062973 0.6549818515777588 0.007905138656497002 0.6509804129600525 0.6627451181411743 0.5960784554481506
0.41059112548828125 0.7168798446655273 0.005138339940458536 0.3176470696926117 0.3176470696926117 0.27843138575553894
0.3263546824455261 0.7093005180358887 0.9909090995788574 0.3960784375667572 0.40392157435417175 0.3921568691730499
0.3017241358757019 0.6864045262336731 0.992094874382019 0.7882353067398071 0.8196078538894653 0.8705882430076599
0.44261083006858826 0.6998263001441956 0.9909090995788574 0.3176470696926117 0.32156863808631897 0.29019609093666077
0.34458127617836 0.6568766832351685 0.2545454502105713 0.11372549086809158 0.11372549086809158 0.10588235408067703
0.25123152136802673 0.7430917620658875 0.007905138656497002 0.4745098054409027 0.47058823704719543 0.4000000059604645
0.39187192916870117 0.6358755826950073 0.1723320186138153 0.04313725605607033 0.04313725605607033 0.04313725605607033
0.30714285373687744 0.735354483127594 0.2964426875114441 0.7137255072593689 0.7607843279838562 0.7450980544090271
0.4197044372558594 0.7748302817344666 0.16561265289783478 0.05098039284348488 0.05098039284348488 0.05098039284348488
0.2665024697780609 0.7176693677902222 0.007905138656497002 0.6196078658103943 0.5921568870544434 0.5176470875740051
0.3325123190879822 0.6393494606018066 0.991304337978363 0.32549020648002625 0.3294117748737335 0.30588236451148987
0.41133004426956177 0.7476709485054016 0.005138339940458536 0.2862745225429535 0.29019609093666077 0.2666666805744171
0.39064040780067444 0.7855676412582397 0.9905138611793518 0.29411765933036804 0.29019609093666077 0.27450981736183167
0.4044334888458252 0.6650876402854919 0.1762845814228058 0.062745101749897 0.062745101749897 0.062745101749897
0.39187192916870117 0.6747197508811951 0.9909090995788574 0.34117648005485535 0.3529411852359772 0.3176470696926117
0.33472907543182373 0.6974577903747559 0.009486165829002857 0.0941176488995552 0.10196078568696976 0.09019608050584793
0.3568965494632721 0.7691457271575928 0.9905138611793518 0.33725491166114807 0.3333333432674408 0.3137255012989044
0.4411329925060272 0.6867203712463379 0.29960474371910095 0.4901960790157318 0.4941176474094391 0.5098039507865906
0.48300492763519287 0.7423022389411926 0.0031620552763342857 0.24313725531101227 0.24313725531101227 0.19607843458652496
0.2694581151008606 0.7258803248405457 0.9944664239883423 0.9843137264251709 1.0 1.0
0.35837438702583313 0.6333491206169128 0.007905138656497002 0.5333333611488342 0.529411792755127 0.41960784792900085
0.38275861740112305 0.6663508415222168 0.1723320186138153 0.0941176488995552 0.0941176488995552 0.0941176488995552
0.3534482717514038 0.6797726154327393 0.21739129722118378 0.12941177189350128 0.12941177189350128 0.12156862765550613
0.42561575770378113 0.7565134763717651 0.9905138611793518 0.30980393290519714 0.3137255012989044 0.2823529541492462
0.3421182334423065 0.7508289813995361 0.9905138611793518 0.3686274588108063 0.364705890417099 0.3450980484485626
0.32290640473365784 0.7595136761665344 0.2972331941127777 0.772549033164978 0.800000011920929 0.8235294222831726
0.27635467052459717 0.643454909324646 0.007509881630539894 0.6235294342041016 0.6196078658103943 0.5411764979362488
0.3482758700847626 0.6354018449783325 0.1928853690624237 0.16078431904315948 0.16078431904315948 0.16078431904315948
0.4522167444229126 0.7171956300735474 0.0019762846641242504 0.29411765933036804 0.2862745225429535 0.23529411852359772
0.2977832555770874 0.6467708945274353 0.007905138656497002 0.5960784554481506 0.5921568870544434 0.5137255191802979
0.4645320177078247 0.7697773575782776 0.004743082914501429 0.27450981736183167 0.26274511218070984 0.22745098173618317
0.3810344934463501 0.7108795046806335 0.2964426875114441 0.5254902243614197 0.5686274766921997 0.5764706134796143
0.33448275923728943 0.7718300819396973 0.2972331941127777 0.729411780834198 0.7529411911964417 0.7529411911964417
0.38620689511299133 0.7599873542785645 0.2968379557132721 0.5607843399047852 0.5882353186607361 0.6196078658103943
0.45763546228408813 0.7026685476303101 0.0023715414572507143 0.10588235408067703 0.10980392247438431 0.08627451211214066
0.30394089221954346 0.7209852933883667 0.007905138656497002 0.4431372582912445 0.46666666865348816 0.364705890417099
0.3502463102340698 0.7457761168479919 0.2972331941127777 0.6549019813537598 0.6901960968971252 0.6784313917160034
0.40714284777641296 0.6410863995552063 0.991304337978363 0.3294117748737335 0.32549020648002625 0.30588236451148987
0.253201961517334 0.7288804650306702 0.9940711259841919 0.9803921580314636 0.9843137264251709 1.0
0.41009852290153503 0.6423496007919312 0.006719367578625679 0.2823529541492462 0.27450981736183167 0.22745098173618317
0.34334975481033325 0.6900362968444824 0.00909090880304575 0.45098039507865906 0.43921568989753723 0.3019607961177826
0.31133005023002625 0.6551397442817688 0.00830039568245411 0.6235294342041016 0.5960784554481506 0.4941176474094391
0.3519704341888428 0.6619295477867126 0.20592884719371796 0.18431372940540314 0.1921568661928177 0.18039216101169586
0.27487683296203613 0.7456181645393372 0.9936758875846863 0.9647058844566345 0.9803921580314636 0.9921568632125854
0.44655171036720276 0.6870361566543579 0.0035573123022913933 0.2235294133424759 0.2235294133424759 0.1921568661928177
0.3022167384624481 0.7051950097084045 0.29446640610694885 0.4431372582912445 0.48627451062202454 0.47058823704719543
0.35566502809524536 0.6756671667098999 0.9909090995788574 0.32549020648002625 0.32156863808631897 0.3019607961177826
0.4650246202945709 0.7584083080291748 0.0035573123022913933 0.21960784494876862 0.22745098173618317 0.18431372940540314
0.2729063928127289 0.6355597376823425 0.007509881630539894 0.572549045085907 0.5764706134796143 0.5137255191802979
0.2970443367958069 0.7156165838241577 0.007905138656497002 0.4941176474094391 0.47058823704719543 0.3764705955982208
0.373399019241333 0.7711985111236572 0.9905138611793518 0.3607843220233917 0.35686275362968445 0.34117648005485535
0.30714285373687744 0.75746089220047 0.2972331941127777 0.8156862854957581 0.8470588326454163 0.8588235378265381
0.32290640473365784 0.7448287010192871 0.9905138611793518 0.42352941632270813 0.41960784792900085 0.4117647111415863
0.38768473267555237 0.7257224321365356 0.9909090995788574 0.34117648005485535 0.34117648005485535 0.30980393290519714
0.4800492525100708 0.7528817057609558 0.2960474193096161 0.4941176474094391 0.5176470875740051 0.5176470875740051
0.2509852349758148 0.6998263001441956 0.9940711259841919 0.9764705896377563 0.9803921580314636 0.9960784316062927
0.2985221743583679 0.7724617123603821 0.008695651777088642 0.45098039507865906 0.4431372582912445 0.3607843220233917
0.41059112548828125 0.7153007984161377 0.005138339940458536 0.25882354378700256 0.2705882489681244 0.24313725531101227
0.4802955687046051 0.6991946697235107 0.9909090995788574 0.32549020648002625 0.32549020648002625 0.29411765933036804
0.3285714387893677 0.7473551034927368 0.2972331941127777 0.7372549176216125 0.7764706015586853 0.7803921699523926
0.3130541741847992 0.649139404296875 0.991304337978363 0.41960784792900085 0.4156862795352936 0.43529412150382996
0.4802955687046051 0.7809884548187256 0.17470355331897736 0.05882352963089943 0.05882352963089943 0.05098039284348488
0.35517242550849915 0.6881414651870728 0.2541502118110657 0.0784313753247261 0.0784313753247261 0.07058823853731155
0.2738916277885437 0.7432496547698975 0.9936758875846863 0.9764705896377563 0.9803921580314636 0.9960784316062927
0.4485221803188324 0.7850939631462097 0.2960474193096161 0.5411764979362488 0.5882353186607361 0.5803921818733215
0.4480295479297638 0.7708826661109924 0.9901185631752014 0.2862745225429535 0.2823529541492462 0.2666666805744171
0.28719210624694824 0.7757776975631714 0.008695651777088642 0.47843137383461 0.4745098054409027 0.364705890417099
0.3362068831920624 0.6450339555740356 0.991304337978363 0.3294117748737335 0.3333333432674408 0.3137255012989044
0.42561575770378113 0.7749881744384766 0.0071146246045827866 0.16078431904315948 0.16078431904315948 0.12156862765550613
0.34753695130348206 0.6963524222373962 0.9909090995788574 0.35686275362968445 0.3607843220233917 0.33725491166114807
0.4842364490032196 0.6815095543861389 0.002766798483207822 0.35686275362968445 0.3490196168422699 0.29019609093666077
0.4285714328289032 0.6556134819984436 0.0063241105526685715 0.3686274588108063 0.35686275362968445 0.2980392277240753
0.3258620798587799 0.6906679272651672 0.9909090995788574 0.3764705955982208 0.3764705955982208 0.3686274588108063
0.2463054209947586 0.7631454467773438 0.007905138656497002 0.5411764979362488 0.5411764979362488 0.4470588266849518
0.41502463817596436 0.7754618525505066 0.9901185631752014 0.29411765933036804 0.29019609093666077 0.2705882489681244
0.38349753618240356 0.746249794960022 0.2968379557132721 0.5607843399047852 0.5960784554481506 0.6313725709915161
0.31847289204597473 0.7674087882041931 0.008695651777088642 0.3294117748737335 0.3294117748737335 0.21960784494876862
0.34729063510894775 0.681983232498169 0.008695651777088642 0.545098066329956 0.5568627715110779 0.43529412150382996
0.4884236454963684 0.740407407283783 0.2960474193096161 0.5098039507865906 0.5254902243614197 0.529411792755127
0.3416256010532379 0.6818253397941589 0.29328063130378723 0.0941176488995552 0.08627451211214066 0.09019608050584793
0.3362068831920624 0.7633033394813538 0.008695651777088642 0.23529411852359772 0.23529411852359772 0.20392157137393951
0.2655172348022461 0.6737722754478455 0.007905138656497002 0.5254902243614197 0.5333333611488342 0.4470588266849518
0.4517241418361664 0.7140375971794128 0.9909090995788574 0.3019607961177826 0.30588236451148987 0.27450981736183167
0.28029558062553406 0.7121427655220032 0.007905138656497002 0.5686274766921997 0.5764706134796143 0.4941176474094391
0.3248768448829651 0.6791409850120544 0.00830039568245411 0.5843137502670288 0.5882353186607361 0.45490196347236633
0.27142858505249023 0.6666666865348816 0.9964426755905151 0.9725490212440491 0.9764705896377563 0.9960784316062927
0.36256158351898193 0.6565608978271484 0.0071146246045827866 0.49803921580314636 0.48235294222831726 0.3843137323856354
0.36354678869247437 0.7879362106323242 0.9905138611793518 0.33725491166114807 0.33725491166114807 0.30588236451148987
0.3807881772518158 0.6516658663749695 0.0071146246045827866 0.21960784494876862 0.21176470816135406 0.16078431904315948
0.36724138259887695 0.7434075474739075 0.9905138611793518 0.34117648005485535 0.3450980484485626 0.32549020648002625
0.3266009986400604 0.6714037656784058 0.007905138656497002 0.48627451062202454 0.47843137383461 0.3803921639919281
0.48620688915252686 0.6695089340209961 0.3007905185222626 0.529411792755127 0.5372549295425415 0.5333333611488342
0.3889162540435791 0.6571924686431885 0.17272727191448212 0.08235294371843338 0.08235294371843338 0.08235294371843338
0.47487685084342957 0.762671709060669 0.0031620552763342857 0.37254902720451355 0.37254902720451355 0.3333333432674408
0.4125615656375885 0.7879362106323242 0.9901185631752014 0.3450980484485626 0.34117648005485535 0.32156863808631897
0.33965516090393066 0.6624032855033875 0.2853755056858063 0.0941176488995552 0.0941176488995552 0.08627451211214066
0.4608374238014221 0.6862466335296631 0.9909090995788574 0.30980393290519714 0.30980393290519714 0.27843138575553894
0.36650246381759644 0.7729353904724121 0.9905138611793518 0.3137255012989044 0.32549020648002625 0.2980392277240753
0.2970443367958069 0.7151429057121277 0.9932806491851807 1.0 1.0 1.0
0.47339901328086853 0.6650876402854919 0.991304337978363 0.33725491166114807 0.3333333432674408 0.3137255012989044
0.39532020688056946 0.718616783618927 0.0071146246045827866 0.23137255012989044 0.2235294133424759 0.1764705926179886
0.2825123071670532 0.6415600776672363 0.007509881630539894 0.49803921580314636 0.4941176474094391 0.4117647111415863
0.35049259662628174 0.6461392641067505 0.007509881630539894 0.5411764979362488 0.5411764979362488 0.4313725531101227
0.47906404733657837 0.7331438660621643 0.9905138611793518 0.30980393290519714 0.30980393290519714 0.2705882489681244
0.4669950604438782 0.7685141563415527 0.9901185631752014 0.2705882489681244 0.2666666805744171 0.24705882370471954
0.2896551787853241 0.659561038017273 0.007905138656497002 0.5098039507865906 0.5176470875740051 0.4313725531101227
0.32413792610168457 0.7340912818908691 0.9909090995788574 0.40392157435417175 0.40392157435417175 0.40392157435417175
0.24802955985069275 0.6679298877716064 0.9964426755905151 0.9843137264251709 0.9882352948188782 1.0
0.48596060276031494 0.7694615721702576 0.005533596966415644 0.23529411852359772 0.25882354378700256 0.21960784494876862
0.4677339792251587 0.7255644798278809 0.0019762846641242504 0.22745098173618317 0.23137255012989044 0.24705882370471954
0.39852216839790344 0.7102479338645935 0.2964426875114441 0.5411764979362488 0.572549045085907 0.5843137502670288
0.46576353907585144 0.7879362106323242 0.2960474193096161 0.49803921580314636 0.5372549295425415 0.5411764979362488
0.34704434871673584 0.7473551034927368 0.013833992183208466 0.08235294371843338 0.0784313753247261 0.062745101749897
0.35073891282081604 0.6639823317527771 0.3011857569217682 0.3686274588108063 0.3843137323856354 0.3803921639919281
0.35147783160209656 0.654350221157074 0.991304337978363 0.3176470696926117 0.3137255012989044 0.29411765933036804
0.3305418789386749 0.7321964502334595 0.9909090995788574 0.37254902720451355 0.37254902720451355 0.364705890417099
0.4849753677845001 0.696826159954071 0.9909090995788574 0.3176470696926117 0.32156863808631897 0.29019609093666077
0.4253694713115692 0.7880941033363342 0.2960474193096161 0.529411792755127 0.5686274766921997 0.572549045085907
0.36625614762306213 0.7787778377532959 0.008695651777088642 0.21568627655506134 0.2078431397676468 0.1568627506494522
0.42684727907180786 0.7593557834625244 0.9905138611793518 0.32549020648002625 0.3294117748737335 0.2980392277240753
0.43793103098869324 0.729827880859375 0.9905138611793518 0.33725491166114807 0.33725491166114807 0.30588236451148987
0.4364531934261322 0.6641402244567871 0.991304337978363 0.33725491166114807 0.33725491166114807 0.30588236451148987
0.4724137783050537 0.7051950097084045 0.0011857707286253572 0.29411765933036804 0.2980392277240753 0.24313725531101227
0.34408867359161377 0.653876543045044 0.17549407482147217 0.1568627506494522 0.16470588743686676 0.16078431904315948
0.4689655303955078 0.7625138163566589 0.0035573123022913933 0.32156863808631897 0.30980393290519714 0.27450981736183167
0.3369458019733429 0.665245532989502 0.313043475151062 0.239215686917305 0.25882354378700256 0.27450981736183167
0.3519704341888428 0.7794094681739807 0.01304347813129425 0.18431372940540314 0.1882352977991104 0.16862745583057404
0.3536945879459381 0.6641402244567871 0.007509881630539894 0.4588235318660736 0.4627451002597809 0.4000000059604645
0.4514778256416321 0.6778777837753296 0.003952569328248501 0.25882354378700256 0.25882354378700256 0.21960784494876862
0.44581282138824463 0.6603505611419678 0.991304337978363 0.3294117748737335 0.3333333432674408 0.3019607961177826
0.3300492465496063 0.7552502751350403 0.00830039568245411 0.25882354378700256 0.26274511218070984 0.20000000298023224
0.4194581210613251 0.7141954898834229 0.003952569328248501 0.03529411926865578 0.03529411926865578 0.04313725605607033
0.317241370677948 0.6737722754478455 0.991304337978363 0.37254902720451355 0.37254902720451355 0.3803921639919281
0.4886699616909027 0.6759829521179199 0.3011857569217682 0.5803921818733215 0.5803921818733215 0.572549045085907
0.3485221564769745 0.7863571643829346 0.009881422854959965 0.07450980693101883 0.0784313753247261 0.054901961237192154
0.4763546884059906 0.6612979769706726 0.991304337978363 0.3529411852359772 0.3607843220233917 0.3176470696926117
0.39113301038742065 0.6715616583824158 0.2972331941127777 0.46666666865348816 0.4901960790157318 0.4901960790157318
0.34433498978614807 0.7746723294258118 0.2972331941127777 0.6313725709915161 0.658823549747467 0.6823529601097107
0.2736453115940094 0.7631454467773438 0.9932806491851807 0.9725490212440491 0.9764705896377563 0.9843137264251709
0.4756157696247101 0.7768830060958862 0.2960474193096161 0.4745098054409027 0.5137255191802979 0.5176470875740051
0.4396551847457886 0.6530870199203491 0.18142291903495789 0.0470588244497776 0.0470588244497776 0.0470588244497776
0.40985220670700073 0.7631454467773438 0.9905138611793518 0.3176470696926117 0.32156863808631897 0.2980392277240753
0.368719220161438 0.6330333352088928 0.19881422817707062 0.07450980693101883 0.07450980693101883 0.06666667014360428
0.46206897497177124 0.7471972107887268 0.2960474193096161 0.5098039507865906 0.5411764979362488 0.5529412031173706
0.32290640473365784 0.6990367770195007 0.9909090995788574 0.4000000059604645 0.40784314274787903 0.3960784375667572
0.3137930929660797 0.6936680674552917 0.00909090880304575 0.6235294342041016 0.6078431606292725 0.47058823704719543
0.4248768389225006 0.6780356764793396 0.18023715913295746 0.054901961237192154 0.054901961237192154 0.054901961237192154
0.41921183466911316 0.632243812084198 0.2972331941127777 0.5411764979362488 0.5490196347236633 0.5960784554481506
0.25640395283699036 0.648823618888855 0.9976284503936768 1.0 1.0 1.0
0.34261083602905273 0.7786199450492859 0.009486165829002857 0.21176470816135406 0.19607843458652496 0.16078431904315948
0.49014776945114136 0.7498815655708313 0.003952569328248501 0.26274511218070984 0.250980406999588 0.21568627655506134
0.3285714387893677 0.7170377373695374 0.9909090995788574 0.3921568691730499 0.4117647111415863 0.3960784375667572
0.432758629322052 0.654192328453064 0.991304337978363 0.3176470696926117 0.3176470696926117 0.2862745225429535
0.378078818321228 0.7222485542297363 0.9909090995788574 0.3137255012989044 0.3137255012989044 0.2823529541492462
0.32290640473365784 0.740407407283783 0.2972331941127777 0.7215686440467834 0.7803921699523926 0.7607843279838562
0.35935959219932556 0.6366651058197021 0.2075098752975464 0.13333334028720856 0.15294118225574493 0.16470588743686676
0.4317733943462372 0.648981511592865 0.991304337978363 0.3450980484485626 0.3333333432674408 0.30588236451148987
0.2573891580104828 0.7794094681739807 0.9932806491851807 0.9490196108818054 0.9529411792755127 0.9686274528503418
0.40615764260292053 0.6721932888031006 0.9909090995788574 0.3333333432674408 0.33725491166114807 0.30588236451148987
0.3128078877925873 0.7715142965316772 0.2976284623146057 0.7960784435272217 0.8156862854957581 0.8392156958580017
0.3729064166545868 0.7279330492019653 0.2968379557132721 0.5529412031173706 0.5960784554481506 0.6196078658103943
0.32413792610168457 0.7269856333732605 0.2964426875114441 0.6196078658103943 0.6745098233222961 0.6784313917160034
0.3524630665779114 0.6815095543861389 0.24229249358177185 0.10588235408067703 0.10588235408067703 0.10588235408067703
0.3169950842857361 0.7582504153251648 0.2972331941127777 0.7960784435272217 0.8235294222831726 0.8470588326454163
0.3174876868724823 0.7051950097084045 0.00909090880304575 0.46666666865348816 0.43921568989753723 0.364705890417099
0.3963054120540619 0.7034580707550049 0.9909090995788574 0.3333333432674408 0.34117648005485535 0.2980392277240753
0.4805418848991394 0.7396178841590881 0.2960474193096161 0.49803921580314636 0.5137255191802979 0.5098039507865906
0.4236453175544739 0.638086199760437 0.2976284623146057 0.5411764979362488 0.5411764979362488 0.5803921818733215
0.32019704580307007 0.6508763432502747 0.00830039568245411 0.5372549295425415 0.5333333611488342 0.45098039507865906
0.4763546884059906 0.6881414651870728 0.9909090995788574 0.32156863808631897 0.3176470696926117 0.2980392277240753
0.36625614762306213 0.7097741961479187 0.009486165829002857 0.3019607961177826 0.30980393290519714 0.22745098173618317
0.2694581151008606 0.6841939091682434 0.00830039568245411 0.5607843399047852 0.5568627715110779 0.4745098054409027
0.34704434871673584 0.6341386437416077 0.00830039568245411 0.5764706134796143 0.5921568870544434 0.501960813999176
0.4652709364891052 0.7037738561630249 0.9909090995788574 0.32156863808631897 0.32156863808631897 0.2823529541492462
0.3418719172477722 0.7884098887443542 0.2968379557132721 0.5372549295425415 0.5686274766921997 0.5803921818733215
0.38793104887008667 0.7266698479652405 0.9909090995788574 0.34117648005485535 0.34117648005485535 0.30980393290519714
0.45098522305488586 0.7457761168479919 0.2960474193096161 0.5529412031173706 0.5843137502670288 0.5960784554481506
0.4596059024333954 0.7367756366729736 0.002766798483207822 0.30588236451148987 0.30588236451148987 0.27450981736183167
0.2729063928127289 0.7105637192726135 0.9940711259841919 0.9882352948188782 0.9921568632125854 1.0
0.309359610080719 0.6777198910713196 0.007905138656497002 0.6549019813537598 0.6549019813537598 0.545098066329956
0.3103448152542114 0.6516658663749695 0.991304337978363 0.3803921639919281 0.3803921639919281 0.41960784792900085
0.3522167503833771 0.6818253397941589 0.20948617160320282 0.16470588743686676 0.16470588743686676 0.125490203499794
0.39088669419288635 0.7531975507736206 0.2968379557132721 0.5607843399047852 0.6000000238418579 0.6078431606292725
0.4844827651977539 0.7836728096008301 0.2956521809101105 0.5176470875740051 0.5529412031173706 0.5411764979362488
0.2583743929862976 0.7876204252243042 0.008695651777088642 0.48235294222831726 0.48627451062202454 0.42352941632270813
0.4672413766384125 0.7282488346099854 0.0019762846641242504 0.239215686917305 0.2549019753932953 0.20000000298023224
0.34408867359161377 0.7614085078239441 0.9905138611793518 0.3607843220233917 0.364705890417099 0.34117648005485535
0.45837438106536865 0.7868309020996094 0.9901185631752014 0.29019609093666077 0.2862745225429535 0.2705882489681244
0.4201970398426056 0.6895626187324524 0.004347825888544321 0.24313725531101227 0.23529411852359772 0.1882352977991104
0.24778325855731964 0.7328280210494995 0.007905138656497002 0.5254902243614197 0.5568627715110779 0.46666666865348816
0.3697044253349304 0.75746089220047 0.9905138611793518 0.34117648005485535 0.3450980484485626 0.32549020648002625
0.2889162600040436 0.6606663465499878 0.9968379735946655 0.9450980424880981 0.95686274766922 0.9843137264251709
0.2980295419692993 0.7181430459022522 0.007905138656497002 0.49803921580314636 0.5137255191802979 0.42352941632270813
0.39852216839790344 0.6372966766357422 0.991304337978363 0.3294117748737335 0.32549020648002625 0.30588236451148987
0.4610837399959564 0.6635085940361023 0.29960474371910095 0.5098039507865906 0.5137255191802979 0.5215686559677124
0.43891626596450806 0.6527711749076843 0.0071146246045827866 0.3490196168422699 0.3333333432674408 0.2862745225429535
0.437438428401947 0.7418285012245178 0.003952569328248501 0.14901961386203766 0.1725490242242813 0.125490203499794
0.43916255235671997 0.7554081678390503 0.9905138611793518 0.30588236451148987 0.3137255012989044 0.2705882489681244
0.36625614762306213 0.7524080276489258 0.9905138611793518 0.3176470696926117 0.3176470696926117 0.30980393290519714
0.46945813298225403 0.7749881744384766 0.2960474193096161 0.4941176474094391 0.5333333611488342 0.5372549295425415
0.30049261450767517 0.6821411848068237 0.00830039568245411 0.47058823704719543 0.5176470875740051 0.4313725531101227
0.3891625702381134 0.707879364490509 0.007905138656497002 0.3764705955982208 0.3803921639919281 0.32549020648002625
0.30714285373687744 0.735038697719574 0.007905138656497002 0.529411792755127 0.5215686559677124 0.42352941632270813
0.3133004903793335 0.7756197452545166 0.9909090995788574 0.4431372582912445 0.45490196347236633 0.48235294222831726
0.26403939723968506 0.7497236728668213 0.9936758875846863 0.9607843160629272 0.9764705896377563 0.9882352948188782
0.41133004426956177 0.707721471786499 0.005928853526711464 0.16078431904315948 0.1568627506494522 0.14901961386203766
0.3524630665779114 0.7034580707550049 0.010276679880917072 0.42352941632270813 0.4156862795352936 0.3176470696926117
0.42216747999191284 0.654508113861084 0.005928853526711464 0.3137255012989044 0.30980393290519714 0.239215686917305
0.46625617146492004 0.6462971568107605 0.991304337978363 0.3490196168422699 0.33725491166114807 0.3019607961177826
0.45049262046813965 0.7610926628112793 0.9905138611793518 0.250980406999588 0.2549019753932953 0.2235294133424759
0.2628078758716583 0.7797252535820007 0.00830039568245411 0.5647059082984924 0.5647059082984924 0.47058823704719543
0.45344826579093933 0.6573503613471985 0.29920947551727295 0.49803921580314636 0.5137255191802979 0.5254902243614197
0.37118226289749146 0.6571924686431885 0.16956521570682526 0.09803921729326248 0.09803921729326248 0.09803921729326248
0.4871921241283417 0.7274593114852905 0.9905138611793518 0.30980393290519714 0.30980393290519714 0.27843138575553894
0.33571428060531616 0.7675667405128479 0.008695651777088642 0.23529411852359772 0.239215686917305 0.1764705926179886
0.437438428401947 0.7429338097572327 0.003952569328248501 0.1411764770746231 0.16470588743686676 0.125490203499794
0.2972906529903412 0.6865624785423279 0.00830039568245411 0.5803921818733215 0.5764706134796143 0.45490196347236633
0.45418718457221985 0.7070898413658142 0.0019762846641242504 0.34117648005485535 0.3176470696926117 0.26274511218070984
0.4219211935997009 0.6412442922592163 0.17905138432979584 0.03529411926865578 0.03529411926865578 0.03529411926865578
0.3027093708515167 0.6609821319580078 0.9916995763778687 0.886274516582489 0.929411768913269 0.9529411792755127
0.35394087433815 0.6388757228851318 0.991304337978363 0.33725491166114807 0.3333333432674408 0.3137255012989044
0.30024629831314087 0.6693510413169861 0.007905138656497002 0.5843137502670288 0.6000000238418579 0.501960813999176
0.4408867061138153 0.7006158232688904 0.2960474193096161 0.47058823704719543 0.5098039507865906 0.545098066329956
0.4605911374092102 0.6939839124679565 0.30039525032043457 0.49803921580314636 0.49803921580314636 0.5058823823928833
0.47906404733657837 0.7790936231613159 0.007509881630539894 0.45098039507865906 0.4431372582912445 0.3529411852359772
0.48645320534706116 0.6679298877716064 0.3007905185222626 0.5215686559677124 0.529411792755127 0.5176470875740051
0.35911330580711365 0.6987209916114807 0.9909090995788574 0.3529411852359772 0.3529411852359772 0.32156863808631897
0.38275861740112305 0.7424601316452026 0.9905138611793518 0.3333333432674408 0.3294117748737335 0.3137255012989044
0.2980295419692993 0.643297016620636 0.007905138656497002 0.5372549295425415 0.5490196347236633 0.4431372582912445
0.3773398995399475 0.6723511815071106 0.17312252521514893 0.07450980693101883 0.07450980693101883 0.07450980693101883
0.4770936071872711 0.6917732357978821 0.3011857569217682 0.48235294222831726 0.4941176474094391 0.5137255191802979
0.3499999940395355 0.6439286470413208 0.25138339400291443 0.11372549086809158 0.11372549086809158 0.10588235408067703
0.3455665111541748 0.6721932888031006 0.26719367504119873 0.10980392247438431 0.10980392247438431 0.10196078568696976
0.4330049157142639 0.7538291215896606 0.9905138611793518 0.3137255012989044 0.30980393290519714 0.29019609093666077
0.37955665588378906 0.7615664005279541 0.007509881630539894 0.20392157137393951 0.1921568661928177 0.16470588743686676
0.47758620977401733 0.7378809452056885 0.2960474193096161 0.48627451062202454 0.5098039507865906 0.4941176474094391
0.32364532351493835 0.7236696481704712 0.9909090995788574 0.3960784375667572 0.4117647111415863 0.4156862795352936
0.48669952154159546 0.648981511592865 0.9916995763778687 0.3490196168422699 0.3490196168422699 0.3176470696926117
0.4396551847457886 0.7449865937232971 0.9905138611793518 0.30980393290519714 0.3176470696926117 0.27450981736183167
0.3012315332889557 0.7421443462371826 0.9924901127815247 0.9411764740943909 0.9725490212440491 0.9803921580314636
0.254679799079895 0.7093005180358887 0.007905138656497002 0.43529412150382996 0.4274509847164154 0.3450980484485626
0.3337438404560089 0.6568766832351685 0.007509881630539894 0.5686274766921997 0.5647059082984924 0.48235294222831726
0.4435960650444031 0.6747197508811951 0.29920947551727295 0.47843137383461 0.4941176474094391 0.49803921580314636
0.3334975242614746 0.7822517156600952 0.9909090995788574 0.38823530077934265 0.3803921639919281 0.3843137323856354
0.37438422441482544 0.637770414352417 0.991304337978363 0.3176470696926117 0.3137255012989044 0.29411765933036804
0.4807881712913513 0.6837201714515686 0.0023715414572507143 0.3529411852359772 0.3450980484485626 0.29411765933036804
0.31206896901130676 0.7508289813995361 0.2972331941127777 0.7921568751335144 0.8313725590705872 0.8392156958580017
0.368719220161438 0.7557240128517151 0.2972331941127777 0.5882353186607361 0.6274510025978088 0.6352941393852234
0.282019704580307 0.6573503613471985 0.007905138656497002 0.5764706134796143 0.6078431606292725 0.5176470875740051
0.4926108419895172 0.6905100345611572 0.3015810251235962 0.501960813999176 0.5058823823928833 0.5215686559677124
0.33078816533088684 0.7508289813995361 0.2972331941127777 0.729411780834198 0.7686274647712708 0.7764706015586853
0.4014778435230255 0.788567841053009 0.2964426875114441 0.48235294222831726 0.5215686559677124 0.529411792755127
0.48571428656578064 0.7099320888519287 0.9909090995788574 0.32549020648002625 0.32549020648002625 0.29411765933036804
0.4802955687046051 0.729669988155365 0.0031620552763342857 0.3176470696926117 0.3294117748737335 0.3019607961177826
0.40270936489105225 0.7667772173881531 0.9905138611793518 0.33725491166114807 0.3333333432674408 0.3176470696926117
0.4556650221347809 0.632243812084198 0.29881423711776733 0.545098066329956 0.5490196347236633 0.5686274766921997
0.4197044372558594 0.6925627589225769 0.18102766573429108 0.0941176488995552 0.10196078568696976 0.09803921729326248
0.43793103098869324 0.696984052658081 0.29841896891593933 0.46666666865348816 0.49803921580314636 0.5058823823928833
0.4724137783050537 0.7014053463935852 0.2960474193096161 0.3137255012989044 0.3176470696926117 0.32549020648002625
0.41083744168281555 0.6481919884681702 0.991304337978363 0.27843138575553894 0.27843138575553894 0.24705882370471954
0.33916255831718445 0.6691930890083313 0.290909081697464 0.10980392247438431 0.10588235408067703 0.09803921729326248
0.3610837459564209 0.7061424255371094 0.9909090995788574 0.3294117748737335 0.3294117748737335 0.2980392277240753
0.33990147709846497 0.6848255395889282 0.291304349899292 0.08627451211214066 0.08627451211214066 0.0784313753247261
0.3482758700847626 0.6513500809669495 0.0071146246045827866 0.5803921818733215 0.572549045085907 0.4745098054409027
0.40640392899513245 0.6601926684379578 0.0071146246045827866 0.1882352977991104 0.1882352977991104 0.1411764770746231
0.4167487621307373 0.654350221157074 0.17786560952663422 0.05882352963089943 0.05882352963089943 0.05882352963089943
0.4091132879257202 0.6614558696746826 0.2976284623146057 0.4941176474094391 0.5058823823928833 0.5333333611488342
0.41896551847457886 0.7685141563415527 0.9905138611793518 0.30980393290519714 0.30588236451148987 0.2862745225429535
0.3300492465496063 0.7391441464424133 0.2968379557132721 0.7058823704719543 0.7450980544090271 0.7411764860153198
0.4763546884059906 0.7312490344047546 0.002766798483207822 0.30588236451148987 0.3137255012989044 0.2705882489681244
0.4805418848991394 0.7004579305648804 0.0007905138190835714 0.47843137383461 0.48627451062202454 0.4313725531101227
0.41083744168281555 0.7593557834625244 0.2964426875114441 0.5960784554481506 0.6274510025978088 0.6352941393852234
0.48965516686439514 0.6679298877716064 0.991304337978363 0.33725491166114807 0.34117648005485535 0.3176470696926117
0.33546799421310425 0.7593557834625244 0.9905138611793518 0.38823530077934265 0.38823530077934265 0.3803921639919281
0.3165024518966675 0.7696194648742676 0.008695651777088642 0.37254902720451355 0.3803921639919281 0.29411765933036804
0.2541871964931488 0.7168798446655273 0.007905138656497002 0.5960784554481506 0.5764706134796143 0.49803921580314636
0.4364531934261322 0.7220906615257263 0.9909090995788574 0.30588236451148987 0.30588236451148987 0.27450981736183167
0.3576354682445526 0.6759829521179199 0.9909090995788574 0.2862745225429535 0.2823529541492462 0.26274511218070984
0.40689656138420105 0.7430917620658875 0.9905138611793518 0.3333333432674408 0.3333333432674408 0.3019607961177826
0.32290640473365784 0.740407407283783 0.2972331941127777 0.7215686440467834 0.7803921699523926 0.7607843279838562
0.39556649327278137 0.7386704683303833 0.2968379557132721 0.5686274766921997 0.5960784554481506 0.6352941393852234
0.3847290575504303 0.6456655859947205 0.991304337978363 0.3294117748737335 0.3294117748737335 0.2980392277240753
0.35098522901535034 0.6751934289932251 0.22134387493133545 0.13725490868091583 0.14509804546833038 0.13333334028720856
0.3894088566303253 0.7149850130081177 0.007905138656497002 0.4000000059604645 0.3686274588108063 0.3176470696926117
0.2608374357223511 0.707563579082489 0.9936758875846863 0.9803921580314636 0.9843137264251709 1.0
0.40665024518966675 0.6360334753990173 0.2968379557132721 0.5490196347236633 0.5568627715110779 0.6078431606292725
0.25123152136802673 0.7727774977684021 0.9932806491851807 0.9607843160629272 0.9647058844566345 0.9803921580314636
0.39482757449150085 0.7074056267738342 0.007509881630539894 0.37254902720451355 0.3764705955982208 0.32156863808631897
0.27635467052459717 0.6865624785423279 0.00830039568245411 0.529411792755127 0.5647059082984924 0.4588235318660736
0.4169950783252716 0.7206695079803467 0.003952569328248501 0.22745098173618317 0.22745098173618317 0.1882352977991104
0.3418719172477722 0.6515079736709595 0.2924901247024536 0.10196078568696976 0.10196078568696976 0.0941176488995552
0.4091132879257202 0.7745144367218018 0.007509881630539894 0.2078431397676468 0.21960784494876862 0.18431372940540314
0.277339905500412 0.7582504153251648 0.9932806491851807 0.9607843160629272 0.9764705896377563 0.9803921580314636
0.35837438702583313 0.6805621385574341 0.9909090995788574 0.3294117748737335 0.3333333432674408 0.30980393290519714
0.41822659969329834 0.6661929488182068 0.005138339940458536 0.22745098173618317 0.22745098173618317 0.18039216101169586
0.3463054299354553 0.6579819917678833 0.18063241243362427 0.20392157137393951 0.21960784494876862 0.21568627655506134
0.3330049216747284 0.6459813714027405 0.007905138656497002 0.6078431606292725 0.6039215922355652 0.5254902243614197
0.3302955627441406 0.7696194648742676 0.9909090995788574 0.43529412150382996 0.4313725531101227 0.42352941632270813
0.373399019241333 0.7789357304573059 0.008695651777088642 0.239215686917305 0.23137255012989044 0.18431372940540314
0.2972906529903412 0.6360334753990173 0.9936758875846863 0.9960784316062927 1.0 1.0
0.47068965435028076 0.7751460671424866 0.9901185631752014 0.2980392277240753 0.3019607961177826 0.27843138575553894
0.35123151540756226 0.6873519420623779 0.20988142490386963 0.07450980693101883 0.0784313753247261 0.05882352963089943
0.4130541980266571 0.7580925226211548 0.9905138611793518 0.32156863808631897 0.32549020648002625 0.3019607961177826
0.32709360122680664 0.7798831462860107 0.2972331941127777 0.7019608020782471 0.7215686440467834 0.7333333492279053
0.43399015069007874 0.6456655859947205 0.29841896891593933 0.5254902243614197 0.5372549295425415 0.5568627715110779
0.38694581389427185 0.7217748165130615 0.2964426875114441 0.545098066329956 0.5882353186607361 0.5960784554481506
0.3253694474697113 0.7765671610832214 0.2972331941127777 0.7411764860153198 0.7607843279838562 0.772549033164978
0.3206896483898163 0.7500394582748413 0.2972331941127777 0.772549033164978 0.8117647171020508 0.8196078538894653
0.2509852349758148 0.7651981711387634 0.007905138656497002 0.5607843399047852 0.5568627715110779 0.48627451062202454
0.3931034505367279 0.7501973509788513 0.9905138611793518 0.3333333432674408 0.3294117748737335 0.30980393290519714
0.27684730291366577 0.7393020391464233 0.9940711259841919 0.9607843160629272 0.9764705896377563 0.9882352948188782
0.4194581210613251 0.6805621385574341 0.004347825888544321 0.2078431397676468 0.2078431397676468 0.16078431904315948
0.39187192916870117 0.6747197508811951 0.9909090995788574 0.34117648005485535 0.3529411852359772 0.3176470696926117
0.3741379380226135 0.7074056267738342 0.00909090880304575 0.33725491166114807 0.34117648005485535 0.27843138575553894
0.40344828367233276 0.691141664981842 0.17786560952663422 0.05098039284348488 0.05098039284348488 0.05882352963089943
0.2630541920661926 0.7320385575294495 0.007905138656497002 0.5843137502670288 0.5647059082984924 0.47843137383461
0.3499999940395355 0.7767251133918762 0.01067193690687418 0.0784313753247261 0.09019608050584793 0.062745101749897
0.3738916218280792 0.6625611782073975 0.17035573720932007 0.09019608050584793 0.09019608050584793 0.09019608050584793
0.29630541801452637 0.7323543429374695 0.007905138656497002 0.5333333611488342 0.5411764979362488 0.4588235318660736
0.2539408802986145 0.632717490196228 0.007509881630539894 0.6196078658103943 0.6117647290229797 0.529411792755127
0.2613300383090973 0.7749881744384766 0.00830039568245411 0.47058823704719543 0.4627451002597809 0.3803921639919281
0.47807881236076355 0.7116690278053284 0.2960474193096161 0.5333333611488342 0.545098066329956 0.5647059082984924
0.39852216839790344 0.7568293213844299 0.9905138611793518 0.3529411852359772 0.3529411852359772 0.32156863808631897
0.31945812702178955 0.7383546233177185 0.2968379557132721 0.7254902124404907 0.772549033164978 0.7647058963775635
0.30295565724372864 0.653876543045044 0.991304337978363 0.929411768913269 0.9764705896377563 0.9764705896377563
0.34285715222358704 0.6467708945274353 0.17035573720932007 0.13333334028720856 0.1411764770746231 0.12941177189350128
0.37438422441482544 0.7587241530418396 0.007509881630539894 0.16078431904315948 0.16078431904315948 0.11372549086809158
0.4571428596973419 0.7007737159729004 0.9909090995788574 0.30588236451148987 0.30588236451148987 0.2666666805744171
0.4640394151210785 0.7765671610832214 0.006719367578625679 0.5647059082984924 0.5372549295425415 0.4627451002597809
0.27635467052459717 0.708037257194519 0.9944664239883423 0.9764705896377563 0.9921568632125854 1.0
0.33078816533088684 0.6372966766357422 0.991304337978363 0.3450980484485626 0.3490196168422699 0.3176470696926117
0.4598522186279297 0.6554555296897888 0.991304337978363 0.3333333432674408 0.3333333432674408 0.3019607961177826
0.413300484418869 0.6720353960990906 0.9909090995788574 0.3294117748737335 0.3294117748737335 0.29019609093666077
0.35394087433815 0.6878256797790527 0.2652173936367035 0.0784313753247261 0.0784313753247261 0.07058823853731155
0.46650245785713196 0.7018790245056152 0.9909090995788574 0.32156863808631897 0.32156863808631897 0.2823529541492462
0.4524630606174469 0.6642981171607971 0.991304337978363 0.3019607961177826 0.30588236451148987 0.27450981736183167
0.30738916993141174 0.7473551034927368 0.2972331941127777 0.7921568751335144 0.8235294222831726 0.8352941274642944
0.44999998807907104 0.7650402784347534 0.2960474193096161 0.5647059082984924 0.5960784554481506 0.6078431606292725
0.40541872382164 0.6785094141960144 0.0071146246045827866 0.18039216101169586 0.16470588743686676 0.12941177189350128
0.3741379380226135 0.7097741961479187 0.00909090880304575 0.43529412150382996 0.4313725531101227 0.3490196168422699
0.48128077387809753 0.7345649600028992 0.9905138611793518 0.3137255012989044 0.3137255012989044 0.2823529541492462
0.4288177192211151 0.6873519420623779 0.29881423711776733 0.46666666865348816 0.48627451062202454 0.49803921580314636
0.47807881236076355 0.7822517156600952 0.2956521809101105 0.49803921580314636 0.5333333611488342 0.5215686559677124
0.4889162480831146 0.7874624729156494 0.9901185631752014 0.3176470696926117 0.3176470696926117 0.30980393290519714
0.39088669419288635 0.7040897011756897 0.2960474193096161 0.062745101749897 0.062745101749897 0.054901961237192154
0.47315269708633423 0.6890888810157776 0.0019762846641242504 0.3137255012989044 0.3137255012989044 0.2666666805744171
0.2830049395561218 0.7561976909637451 0.007905138656497002 0.5921568870544434 0.5843137502670288 0.4941176474094391
0.443842351436615 0.7483025193214417 0.2964426875114441 0.5960784554481506 0.6313725709915161 0.6196078658103943
0.26403939723968506 0.6616137623786926 0.9968379735946655 0.9764705896377563 0.9921568632125854 0.9960784316062927
