0.9817733764648438 0.3532291054725647 0.13794466853141785 0.7137255072593689 0.7176470756530762 0.6470588445663452
0.9766010046005249 0.4170219600200653 0.3494071066379547 0.6784313917160034 0.7137255072593689 0.6941176652908325
0.9426108598709106 0.4590241611003876 0.005928853526711464 0.5529412031173706 0.5647059082984924 0.4431372582912445
0.9815270900726318 0.3514921963214874 0.19367589056491852 0.7176470756530762 0.7215686440467834 0.6509804129600525
0.9182265996932983 0.4710247814655304 0.0063241105526685715 0.3921568691730499 0.42352941632270813 0.3294117748737335
0.9812808036804199 0.34107059240341187 0.249802365899086 0.7019608020782471 0.7058823704719543 0.6509804129600525
0.9302955865859985 0.4222327470779419 0.9885375499725342 0.33725491166114807 0.3294117748737335 0.27843138575553894
0.9798029661178589 0.32591187953948975 0.05256916955113411 0.729411780834198 0.7333333492279053 0.6784313917160034
0.9817733764648438 0.35496604442596436 0.1355731189250946 0.7215686440467834 0.7176470756530762 0.6470588445663452
0.9768472909927368 0.31706932187080383 0.6264821887016296 0.658823549747467 0.6784313917160034 0.6941176652908325
0.9832512140274048 0.41844308376312256 0.8454545736312866 0.5098039507865906 0.4901960790157318 0.4156862795352936
0.876600980758667 0.3680720031261444 0.9905138611793518 0.3921568691730499 0.3803921639919281 0.3529411852359772
0.9756157398223877 0.45302385091781616 0.006719367578625679 0.46666666865348816 0.46666666865348816 0.37254902720451355
0.9817733764648438 0.3707563579082489 0.08695652335882187 0.7372549176216125 0.729411780834198 0.6470588445663452
0.9834975600242615 0.3881256878376007 0.9600790739059448 0.4000000059604645 0.3686274588108063 0.32549020648002625
0.9834975600242615 0.37186166644096375 0.9237154126167297 0.4588235318660736 0.4313725531101227 0.3686274588108063
0.9837438464164734 0.41481131315231323 0.9596837759017944 0.3764705955982208 0.3450980484485626 0.29411765933036804
0.9780788421630859 0.45570820569992065 0.7525691986083984 0.5647059082984924 0.5647059082984924 0.5333333611488342
0.9307881593704224 0.4560239911079407 0.005928853526711464 0.5254902243614197 0.5333333611488342 0.43921568989753723
0.9810344576835632 0.46076110005378723 0.03596837818622589 0.239215686917305 0.21568627655506134 0.16078431904315948
0.9770935773849487 0.3472287952899933 0.3581027686595917 0.7568627595901489 0.772549033164978 0.7764706015586853
0.9783251285552979 0.32101690769195557 0.7039525508880615 0.6352941393852234 0.6470588445663452 0.6745098233222961
0.9748768210411072 0.42096951603889465 0.5067193508148193 0.6352941393852234 0.658823549747467 0.658823549747467
0.9807881712913513 0.39838939905166626 0.26403161883354187 0.7098039388656616 0.7215686440467834 0.6549019813537598
0.9832512140274048 0.4576030373573303 0.8450592756271362 0.5176470875740051 0.49803921580314636 0.41960784792900085
0.9780788421630859 0.3642823398113251 0.7260869741439819 0.5960784554481506 0.6117647290229797 0.6235294342041016
0.9270936250686646 0.33491235971450806 0.00830039568245411 0.5137255191802979 0.501960813999176 0.4274509847164154
0.9830049276351929 0.36696669459342957 0.8545454740524292 0.5411764979362488 0.5215686559677124 0.43529412150382996
0.9578817486763 0.4200221002101898 0.9881423115730286 0.34117648005485535 0.3176470696926117 0.2705882489681244
0.9753694534301758 0.36886152625083923 0.5193675756454468 0.6352941393852234 0.6666666865348816 0.6745098233222961
0.9411330223083496 0.4590241611003876 0.005928853526711464 0.5921568870544434 0.6039215922355652 0.4901960790157318
0.9810344576835632 0.3999684154987335 0.17272727191448212 0.6980392336845398 0.7098039388656616 0.6352941393852234
0.9773399233818054 0.4661298096179962 0.700790524482727 0.5568627715110779 0.5686274766921997 0.5333333611488342
0.9815270900726318 0.34391283988952637 0.19090908765792847 0.7176470756530762 0.7254902124404907 0.6431372761726379
0.9751231670379639 0.3829149007797241 0.551383376121521 0.6352941393852234 0.658823549747467 0.658823549747467
0.9834975600242615 0.4396020770072937 0.89486163854599 0.4470588266849518 0.42352941632270813 0.3686274588108063
0.9837438464164734 0.4426022469997406 0.9332015514373779 0.40784314274787903 0.3843137323856354 0.33725491166114807
0.9758620858192444 0.40344229340553284 0.4434782564640045 0.6549019813537598 0.6784313917160034 0.6705882549285889
0.9758620858192444 0.3715458810329437 0.4687747061252594 0.6431372761726379 0.6627451181411743 0.6745098233222961
0.8684729337692261 0.46755093336105347 0.005928853526711464 0.6784313917160034 0.6784313917160034 0.5764706134796143
0.984236478805542 0.45302385091781616 0.9660078883171082 0.3529411852359772 0.3333333432674408 0.25882354378700256
0.9810344576835632 0.36096635460853577 0.22569170594215393 0.7098039388656616 0.7215686440467834 0.6549019813537598
0.9807881712913513 0.40644243359565735 0.22766798734664917 0.729411780834198 0.7450980544090271 0.686274528503418
0.9529556632041931 0.43865466117858887 0.9885375499725342 0.3333333432674408 0.3176470696926117 0.2705882489681244
0.9770935773849487 0.3281225264072418 0.3750988245010376 0.7098039388656616 0.7176470756530762 0.7137255072593689
0.9778324961662292 0.3846518099308014 0.7359683513641357 0.5686274766921997 0.5764706134796143 0.5647059082984924
0.9839901328086853 0.4654981791973114 0.9237154126167297 0.4117647111415863 0.38823530077934265 0.32549020648002625
0.9761083722114563 0.39838939905166626 0.4209486246109009 0.6627451181411743 0.686274528503418 0.686274528503418
0.9785714149475098 0.327017217874527 0.012648221105337143 0.37254902720451355 0.32549020648002625 0.27843138575553894
0.9162561297416687 0.3167535066604614 0.9897233247756958 0.4156862795352936 0.40784314274787903 0.3607843220233917
0.9753694534301758 0.4516027271747589 0.5952569246292114 0.6039215922355652 0.6078431606292725 0.615686297416687
0.9758620858192444 0.40091583132743835 0.6090909242630005 0.6235294342041016 0.6392157077789307 0.6431372761726379
0.9352216720581055 0.31785884499549866 0.9889327883720398 0.3450980484485626 0.3294117748737335 0.29411765933036804
0.9773399233818054 0.46991947293281555 0.7134387493133545 0.5647059082984924 0.5764706134796143 0.5490196347236633
0.8935960531234741 0.37849360704421997 0.9901185631752014 0.3686274588108063 0.35686275362968445 0.32156863808631897
0.9748768210411072 0.43770724534988403 0.5023715496063232 0.6235294342041016 0.6470588445663452 0.6392157077789307
0.9807881712913513 0.44070741534233093 0.2450592815876007 0.7058823704719543 0.7019608020782471 0.6313725709915161
0.9783251285552979 0.4479709565639496 0.7703557014465332 0.5607843399047852 0.5647059082984924 0.545098066329956
0.9746305346488953 0.46139270067214966 0.5039525628089905 0.6078431606292725 0.6313725709915161 0.6313725709915161
0.9790640473365784 0.3507026731967926 0.7675889134407043 0.5803921818733215 0.5960784554481506 0.6000000238418579
0.9763546586036682 0.40644243359565735 0.38339921832084656 0.6745098233222961 0.7058823704719543 0.7137255072593689
0.9761083722114563 0.3159639835357666 0.4948616623878479 0.6823529601097107 0.7019608020782471 0.7137255072593689
0.9748768210411072 0.4623401165008545 0.5553359389305115 0.6117647290229797 0.6274510025978088 0.6235294342041016
0.9810344576835632 0.44954997301101685 0.10000000149011612 0.6901960968971252 0.7098039388656616 0.6313725709915161
0.9598522186279297 0.3301752805709839 0.008695651777088642 0.42352941632270813 0.3960784375667572 0.35686275362968445
0.9839901328086853 0.3306489884853363 0.9561265110969543 0.41960784792900085 0.38823530077934265 0.33725491166114807
0.9768472909927368 0.3360176980495453 0.3786561191082001 0.7058823704719543 0.7098039388656616 0.7176470756530762
0.9820197224617004 0.43818095326423645 0.9881423115730286 0.29411765933036804 0.2705882489681244 0.2078431397676468
0.9736453294754028 0.4462340176105499 0.33517786860466003 0.6823529601097107 0.686274528503418 0.6941176652908325
0.9731526970863342 0.40675824880599976 0.005138339940458536 0.5254902243614197 0.5215686559677124 0.4431372582912445
0.9815270900726318 0.4110216200351715 0.059683796018362045 0.686274528503418 0.686274528503418 0.5921568870544434
0.9770935773849487 0.3159639835357666 0.38853755593299866 0.6941176652908325 0.7176470756530762 0.7176470756530762
0.9763546586036682 0.3191220462322235 0.5889328122138977 0.6745098233222961 0.6941176652908325 0.7098039388656616
0.9807881712913513 0.45033949613571167 0.2699604630470276 0.6784313917160034 0.6745098233222961 0.6039215922355652
0.9270936250686646 0.45491868257522583 0.9893280863761902 0.35686275362968445 0.34117648005485535 0.2980392277240753
0.9758620858192444 0.32543817162513733 0.5154150128364563 0.6823529601097107 0.7019608020782471 0.7254902124404907
0.9822660088539124 0.45270803570747375 0.8114624619483948 0.5333333611488342 0.5411764979362488 0.4588235318660736
0.9790640473365784 0.4312332272529602 0.2964426875114441 0.5764706134796143 0.572549045085907 0.4941176474094391
0.9837438464164734 0.35559767484664917 0.9347826242446899 0.4431372582912445 0.40784314274787903 0.3490196168422699
0.9788177609443665 0.3559134602546692 0.014229249209165573 0.6392157077789307 0.6000000238418579 0.5529412031173706
0.9766010046005249 0.3390178382396698 0.4071146249771118 0.6784313917160034 0.6980392336845398 0.7215686440467834
0.9837438464164734 0.34896573424339294 0.9292489886283875 0.4588235318660736 0.42352941632270813 0.364705890417099
0.9773399233818054 0.3767566680908203 0.6944664120674133 0.5960784554481506 0.6117647290229797 0.6078431606292725
0.9758620858192444 0.32891204953193665 0.5150197744369507 0.6784313917160034 0.6980392336845398 0.7137255072593689
0.9766010046005249 0.321806401014328 0.4272727370262146 0.686274528503418 0.7019608020782471 0.7372549176216125
0.943842351436615 0.362071692943573 0.008695651777088642 0.43921568989753723 0.43529412150382996 0.35686275362968445
0.9830049276351929 0.3735986053943634 0.8608695864677429 0.5215686559677124 0.501960813999176 0.4156862795352936
0.9778324961662292 0.4433917701244354 0.011462450958788395 0.364705890417099 0.3450980484485626 0.25882354378700256
0.9780788421630859 0.3308068811893463 0.6960474252700806 0.6313725709915161 0.6431372761726379 0.6705882549285889
0.9832512140274048 0.4309174120426178 0.8766798377037048 0.47058823704719543 0.4470588266849518 0.4000000059604645
0.9785714149475098 0.3303331732749939 0.7268774509429932 0.6274510025978088 0.6274510025978088 0.658823549747467
0.9844827651977539 0.46107688546180725 0.977470338344574 0.3450980484485626 0.32156863808631897 0.2666666805744171
0.9825122952461243 0.3418600857257843 0.8268774747848511 0.5960784554481506 0.5843137502670288 0.5176470875740051
0.9758620858192444 0.3364914059638977 0.5802371501922607 0.6509804129600525 0.6666666865348816 0.7019608020782471
0.9761083722114563 0.4448128938674927 0.4007905125617981 0.658823549747467 0.6823529601097107 0.6745098233222961
0.9820197224617004 0.3483341336250305 0.13162055611610413 0.729411780834198 0.7215686440467834 0.6705882549285889
0.9763546586036682 0.42096951603889465 0.64861661195755 0.5764706134796143 0.5921568870544434 0.5882353186607361
0.9746305346488953 0.46139270067214966 0.5039525628089905 0.6078431606292725 0.6313725709915161 0.6313725709915161
0.9837438464164734 0.424601286649704 0.9533596634864807 0.3803921639919281 0.3490196168422699 0.30588236451148987
0.9064039587974548 0.3963366448879242 0.9897233247756958 0.3764705955982208 0.3607843220233917 0.3176470696926117
0.9770935773849487 0.40123164653778076 0.3011857569217682 0.5529412031173706 0.5568627715110779 0.48627451062202454
0.8665024638175964 0.4102321267127991 0.005533596966415644 0.615686297416687 0.5843137502670288 0.501960813999176
0.9751231670379639 0.40438970923423767 0.5166007876396179 0.6235294342041016 0.658823549747467 0.6549019813537598
0.9219211935997009 0.4163903295993805 0.9889327883720398 0.35686275362968445 0.34117648005485535 0.29411765933036804
0.9763546586036682 0.42096951603889465 0.64861661195755 0.5764706134796143 0.5921568870544434 0.5882353186607361
0.9746305346488953 0.3423337936401367 0.30988141894340515 0.529411792755127 0.5058823823928833 0.45098039507865906
0.9837438464164734 0.37170377373695374 0.9750987887382507 0.364705890417099 0.34117648005485535 0.2862745225429535
0.9790640473365784 0.3735986053943634 0.7822134494781494 0.5529412031173706 0.5803921818733215 0.5529412031173706
0.9716748595237732 0.33175429701805115 0.00909090880304575 0.545098066329956 0.5176470875740051 0.45490196347236633
0.9807881712913513 0.41765356063842773 0.2557312250137329 0.729411780834198 0.7333333492279053 0.6784313917160034
0.9177339673042297 0.36933523416519165 0.007905138656497002 0.5098039507865906 0.5215686559677124 0.43921568989753723
0.9820197224617004 0.32891204953193665 0.1094861626625061 0.7254902124404907 0.7176470756530762 0.6705882549285889
0.9768472909927368 0.34912362694740295 0.6403161883354187 0.7529411911964417 0.772549033164978 0.7843137383460999
0.9768472909927368 0.42996999621391296 0.686956524848938 0.5529412031173706 0.572549045085907 0.5490196347236633
0.8790640234947205 0.4691299498081207 0.005928853526711464 0.5137255191802979 0.5137255191802979 0.4117647111415863
0.9369457960128784 0.42712774872779846 0.005533596966415644 0.48235294222831726 0.4941176474094391 0.3803921639919281
0.9834975600242615 0.3197536766529083 0.9154150485992432 0.4941176474094391 0.47058823704719543 0.3686274588108063
0.9288177490234375 0.327333003282547 0.9893280863761902 0.4156862795352936 0.4000000059604645 0.35686275362968445
0.9746305346488953 0.43297016620635986 0.5458498001098633 0.6117647290229797 0.6352941393852234 0.6274510025978088
0.9807881712913513 0.3443865478038788 0.29446640610694885 0.5568627715110779 0.5529412031173706 0.48235294222831726
0.9751231670379639 0.41181114315986633 0.5584980249404907 0.6235294342041016 0.6470588445663452 0.6392157077789307
0.9815270900726318 0.35843992233276367 0.17391304671764374 0.7137255072593689 0.7176470756530762 0.6470588445663452
0.8665024638175964 0.4309174120426178 0.005928853526711464 0.5490196347236633 0.545098066329956 0.46666666865348816
0.9807881712913513 0.4339175820350647 0.26719367504119873 0.7019608020782471 0.7058823704719543 0.6352941393852234
0.9837438464164734 0.32543817162513733 0.9264822006225586 0.47843137383461 0.45490196347236633 0.3686274588108063
0.9810344576835632 0.4647086560726166 0.19011858105659485 0.7019608020782471 0.6980392336845398 0.6196078658103943
0.9807881712913513 0.46170851588249207 0.291304349899292 0.5568627715110779 0.5490196347236633 0.4588235318660736
0.9039409160614014 0.45823463797569275 0.005928853526711464 0.545098066329956 0.529411792755127 0.4156862795352936
0.982758641242981 0.36980894207954407 0.8241106867790222 0.572549045085907 0.5647059082984924 0.48235294222831726
0.9770935773849487 0.33459654450416565 0.6513833999633789 0.6470588445663452 0.6549019813537598 0.7019608020782471
0.9763546586036682 0.3554397523403168 0.43952569365501404 0.6627451181411743 0.6784313917160034 0.7215686440467834
0.9783251285552979 0.362229585647583 0.7454545497894287 0.5960784554481506 0.6039215922355652 0.6000000238418579
0.9758620858192444 0.3303331732749939 0.4948616623878479 0.6705882549285889 0.6980392336845398 0.7215686440467834
0.9766010046005249 0.45255014300346375 0.6703557372093201 0.572549045085907 0.572549045085907 0.5647059082984924
0.9834975600242615 0.3884415030479431 0.9328063130378723 0.4274509847164154 0.3960784375667572 0.3450980484485626
0.9669950604438782 0.397126168012619 0.005928853526711464 0.43921568989753723 0.4313725531101227 0.37254902720451355
0.9810344576835632 0.3589136302471161 0.2600790560245514 0.7058823704719543 0.7137255072593689 0.658823549747467
0.9837438464164734 0.45776093006134033 0.9007905125617981 0.45490196347236633 0.4313725531101227 0.3764705955982208
0.920197069644928 0.45002368092536926 0.9893280863761902 0.35686275362968445 0.33725491166114807 0.3137255012989044
0.9758620858192444 0.44954997301101685 0.6249011754989624 0.5843137502670288 0.5921568870544434 0.5882353186607361
0.9125615954399109 0.45286592841148376 0.005928853526711464 0.6235294342041016 0.6196078658103943 0.5098039507865906
0.9770935773849487 0.40912678837776184 0.005138339940458536 0.5686274766921997 0.5607843399047852 0.47843137383461
0.9810344576835632 0.45002368092536926 0.061660077422857285 0.6980392336845398 0.7176470756530762 0.6313725709915161
0.9832512140274048 0.33491235971450806 0.8952569365501404 0.5098039507865906 0.4901960790157318 0.40392157435417175
0.9810344576835632 0.39538922905921936 0.1723320186138153 0.7098039388656616 0.7176470756530762 0.6352941393852234
0.9800492525100708 0.4029685854911804 0.7968379259109497 0.5098039507865906 0.5254902243614197 0.5215686559677124
0.8729063868522644 0.45239222049713135 0.005928853526711464 0.6392157077789307 0.6470588445663452 0.5647059082984924
0.9748768210411072 0.45191851258277893 0.4786561131477356 0.6235294342041016 0.6470588445663452 0.6392157077789307
0.9761083722114563 0.3440707325935364 0.6015810370445251 0.6313725709915161 0.6509804129600525 0.6666666865348816
0.9753694534301758 0.4681825339794159 0.4584980309009552 0.6313725709915161 0.6549019813537598 0.6549019813537598
0.9807881712913513 0.3848097324371338 0.2644268870353699 0.7137255072593689 0.7215686440467834 0.6705882549285889
0.9798029661178589 0.3364914059638977 0.04545454680919647 0.2549019753932953 0.21960784494876862 0.18431372940540314
0.9169950485229492 0.3500710427761078 0.00830039568245411 0.545098066329956 0.5372549295425415 0.4470588266849518
0.9810344576835632 0.4566556215286255 0.05138339847326279 0.2980392277240753 0.2862745225429535 0.21960784494876862
0.9810344576835632 0.45807674527168274 0.12766797840595245 0.6901960968971252 0.7058823704719543 0.615686297416687
0.9766010046005249 0.33743882179260254 0.6296442747116089 0.6431372761726379 0.6392157077789307 0.658823549747467
0.8635467886924744 0.3617558777332306 0.9905138611793518 0.4000000059604645 0.38823530077934265 0.3529411852359772
0.9815270900726318 0.34343913197517395 0.09051383286714554 0.729411780834198 0.7333333492279053 0.6627451181411743
0.9825122952461243 0.32859623432159424 0.8292490243911743 0.5882353186607361 0.5921568870544434 0.529411792755127
0.9802955389022827 0.34928154945373535 0.29525691270828247 0.5764706134796143 0.5764706134796143 0.48235294222831726
0.9758620858192444 0.37138795852661133 0.46521738171577454 0.6470588445663452 0.6666666865348816 0.6784313917160034
0.982758641242981 0.3248065710067749 0.8557312488555908 0.5686274766921997 0.5490196347236633 0.47058823704719543
0.9812808036804199 0.3255960941314697 0.2600790560245514 0.6980392336845398 0.7058823704719543 0.6549019813537598
0.9812808036804199 0.397126168012619 0.14584980905056 0.7098039388656616 0.7058823704719543 0.6274510025978088
0.979556679725647 0.3388599455356598 0.783399224281311 0.5803921818733215 0.5960784554481506 0.5921568870544434
0.9815270900726318 0.34928154945373535 0.1924901157617569 0.7176470756530762 0.7215686440467834 0.658823549747467
0.9837438464164734 0.3652297556400299 0.9162055253982544 0.4588235318660736 0.45098039507865906 0.3686274588108063
0.9396551847457886 0.35196590423583984 0.008695651777088642 0.48627451062202454 0.5058823823928833 0.4274509847164154
0.9830049276351929 0.4018632471561432 0.8486166000366211 0.5058823823928833 0.49803921580314636 0.4156862795352936
0.9492610692977905 0.46407705545425415 0.0063241105526685715 0.4588235318660736 0.47843137383461 0.4000000059604645
0.9815270900726318 0.34075477719306946 0.21146245300769806 0.7215686440467834 0.7254902124404907 0.6549019813537598
0.9093596339225769 0.40644243359565735 0.9893280863761902 0.37254902720451355 0.35686275362968445 0.32156863808631897
0.979556679725647 0.3213326930999756 0.7743083238601685 0.5960784554481506 0.615686297416687 0.6274510025978088
0.9815270900726318 0.3507026731967926 0.19130434095859528 0.7176470756530762 0.7215686440467834 0.6509804129600525
0.9761083722114563 0.4620243310928345 0.40909090638160706 0.6470588445663452 0.6705882549285889 0.6705882549285889
0.9807881712913513 0.3184904456138611 0.07984189689159393 0.7058823704719543 0.7254902124404907 0.6392157077789307
0.9761083722114563 0.418916791677475 0.4055335819721222 0.6666666865348816 0.6901960968971252 0.6901960968971252
0.9790640473365784 0.3500710427761078 0.769565224647522 0.5803921818733215 0.5960784554481506 0.6000000238418579
0.9822660088539124 0.32654350996017456 0.8150197863578796 0.6039215922355652 0.6078431606292725 0.545098066329956
0.9758620858192444 0.3192799687385559 0.5272727012634277 0.6823529601097107 0.7019608020782471 0.7176470756530762
0.9800492525100708 0.3939681053161621 0.0181818176060915 0.27450981736183167 0.239215686917305 0.1725490242242813
0.9761083722114563 0.3671245872974396 0.6126482486724854 0.6235294342041016 0.6392157077789307 0.6431372761726379
0.9766010046005249 0.3652297556400299 0.6359683871269226 0.7490196228027344 0.7686274647712708 0.7803921699523926
0.9756157398223877 0.4220748543739319 0.4521739184856415 0.6509804129600525 0.6745098233222961 0.6745098233222961
0.8738916516304016 0.4306015968322754 0.9897233247756958 0.33725491166114807 0.32549020648002625 0.2980392277240753
0.9810344576835632 0.4193904995918274 0.12845849990844727 0.7137255072593689 0.7019608020782471 0.6431372761726379
0.9822660088539124 0.3274909257888794 0.13122530281543732 0.7176470756530762 0.7058823704719543 0.6705882549285889
0.9455664753913879 0.44418126344680786 0.9889327883720398 0.3176470696926117 0.3019607961177826 0.2549019753932953
0.9226601123809814 0.37833571434020996 0.007509881630539894 0.5215686559677124 0.49803921580314636 0.43529412150382996
0.9837438464164734 0.3652297556400299 0.9162055253982544 0.4588235318660736 0.45098039507865906 0.3686274588108063
0.982758641242981 0.38923102617263794 0.8189723491668701 0.5764706134796143 0.5529412031173706 0.46666666865348816
0.9758620858192444 0.43786513805389404 0.4000000059604645 0.6509804129600525 0.6901960968971252 0.6941176652908325
0.9753694534301758 0.3701247572898865 0.5620553493499756 0.6274510025978088 0.6392157077789307 0.658823549747467
0.9832512140274048 0.38654667139053345 0.8766798377037048 0.49803921580314636 0.47058823704719543 0.40784314274787903
0.9810344576835632 0.43865466117858887 0.09051383286714554 0.6980392336845398 0.7098039388656616 0.6274510025978088
0.9763546586036682 0.4446549713611603 0.3810276687145233 0.6745098233222961 0.7098039388656616 0.7058823704719543
0.9812808036804199 0.43849676847457886 0.046640317887067795 0.5686274766921997 0.5686274766921997 0.4745098054409027
0.9834975600242615 0.3816516697406769 0.9474308490753174 0.4156862795352936 0.3843137323856354 0.3333333432674408
0.9810344576835632 0.40012630820274353 0.16284584999084473 0.7019608020782471 0.7098039388656616 0.6274510025978088
0.9761083722114563 0.33459654450416565 0.4857707619667053 0.6784313917160034 0.6941176652908325 0.7411764860153198
0.9209359884262085 0.3619137704372406 0.9893280863761902 0.4000000059604645 0.3843137323856354 0.33725491166114807
0.9541872143745422 0.35243961215019226 0.00909090880304575 0.5137255191802979 0.5215686559677124 0.47058823704719543
0.9830049276351929 0.35765039920806885 0.8632411360740662 0.529411792755127 0.5098039507865906 0.42352941632270813
0.9758620858192444 0.4227064549922943 0.6233201622962952 0.5843137502670288 0.6078431606292725 0.6000000238418579
0.9756157398223877 0.33522817492485046 0.5561264753341675 0.658823549747467 0.686274528503418 0.7254902124404907
0.9763546586036682 0.4689720571041107 0.3786561191082001 0.6627451181411743 0.686274528503418 0.686274528503418
0.9810344576835632 0.4647086560726166 0.1723320186138153 0.6980392336845398 0.7058823704719543 0.6235294342041016
0.9790640473365784 0.37533554434776306 0.790513813495636 0.5607843399047852 0.5686274766921997 0.5490196347236633
0.9810344576835632 0.42996999621391296 0.13675889372825623 0.7137255072593689 0.7019608020782471 0.6352941393852234
0.9807881712913513 0.42128533124923706 0.2403162121772766 0.7098039388656616 0.7215686440467834 0.6549019813537598
0.9753694534301758 0.3647560477256775 0.5628458261489868 0.6352941393852234 0.6470588445663452 0.6666666865348816
0.9704433679580688 0.4591820538043976 0.32094863057136536 0.4627451002597809 0.4588235318660736 0.38823530077934265
0.9145320057868958 0.3615979850292206 0.9897233247756958 0.3960784375667572 0.3803921639919281 0.33725491166114807
0.9783251285552979 0.35733458399772644 0.7288537621498108 0.5921568870544434 0.615686297416687 0.615686297416687
0.9773399233818054 0.465182363986969 0.7090908885002136 0.5568627715110779 0.5686274766921997 0.5333333611488342
0.9812808036804199 0.332701712846756 0.2549407184123993 0.6980392336845398 0.7058823704719543 0.6549019813537598
0.9822660088539124 0.3255960941314697 0.812252938747406 0.5843137502670288 0.5921568870544434 0.5411764979362488
0.9802955389022827 0.44907626509666443 0.7972332239151001 0.5411764979362488 0.5411764979362488 0.5333333611488342
0.879802942276001 0.3824411928653717 0.9901185631752014 0.4000000059604645 0.38823530077934265 0.3607843220233917
0.9780788421630859 0.3876519799232483 0.7458497881889343 0.5686274766921997 0.5882353186607361 0.5647059082984924
0.868719220161438 0.40154746174812317 0.9901185631752014 0.40392157435417175 0.3843137323856354 0.3607843220233917
0.9251231551170349 0.35528185963630676 0.9893280863761902 0.38823530077934265 0.37254902720451355 0.3294117748737335
0.9820197224617004 0.33191221952438354 0.12766797840595245 0.7176470756530762 0.7176470756530762 0.6705882549285889
0.8753694295883179 0.3829149007797241 0.9901185631752014 0.3960784375667572 0.3843137323856354 0.35686275362968445
0.8950738906860352 0.3540186285972595 0.9901185631752014 0.38823530077934265 0.3764705955982208 0.3490196168422699
0.9810344576835632 0.4711827039718628 0.10039525479078293 0.6901960968971252 0.7137255072593689 0.6117647290229797
0.9746305346488953 0.47007736563682556 0.5501976013183594 0.6078431606292725 0.6313725709915161 0.6313725709915161
0.9839901328086853 0.3331754207611084 0.9505928754806519 0.4313725531101227 0.4000000059604645 0.3490196168422699
0.9785714149475098 0.44749724864959717 0.7845849990844727 0.545098066329956 0.5529412031173706 0.49803921580314636
0.9825122952461243 0.3791252076625824 0.8158102631568909 0.5647059082984924 0.572549045085907 0.4901960790157318
0.9817733764648438 0.3734407126903534 0.11106719076633453 0.729411780834198 0.7215686440467834 0.6392157077789307
0.9815270900726318 0.39475762844085693 0.1090909093618393 0.7137255072593689 0.7098039388656616 0.6392157077789307
0.9238916039466858 0.38591504096984863 0.0071146246045827866 0.4941176474094391 0.48627451062202454 0.38823530077934265
0.9761083722114563 0.33443865180015564 0.4675889313220978 0.6666666865348816 0.7019608020782471 0.7372549176216125
0.984236478805542 0.43502289056777954 0.9841897487640381 0.3294117748737335 0.30588236451148987 0.250980406999588
0.9763546586036682 0.39854729175567627 0.634782612323761 0.6117647290229797 0.6274510025978088 0.6392157077789307
0.9815270900726318 0.40328437089920044 0.06521739065647125 0.6941176652908325 0.7019608020782471 0.6196078658103943
0.9756157398223877 0.4331280589103699 0.4312252998352051 0.6509804129600525 0.6705882549285889 0.6823529601097107
0.9751231670379639 0.3762829601764679 0.5367588996887207 0.6392157077789307 0.6627451181411743 0.6627451181411743
0.9817733764648438 0.3846518099308014 0.09209486097097397 0.7098039388656616 0.7058823704719543 0.6274510025978088
0.9837438464164734 0.42128533124923706 0.9462450742721558 0.3960784375667572 0.364705890417099 0.3137255012989044
0.9770935773849487 0.32670140266418457 0.6482213735580444 0.6431372761726379 0.6509804129600525 0.6980392336845398
0.9004926085472107 0.4075477719306946 0.005533596966415644 0.5686274766921997 0.5607843399047852 0.47058823704719543
0.9778324961662292 0.3298594653606415 0.6794466376304626 0.6431372761726379 0.6509804129600525 0.7019608020782471
0.9822660088539124 0.3366492986679077 0.11225296556949615 0.7333333492279053 0.7254902124404907 0.6745098233222961
0.926600992679596 0.47291961312294006 0.0063241105526685715 0.501960813999176 0.529411792755127 0.4588235318660736
0.9071428775787354 0.4481288492679596 0.9893280863761902 0.3450980484485626 0.33725491166114807 0.29019609093666077
0.8645319938659668 0.3595452308654785 0.006719367578625679 0.6078431606292725 0.5882353186607361 0.5098039507865906
0.9783251285552979 0.3701247572898865 0.7474308013916016 0.5843137502670288 0.6000000238418579 0.5960784554481506
0.9834975600242615 0.372967004776001 0.9604743123054504 0.3921568691730499 0.3686274588108063 0.32156863808631897
0.9817733764648438 0.3505447506904602 0.15849801898002625 0.7215686440467834 0.7254902124404907 0.6705882549285889
0.9724137783050537 0.3330175280570984 0.3272727131843567 0.4000000059604645 0.37254902720451355 0.3333333432674408
0.9807881712913513 0.4534975588321686 0.2245059311389923 0.7019608020782471 0.6980392336845398 0.6274510025978088
0.9766010046005249 0.4282330572605133 0.35612648725509644 0.7254902124404907 0.7647058963775635 0.7686274647712708
0.9768472909927368 0.3799147307872772 0.6612648367881775 0.6196078658103943 0.6392157077789307 0.6509804129600525
0.9758620858192444 0.44954997301101685 0.6249011754989624 0.5843137502670288 0.5921568870544434 0.5882353186607361
0.9834975600242615 0.38054633140563965 0.9003952741622925 0.49803921580314636 0.47843137383461 0.40392157435417175
0.9221674799919128 0.45255014300346375 0.005928853526711464 0.5137255191802979 0.5176470875740051 0.4470588266849518
0.9807881712913513 0.4459182024002075 0.025296442210674286 0.27450981736183167 0.239215686917305 0.18039216101169586
0.8711822628974915 0.4418127238750458 0.9897233247756958 0.239215686917305 0.23137255012989044 0.18431372940540314
0.9807881712913513 0.4223906397819519 0.24268774688243866 0.7098039388656616 0.7215686440467834 0.6549019813537598
0.9751231670379639 0.42081162333488464 0.5644268989562988 0.615686297416687 0.6392157077789307 0.6392157077789307
0.9770935773849487 0.4287067651748657 0.6984189748764038 0.5529412031173706 0.572549045085907 0.5490196347236633
0.9578817486763 0.3240170478820801 0.008695651777088642 0.46666666865348816 0.4588235318660736 0.4000000059604645
0.8665024638175964 0.3987051844596863 0.9901185631752014 0.3960784375667572 0.3843137323856354 0.364705890417099
0.9761083722114563 0.39838939905166626 0.4209486246109009 0.6627451181411743 0.686274528503418 0.686274528503418
0.9807881712913513 0.46407705545425415 0.23201580345630646 0.6823529601097107 0.6901960968971252 0.6039215922355652
0.9820197224617004 0.33443865180015564 0.14308300614356995 0.7176470756530762 0.7098039388656616 0.6627451181411743
0.9839901328086853 0.46928784251213074 0.918181836605072 0.4156862795352936 0.40392157435417175 0.33725491166114807
0.8975369334220886 0.38970473408699036 0.9897233247756958 0.3607843220233917 0.3450980484485626 0.3019607961177826
0.9780788421630859 0.4647086560726166 0.7462450861930847 0.5647059082984924 0.5686274766921997 0.5372549295425415
0.9758620858192444 0.424601286649704 0.6134387254714966 0.5843137502670288 0.6078431606292725 0.6000000238418579
0.9790640473365784 0.32970157265663147 0.7596837878227234 0.6117647290229797 0.615686297416687 0.6235294342041016
0.8913792967796326 0.40912678837776184 0.005533596966415644 0.5607843399047852 0.5529412031173706 0.45490196347236633
0.9807881712913513 0.41196906566619873 0.1664031594991684 0.7137255072593689 0.7098039388656616 0.6313725709915161
0.9810344576835632 0.3645981252193451 0.2553359568119049 0.6980392336845398 0.7058823704719543 0.6509804129600525
0.9839901328086853 0.42649611830711365 0.9786561131477356 0.33725491166114807 0.3137255012989044 0.250980406999588
0.9251231551170349 0.4677088260650635 0.9893280863761902 0.32156863808631897 0.30588236451148987 0.25882354378700256
0.9714285731315613 0.4203379154205322 0.9881423115730286 0.32549020648002625 0.30980393290519714 0.26274511218070984
0.926354706287384 0.3882835805416107 0.9889327883720398 0.3529411852359772 0.3450980484485626 0.2980392277240753
0.9768472909927368 0.3194378614425659 0.6205533742904663 0.658823549747467 0.6784313917160034 0.6901960968971252
0.9830049276351929 0.4307595193386078 0.8229249119758606 0.5254902243614197 0.5254902243614197 0.4313725531101227
0.9807881712913513 0.40644243359565735 0.2762845754623413 0.7019608020782471 0.7137255072593689 0.6470588445663452
0.879802942276001 0.42144322395324707 0.9901185631752014 0.3921568691730499 0.3921568691730499 0.3607843220233917
0.9830049276351929 0.4075477719306946 0.8407114744186401 0.5098039507865906 0.501960813999176 0.41960784792900085
0.984236478805542 0.4566556215286255 0.9592885375022888 0.35686275362968445 0.34117648005485535 0.2980392277240753
0.9758620858192444 0.35180798172950745 0.49644267559051514 0.6509804129600525 0.6666666865348816 0.7019608020782471
0.9810344576835632 0.40912678837776184 0.04466403275728226 0.45098039507865906 0.4431372582912445 0.3607843220233917
0.9810344576835632 0.45933997631073 0.18418972194194794 0.6980392336845398 0.7058823704719543 0.6235294342041016
0.9807881712913513 0.38938891887664795 0.22727273404598236 0.7176470756530762 0.7215686440467834 0.658823549747467
0.9758620858192444 0.3642823398113251 0.5885375738143921 0.6431372761726379 0.6470588445663452 0.6627451181411743
0.9758620858192444 0.3481762111186981 0.4857707619667053 0.658823549747467 0.6784313917160034 0.7019608020782471
0.9766010046005249 0.39823147654533386 0.6533597111701965 0.6078431606292725 0.6235294342041016 0.6196078658103943
0.9357143044471741 0.4045476019382477 0.005533596966415644 0.4313725531101227 0.42352941632270813 0.364705890417099
0.9753694534301758 0.4418127238750458 0.44940710067749023 0.6352941393852234 0.658823549747467 0.6509804129600525
0.9753694534301758 0.3276488184928894 0.00909090880304575 0.3960784375667572 0.38823530077934265 0.34117648005485535
0.9770935773849487 0.3816516697406769 0.6750988364219666 0.6078431606292725 0.6313725709915161 0.6235294342041016
0.9837438464164734 0.356860876083374 0.9743083119392395 0.37254902720451355 0.3490196168422699 0.29411765933036804
0.9770935773849487 0.32606980204582214 0.3699604868888855 0.7176470756530762 0.7254902124404907 0.7215686440467834
0.9834975600242615 0.38686245679855347 0.9158102869987488 0.4470588266849518 0.4274509847164154 0.3490196168422699
0.9768472909927368 0.3852834403514862 0.6616600751876831 0.6117647290229797 0.6313725709915161 0.6431372761726379
0.9748768210411072 0.4249171018600464 0.5134387612342834 0.6313725709915161 0.6549019813537598 0.6549019813537598
0.9775862097740173 0.42996999621391296 0.7245059013366699 0.5647059082984924 0.572549045085907 0.5529412031173706
0.9098522067070007 0.44607609510421753 0.005928853526711464 0.4941176474094391 0.501960813999176 0.40784314274787903
0.9790640473365784 0.36333492398262024 0.015019763261079788 0.5764706134796143 0.545098066329956 0.501960813999176
0.953201949596405 0.453971266746521 0.005928853526711464 0.4156862795352936 0.4274509847164154 0.3450980484485626
0.9761083722114563 0.43028581142425537 0.6442687511444092 0.5843137502670288 0.5843137502670288 0.5843137502670288
0.9798029661178589 0.4569714069366455 0.9885375499725342 0.27450981736183167 0.25882354378700256 0.21176470816135406
0.9573891758918762 0.44718143343925476 0.005928853526711464 0.4470588266849518 0.45098039507865906 0.3803921639919281
0.9775862097740173 0.4283909797668457 0.7229248881340027 0.5568627715110779 0.5647059082984924 0.545098066329956
0.9802955389022827 0.3996526002883911 0.9877470135688782 0.2666666805744171 0.24313725531101227 0.1882352977991104
0.9837438464164734 0.454129159450531 0.9146245121955872 0.4313725531101227 0.40784314274787903 0.3529411852359772
0.9807881712913513 0.3933365046977997 0.21027667820453644 0.7333333492279053 0.7450980544090271 0.6784313917160034
0.9165024757385254 0.45886626839637756 0.005928853526711464 0.5607843399047852 0.5568627715110779 0.4470588266849518
0.9832512140274048 0.42602241039276123 0.8750988245010376 0.47058823704719543 0.4470588266849518 0.3921568691730499
0.9810344576835632 0.40375807881355286 0.04940711334347725 0.7098039388656616 0.7058823704719543 0.5960784554481506
0.9807881712913513 0.41481131315231323 0.2494071125984192 0.7333333492279053 0.7372549176216125 0.6823529601097107
0.9807881712913513 0.43518081307411194 0.2873517870903015 0.6431372761726379 0.6274510025978088 0.529411792755127
0.9810344576835632 0.4536554515361786 0.06482213735580444 0.6980392336845398 0.7254902124404907 0.6549019813537598
0.9783251285552979 0.37817779183387756 0.7525691986083984 0.5686274766921997 0.5882353186607361 0.572549045085907
0.9790640473365784 0.3426496088504791 0.7667984366416931 0.5843137502670288 0.6039215922355652 0.615686297416687
0.9773399233818054 0.4718143045902252 0.7142292261123657 0.5647059082984924 0.5764706134796143 0.5490196347236633
0.9817733764648438 0.3426496088504791 0.145454540848732 0.7176470756530762 0.7098039388656616 0.6627451181411743
0.9810344576835632 0.40912678837776184 0.04466403275728226 0.45098039507865906 0.4431372582912445 0.3607843220233917
0.9807881712913513 0.34912362694740295 0.06324110925197601 0.7254902124404907 0.7058823704719543 0.6313725709915161
0.9748768210411072 0.43218064308166504 0.5011857748031616 0.6274510025978088 0.6509804129600525 0.6431372761726379
0.9753694534301758 0.4448128938674927 0.4525691568851471 0.6392157077789307 0.6627451181411743 0.6549019813537598
0.9775862097740173 0.38370439410209656 0.7138339877128601 0.5803921818733215 0.6039215922355652 0.5960784554481506
0.868719220161438 0.3421759009361267 0.9909090995788574 0.40784314274787903 0.3960784375667572 0.3607843220233917
0.9783251285552979 0.430127888917923 0.7711462378501892 0.5647059082984924 0.5607843399047852 0.545098066329956
0.9785714149475098 0.4509710967540741 0.7845849990844727 0.5529412031173706 0.5607843399047852 0.5176470875740051
0.9214285612106323 0.3502289652824402 0.9893280863761902 0.38823530077934265 0.3803921639919281 0.3333333432674408
0.9118226766586304 0.4658139944076538 0.005928853526711464 0.46666666865348816 0.4901960790157318 0.38823530077934265
0.9837438464164734 0.3585978150367737 0.9754940867424011 0.3686274588108063 0.3450980484485626 0.29019609093666077
0.9807881712913513 0.39191535115242004 0.23162055015563965 0.7254902124404907 0.729411780834198 0.6666666865348816
0.9743842482566833 0.46660351753234863 0.5268774628639221 0.5960784554481506 0.6313725709915161 0.6274510025978088
0.9783251285552979 0.4255487024784088 0.7782608866691589 0.5568627715110779 0.5686274766921997 0.5333333611488342
0.9807881712913513 0.4571293294429779 0.2715415060520172 0.6705882549285889 0.6784313917160034 0.5960784554481506
0.9815270900726318 0.4285488724708557 0.05138339847326279 0.686274528503418 0.7058823704719543 0.5882353186607361
0.9753694534301758 0.3974419832229614 0.5699604749679565 0.6274510025978088 0.6509804129600525 0.6509804129600525
0.9389162659645081 0.37170377373695374 0.9889327883720398 0.37254902720451355 0.3607843220233917 0.3019607961177826
0.9773399233818054 0.46123480796813965 0.7063241004943848 0.5607843399047852 0.5647059082984924 0.5333333611488342
0.9751231670379639 0.42602241039276123 0.5723320245742798 0.6117647290229797 0.6352941393852234 0.6352941393852234
0.9837438464164734 0.42112743854522705 0.9529644250869751 0.3843137323856354 0.3529411852359772 0.3019607961177826
0.9125615954399109 0.3647560477256775 0.9897233247756958 0.38823530077934265 0.3803921639919281 0.3333333432674408
0.9766010046005249 0.3682298958301544 0.6490118503570557 0.6313725709915161 0.6470588445663452 0.658823549747467
0.9815270900726318 0.3735986053943634 0.13162055611610413 0.7176470756530762 0.7137255072593689 0.6313725709915161
0.9810344576835632 0.4476551413536072 0.15375493466854095 0.7019608020782471 0.7019608020782471 0.6549019813537598
0.9832512140274048 0.4075477719306946 0.9071146249771118 0.4470588266849518 0.42352941632270813 0.3764705955982208
0.9780788421630859 0.3903363347053528 0.752964437007904 0.5686274766921997 0.5882353186607361 0.572549045085907
0.9773399233818054 0.36601927876472473 0.6889328360557556 0.6039215922355652 0.6196078658103943 0.615686297416687
0.9768472909927368 0.3394915461540222 0.6320158243179321 0.6470588445663452 0.6509804129600525 0.6666666865348816
0.9300492405891418 0.338228315114975 0.9889327883720398 0.37254902720451355 0.35686275362968445 0.3137255012989044
0.932758629322052 0.38307279348373413 0.9889327883720398 0.3686274588108063 0.3607843220233917 0.30980393290519714
0.9756157398223877 0.34091266989707947 0.34110671281814575 0.6627451181411743 0.6823529601097107 0.6941176652908325
0.9059113264083862 0.3224380314350128 0.007509881630539894 0.5254902243614197 0.5215686559677124 0.4431372582912445
0.9810344576835632 0.402652770280838 0.0470355749130249 0.658823549747467 0.6509804129600525 0.5529412031173706
0.9751231670379639 0.3855992555618286 0.552173912525177 0.6196078658103943 0.6549019813537598 0.6509804129600525
0.93916255235672 0.3243328630924225 0.00830039568245411 0.5215686559677124 0.5254902243614197 0.4627451002597809
0.9807881712913513 0.4230222702026367 0.23557312786579132 0.7058823704719543 0.7176470756530762 0.6509804129600525
0.9652709364891052 0.43833884596824646 0.005533596966415644 0.46666666865348816 0.47843137383461 0.37254902720451355
0.9761083722114563 0.4479709565639496 0.38695651292800903 0.6705882549285889 0.6941176652908325 0.6941176652908325
0.9830049276351929 0.4282330572605133 0.821739137172699 0.5215686559677124 0.5215686559677124 0.4274509847164154
0.9756157398223877 0.33143851161003113 0.552173912525177 0.6705882549285889 0.686274528503418 0.7215686440467834
0.9810344576835632 0.37517765164375305 0.2347826063632965 0.7176470756530762 0.7254902124404907 0.6705882549285889
0.9194581508636475 0.37533554434776306 0.9893280863761902 0.3803921639919281 0.364705890417099 0.3294117748737335
0.9832512140274048 0.43833884596824646 0.8537549376487732 0.4901960790157318 0.46666666865348816 0.40392157435417175
0.8834975361824036 0.4653402864933014 0.005928853526711464 0.4941176474094391 0.5058823823928833 0.4313725531101227
0.9815270900726318 0.3701247572898865 0.156521737575531 0.7137255072593689 0.7137255072593689 0.6196078658103943
0.9756157398223877 0.40691614151000977 0.5968379378318787 0.6117647290229797 0.6352941393852234 0.6352941393852234
0.9812808036804199 0.4713405966758728 0.8035573363304138 0.4941176474094391 0.501960813999176 0.4588235318660736
0.8963054418563843 0.34928154945373535 0.007509881630539894 0.6039215922355652 0.615686297416687 0.5490196347236633
0.9753694534301758 0.40675824880599976 0.5707510113716125 0.6274510025978088 0.6509804129600525 0.6431372761726379
0.9768472909927368 0.4631296396255493 0.6841897368431091 0.5647059082984924 0.5764706134796143 0.5490196347236633
0.9834975600242615 0.3789673149585724 0.939130425453186 0.4313725531101227 0.4000000059604645 0.3490196168422699
0.9763546586036682 0.34075477719306946 0.6134387254714966 0.6392157077789307 0.658823549747467 0.6823529601097107
0.9815270900726318 0.36980894207954407 0.14940711855888367 0.7137255072593689 0.7098039388656616 0.6274510025978088
0.9231526851654053 0.3453339636325836 0.9893280863761902 0.3843137323856354 0.3686274588108063 0.32549020648002625
0.9061576128005981 0.3508605659008026 0.007905138656497002 0.5098039507865906 0.5058823823928833 0.42352941632270813
0.9834975600242615 0.34643927216529846 0.9114624261856079 0.48235294222831726 0.4627451002597809 0.3764705955982208
0.9216748476028442 0.4446549713611603 0.005928853526711464 0.5803921818733215 0.5607843399047852 0.48235294222831726
0.9839901328086853 0.4258645176887512 0.9794466495513916 0.33725491166114807 0.3137255012989044 0.25882354378700256
0.9216748476028442 0.45618191361427307 0.005928853526711464 0.501960813999176 0.501960813999176 0.3921568691730499
0.956403911113739 0.44070741534233093 0.9885375499725342 0.3137255012989044 0.2980392277240753 0.250980406999588
0.9770935773849487 0.4331280589103699 0.6916996240615845 0.5647059082984924 0.5686274766921997 0.5490196347236633
0.9798029661178589 0.4560239911079407 0.2960474193096161 0.5607843399047852 0.5647059082984924 0.4941176474094391
0.9751231670379639 0.37849360704421997 0.530434787273407 0.6392157077789307 0.6627451181411743 0.6627451181411743
0.9807881712913513 0.4141796827316284 0.17865613102912903 0.7098039388656616 0.7058823704719543 0.6274510025978088
0.9665024876594543 0.3194378614425659 0.9877470135688782 0.33725491166114807 0.32156863808631897 0.27843138575553894
0.9741379022598267 0.46928784251213074 0.3383399248123169 0.7333333492279053 0.7450980544090271 0.7098039388656616
0.9763546586036682 0.3268592953681946 0.4470355808734894 0.6784313917160034 0.6941176652908325 0.7372549176216125
0.9746305346488953 0.35765039920806885 0.3379446566104889 0.729411780834198 0.7647058963775635 0.7529411911964417
0.9455664753913879 0.3255960941314697 0.00830039568245411 0.6431372761726379 0.6392157077789307 0.5686274766921997
0.9773399233818054 0.3470709025859833 0.6671936511993408 0.7921568751335144 0.8078431487083435 0.8196078538894653
0.9820197224617004 0.32385915517807007 0.17984189093112946 0.7137255072593689 0.7058823704719543 0.6549019813537598
0.982758641242981 0.32006949186325073 0.8486166000366211 0.5843137502670288 0.5647059082984924 0.4901960790157318
0.9834975600242615 0.39191535115242004 0.9719367623329163 0.37254902720451355 0.34117648005485535 0.2980392277240753
0.929556667804718 0.37454602122306824 0.9889327883720398 0.3686274588108063 0.3607843220233917 0.3137255012989044
0.9418719410896301 0.4047055244445801 0.9885375499725342 0.3529411852359772 0.3450980484485626 0.29411765933036804
0.984236478805542 0.4713405966758728 0.9482213258743286 0.3803921639919281 0.3490196168422699 0.2980392277240753
0.9766010046005249 0.4309174120426178 0.3501976430416107 0.7372549176216125 0.7764706015586853 0.7803921699523926
0.9753694534301758 0.4174956679344177 0.4644268751144409 0.6470588445663452 0.6666666865348816 0.6784313917160034
0.9807881712913513 0.373124897480011 0.2648221254348755 0.6980392336845398 0.7058823704719543 0.6509804129600525
0.984236478805542 0.4481288492679596 0.9533596634864807 0.37254902720451355 0.3490196168422699 0.29411765933036804
0.9756157398223877 0.40691614151000977 0.45652174949645996 0.6431372761726379 0.6666666865348816 0.6666666865348816
0.9807881712913513 0.4053371250629425 0.2233201563358307 0.7333333492279053 0.7411764860153198 0.686274528503418
0.9527093768119812 0.37201958894729614 0.007905138656497002 0.4627451002597809 0.4745098054409027 0.4000000059604645
0.9761083722114563 0.3500710427761078 0.5940711498260498 0.6352941393852234 0.6549019813537598 0.6705882549285889
0.9746305346488953 0.4116532504558563 0.5355731248855591 0.615686297416687 0.6509804129600525 0.6470588445663452
0.9807881712913513 0.44086530804634094 0.1822134405374527 0.7098039388656616 0.7058823704719543 0.6352941393852234
0.945320188999176 0.3614400625228882 0.9885375499725342 0.37254902720451355 0.33725491166114807 0.3019607961177826
0.9815270900726318 0.33191221952438354 0.20909090340137482 0.7137255072593689 0.7098039388656616 0.6392157077789307
0.9810344576835632 0.40360018610954285 0.17865613102912903 0.7058823704719543 0.7098039388656616 0.6392157077789307
0.984236478805542 0.44954997301101685 0.9750987887382507 0.3450980484485626 0.3176470696926117 0.24705882370471954
