0.7857142686843872 0.2851729094982147 0.9932806491851807 0.250980406999588 0.2549019753932953 0.26274511218070984
0.8349753618240356 0.1980104148387909 0.006719367578625679 0.5882353186607361 0.6000000238418579 0.5176470875740051
0.9815270900726318 0.2695404887199402 0.23201580345630646 0.7058823704719543 0.7098039388656616 0.6392157077789307
0.9780788421630859 0.18553608655929565 0.6264821887016296 0.7411764860153198 0.7333333492279053 0.6823529601097107
0.8955665230751038 0.16864044964313507 0.0071146246045827866 0.658823549747467 0.6666666865348816 0.5803921818733215
0.9807881712913513 0.23322279751300812 0.10355731099843979 0.5764706134796143 0.5882353186607361 0.545098066329956
0.9780788421630859 0.28375178575515747 0.6758893132209778 0.6627451181411743 0.6823529601097107 0.6941176652908325
0.9798029661178589 0.178430438041687 0.8118577003479004 0.43529412150382996 0.4470588266849518 0.5058823823928833
0.9783251285552979 0.2935417592525482 0.3067193627357483 0.5137255191802979 0.5058823823928833 0.4470588266849518
0.9768472909927368 0.23701247572898865 0.5750988125801086 0.7176470756530762 0.7333333492279053 0.7372549176216125
0.8837438225746155 0.2215379774570465 0.9901185631752014 0.3176470696926117 0.29411765933036804 0.24705882370471954
0.9768472909927368 0.28896257281303406 0.4110671877861023 0.7098039388656616 0.729411780834198 0.7450980544090271
0.7884236574172974 0.19027316570281982 0.006719367578625679 0.5686274766921997 0.5764706134796143 0.4941176474094391
0.9807881712913513 0.19785252213478088 0.3865612745285034 0.7568627595901489 0.7529411911964417 0.7333333492279053
0.9815270900726318 0.2676456570625305 0.261264830827713 0.7019608020782471 0.7098039388656616 0.658823549747467
0.9761083722114563 0.2876993417739868 0.4932806193828583 0.7019608020782471 0.7215686440467834 0.7333333492279053
0.9770935773849487 0.3069635331630707 0.3584980368614197 0.7333333492279053 0.7568627595901489 0.7568627595901489
0.7445812821388245 0.26369810104370117 0.9932806491851807 1.0 1.0 1.0
0.9817733764648438 0.24917100369930267 0.8201581239700317 0.6117647290229797 0.5843137502670288 0.5215686559677124
0.9815270900726318 0.2553292214870453 0.260869562625885 0.7137255072593689 0.7215686440467834 0.6705882549285889
0.9766010046005249 0.28612032532691956 0.4280632436275482 0.6980392336845398 0.729411780834198 0.7372549176216125
0.9830049276351929 0.21427443623542786 0.939130425453186 0.45098039507865906 0.4274509847164154 0.37254902720451355
0.9820197224617004 0.2905416190624237 0.15849801898002625 0.6941176652908325 0.6980392336845398 0.6352941393852234
0.9805418848991394 0.17179851233959198 0.8707509636878967 0.5607843399047852 0.5411764979362488 0.46666666865348816
0.8926108479499817 0.23432812094688416 0.0071146246045827866 0.5490196347236633 0.5490196347236633 0.4470588266849518
0.9778324961662292 0.1954839676618576 0.6833992004394531 0.7137255072593689 0.7098039388656616 0.6901960968971252
0.9775862097740173 0.26859307289123535 0.6458498239517212 0.6980392336845398 0.7137255072593689 0.7176470756530762
0.9761083722114563 0.18553608655929565 0.6640316247940063 0.7019608020782471 0.7058823704719543 0.6509804129600525
0.9822660088539124 0.29685771465301514 0.13715414702892303 0.4588235318660736 0.45490196347236633 0.3764705955982208
0.9825122952461243 0.23322279751300812 0.15889328718185425 0.6980392336845398 0.7019608020782471 0.6392157077789307
0.9773399233818054 0.2267487794160843 0.3324110805988312 0.8235294222831726 0.8274509906768799 0.843137264251709
0.9810344576835632 0.24206537008285522 0.8023715615272522 0.5960784554481506 0.6196078658103943 0.6117647290229797
0.9832512140274048 0.1749565750360489 0.6229249238967896 0.07058823853731155 0.07058823853731155 0.07058823853731155
0.7950738668441772 0.1869572103023529 0.9916995763778687 0.2823529541492462 0.2705882489681244 0.250980406999588
0.9815270900726318 0.2783830761909485 0.23320157825946808 0.7019608020782471 0.6980392336845398 0.6196078658103943
0.9465517401695251 0.2583293914794922 0.9885375499725342 0.3764705955982208 0.3529411852359772 0.30588236451148987
0.8953201770782471 0.2906995117664337 0.9901185631752014 0.3803921639919281 0.37254902720451355 0.32549020648002625
0.9834975600242615 0.30017369985580444 0.9509881138801575 0.43921568989753723 0.40784314274787903 0.35686275362968445
0.9810344576835632 0.17353545129299164 0.37272727489471436 0.08235294371843338 0.0784313753247261 0.05882352963089943
0.823645293712616 0.2640138864517212 0.006719367578625679 0.4941176474094391 0.5137255191802979 0.4274509847164154
0.884482741355896 0.23969683051109314 0.9905138611793518 0.30980393290519714 0.29411765933036804 0.250980406999588
0.8194581270217896 0.21648508310317993 0.006719367578625679 0.572549045085907 0.5803921818733215 0.48627451062202454
0.745320200920105 0.19722090661525726 0.9932806491851807 0.6980392336845398 0.729411780834198 0.7372549176216125
0.7460591197013855 0.2551713287830353 0.2964426875114441 0.4745098054409027 0.48235294222831726 0.47058823704719543
0.7763546705245972 0.2793304920196533 0.0071146246045827866 0.4901960790157318 0.4941176474094391 0.4313725531101227
0.8647783398628235 0.2295910269021988 0.9909090995788574 0.30588236451148987 0.29019609093666077 0.24705882370471954
0.9812808036804199 0.1983262300491333 0.4166007936000824 0.7490196228027344 0.7490196228027344 0.7176470756530762
0.8162561655044556 0.2638559937477112 0.9924901127815247 0.30588236451148987 0.29411765933036804 0.27450981736183167
0.9847290515899658 0.17337754368782043 0.5992094874382019 0.10196078568696976 0.09803921729326248 0.09019608050584793
0.7598522305488586 0.25090792775154114 0.27944663166999817 0.13725490868091583 0.15294118225574493 0.1568627506494522
0.9736453294754028 0.25169745087623596 0.9877470135688782 0.3333333432674408 0.3176470696926117 0.2705882489681244
0.9793103337287903 0.17874625325202942 0.1616600751876831 0.07058823853731155 0.07058823853731155 0.0784313753247261
0.8194581270217896 0.21648508310317993 0.006719367578625679 0.572549045085907 0.5803921818733215 0.48627451062202454
0.823645293712616 0.19390493631362915 0.991304337978363 0.3294117748737335 0.3137255012989044 0.2705882489681244
0.9623152613639832 0.19027316570281982 0.007905138656497002 0.5098039507865906 0.501960813999176 0.41960784792900085
0.9825122952461243 0.16627191007137299 0.9529644250869751 0.4117647111415863 0.3764705955982208 0.30980393290519714
0.9785714149475098 0.18743091821670532 0.5126482248306274 0.7686274647712708 0.7764706015586853 0.7254902124404907
0.7416256070137024 0.2581714689731598 0.2964426875114441 0.4901960790157318 0.49803921580314636 0.47843137383461
0.7918719053268433 0.3019106388092041 0.9932806491851807 0.33725491166114807 0.3333333432674408 0.3137255012989044
0.9184728860855103 0.2880151569843292 0.9893280863761902 0.3960784375667572 0.3803921639919281 0.3333333432674408
0.8795566558837891 0.23764409124851227 0.9905138611793518 0.3176470696926117 0.30980393290519714 0.26274511218070984
0.9830049276351929 0.1924838125705719 0.9699604511260986 0.37254902720451355 0.34117648005485535 0.2980392277240753
0.9770935773849487 0.18300963938236237 0.35098814964294434 0.7568627595901489 0.7882353067398071 0.7450980544090271
0.9830049276351929 0.17274592816829681 0.8003952503204346 0.16470588743686676 0.1568627506494522 0.1764705926179886
0.9812808036804199 0.24017053842544556 0.11660078912973404 0.5411764979362488 0.5686274766921997 0.5411764979362488
0.9768472909927368 0.3080688416957855 0.39920949935913086 0.6941176652908325 0.7137255072593689 0.7254902124404907
0.9763546586036682 0.27411970496177673 0.48102766275405884 0.7137255072593689 0.729411780834198 0.7411764860153198
0.8391625881195068 0.30285805463790894 0.9916995763778687 0.35686275362968445 0.3450980484485626 0.32549020648002625
0.9536945819854736 0.26290857791900635 0.9881423115730286 0.3490196168422699 0.3333333432674408 0.2862745225429535
0.9770935773849487 0.18316753208637238 0.34624505043029785 0.7686274647712708 0.8117647171020508 0.7568627595901489
0.9807881712913513 0.22785410284996033 0.7754940986633301 0.6470588445663452 0.6666666865348816 0.6784313917160034
0.8431034684181213 0.27775144577026367 0.9916995763778687 0.35686275362968445 0.3490196168422699 0.3019607961177826
0.9807881712913513 0.21159008145332336 0.7798418998718262 0.7647058963775635 0.7921568751335144 0.7647058963775635
0.8278325200080872 0.1721143275499344 0.006719367578625679 0.6627451181411743 0.6666666865348816 0.6117647290229797
0.8098522424697876 0.16169272363185883 0.9909090995788574 0.2862745225429535 0.2666666805744171 0.24313725531101227
0.9820197224617004 0.22943313419818878 0.8936758637428284 0.5333333611488342 0.5137255191802979 0.4274509847164154
0.9524630308151245 0.2698563039302826 0.006719367578625679 0.4117647111415863 0.40784314274787903 0.33725491166114807
0.7583743929862976 0.16848255693912506 0.0063241105526685715 0.6509804129600525 0.6352941393852234 0.5921568870544434
0.9815270900726318 0.1923259049654007 0.8308300375938416 0.5803921818733215 0.5647059082984924 0.529411792755127
0.9802955389022827 0.1691141575574875 0.8671936988830566 0.4000000059604645 0.3803921639919281 0.35686275362968445
0.9788177609443665 0.2185378223657608 0.6980237364768982 0.6705882549285889 0.686274528503418 0.6980392336845398
0.9770935773849487 0.23638086020946503 0.4110671877861023 0.7254902124404907 0.7490196228027344 0.7490196228027344
0.8177340030670166 0.2153797596693039 0.9916995763778687 0.3176470696926117 0.3019607961177826 0.25882354378700256
0.8630542159080505 0.2698563039302826 0.0063241105526685715 0.5411764979362488 0.5411764979362488 0.43921568989753723
0.8113300204277039 0.2706458270549774 0.006719367578625679 0.6235294342041016 0.6392157077789307 0.5411764979362488
0.9773399233818054 0.2471182644367218 0.38300395011901855 0.729411780834198 0.7450980544090271 0.7490196228027344
0.9229063987731934 0.21190589666366577 0.007509881630539894 0.5254902243614197 0.5254902243614197 0.4313725531101227
0.9729064106941223 0.19690510630607605 0.007509881630539894 0.45490196347236633 0.4431372582912445 0.3686274588108063
0.9770935773849487 0.22264330089092255 0.42964425683021545 0.729411780834198 0.7490196228027344 0.7647058963775635
0.7431034445762634 0.24190746247768402 0.9932806491851807 1.0 1.0 1.0
0.742118239402771 0.25469762086868286 0.9928853511810303 0.9803921580314636 1.0 0.9960784316062927
0.9770935773849487 0.22374862432479858 0.4276679754257202 0.729411780834198 0.7490196228027344 0.7607843279838562
0.9807881712913513 0.19706299901008606 0.11857707798480988 0.7215686440467834 0.7019608020782471 0.6274510025978088
0.9815270900726318 0.25485551357269287 0.24901185929775238 0.7176470756530762 0.7215686440467834 0.6666666865348816
0.8184729218482971 0.17716722190380096 0.006719367578625679 0.6000000238418579 0.615686297416687 0.5568627715110779
0.9692118167877197 0.16721932590007782 0.007509881630539894 0.5254902243614197 0.5176470875740051 0.4274509847164154
0.8743842244148254 0.26843518018722534 0.0063241105526685715 0.4745098054409027 0.4745098054409027 0.37254902720451355
0.9763546586036682 0.2526448667049408 0.4857707619667053 0.7215686440467834 0.7372549176216125 0.7490196228027344
0.8832512497901917 0.17448286712169647 0.9893280863761902 0.3529411852359772 0.32156863808631897 0.27843138575553894
0.9812808036804199 0.201326385140419 0.8150197863578796 0.6039215922355652 0.5921568870544434 0.5333333611488342
0.7815271019935608 0.2638559937477112 0.0071146246045827866 0.3764705955982208 0.37254902720451355 0.3019607961177826
0.979556679725647 0.2606979310512543 0.7320157885551453 0.6470588445663452 0.6666666865348816 0.6823529601097107
0.9812808036804199 0.206852987408638 0.21699604392051697 0.729411780834198 0.7215686440467834 0.6745098233222961
0.9812808036804199 0.23906521499156952 0.2806324064731598 0.7137255072593689 0.7176470756530762 0.6627451181411743
0.9083743691444397 0.18822042644023895 0.9889327883720398 0.3450980484485626 0.3176470696926117 0.27843138575553894
0.7849753499031067 0.2738038897514343 0.0071146246045827866 0.48235294222831726 0.48235294222831726 0.3803921639919281
0.9549261331558228 0.2845412790775299 0.9881423115730286 0.3960784375667572 0.3803921639919281 0.3333333432674408
0.923399031162262 0.21143217384815216 0.007509881630539894 0.49803921580314636 0.5058823823928833 0.4117647111415863
0.8379310369491577 0.2409600466489792 0.006719367578625679 0.4941176474094391 0.5098039507865906 0.4117647111415863
0.9815270900726318 0.2128533124923706 0.19130434095859528 0.7137255072593689 0.7176470756530762 0.6627451181411743
0.9706896543502808 0.22943313419818878 0.0071146246045827866 0.4313725531101227 0.4470588266849518 0.3803921639919281
0.9770935773849487 0.23511764407157898 0.5853754878044128 0.7176470756530762 0.7333333492279053 0.7372549176216125
0.931034505367279 0.17100900411605835 0.9877470135688782 0.3294117748737335 0.2980392277240753 0.24705882370471954
0.9061576128005981 0.16848255693912506 0.0071146246045827866 0.5372549295425415 0.5333333611488342 0.45098039507865906
0.748522162437439 0.19785252213478088 0.006719367578625679 0.5058823823928833 0.5254902243614197 0.43529412150382996
0.9768472909927368 0.26290857791900635 0.43913042545318604 0.7137255072593689 0.7333333492279053 0.7450980544090271
0.9672414064407349 0.29433128237724304 0.007905138656497002 0.48627451062202454 0.4941176474094391 0.40784314274787903
0.8049260973930359 0.1983262300491333 0.006719367578625679 0.5215686559677124 0.529411792755127 0.4470588266849518
0.7551724314689636 0.2843833863735199 0.9940711259841919 0.21960784494876862 0.21176470816135406 0.2235294133424759
0.9802955389022827 0.2040107399225235 0.3272727131843567 0.7647058963775635 0.7529411911964417 0.7176470756530762
0.8231527209281921 0.22232748568058014 0.9916995763778687 0.3137255012989044 0.2980392277240753 0.26274511218070984
0.9770935773849487 0.17669351398944855 0.36719366908073425 0.125490203499794 0.11764705926179886 0.12156862765550613
0.9807881712913513 0.2071688026189804 0.3083004057407379 0.7529411911964417 0.7607843279838562 0.7176470756530762
0.982758641242981 0.25943470001220703 0.918181836605072 0.4941176474094391 0.47058823704719543 0.3843137323856354
0.9773399233818054 0.1842728555202484 0.6675889492034912 0.686274528503418 0.6980392336845398 0.6549019813537598
0.8472906351089478 0.24569714069366455 0.006719367578625679 0.5254902243614197 0.5333333611488342 0.4470588266849518
0.7894088625907898 0.15900836884975433 0.0063241105526685715 0.6941176652908325 0.7098039388656616 0.6549019813537598
0.9830049276351929 0.20527395606040955 0.9778656363487244 0.35686275362968445 0.32549020648002625 0.27450981736183167
0.8421182036399841 0.22043265402317047 0.006719367578625679 0.5764706134796143 0.5921568870544434 0.4941176474094391
0.9807881712913513 0.20243170857429504 0.5490118861198425 0.7176470756530762 0.7411764860153198 0.7333333492279053
0.9748768210411072 0.22627507150173187 0.0071146246045827866 0.4470588266849518 0.43921568989753723 0.38823530077934265
0.9729064106941223 0.31201642751693726 0.31501975655555725 0.5176470875740051 0.5058823823928833 0.43921568989753723
0.7980295419692993 0.18443076312541962 0.9916995763778687 0.2823529541492462 0.2705882489681244 0.250980406999588
0.9751231670379639 0.281067430973053 0.31383398175239563 0.529411792755127 0.5098039507865906 0.43529412150382996
0.9810344576835632 0.17464077472686768 0.4683794379234314 0.10980392247438431 0.10588235408067703 0.09803921729326248
0.9800492525100708 0.20637927949428558 0.3889327943325043 0.7490196228027344 0.7490196228027344 0.7176470756530762
0.9832512140274048 0.30901625752449036 0.9280632138252258 0.47843137383461 0.4588235318660736 0.3843137323856354
0.9768472909927368 0.18506237864494324 0.04782608523964882 0.46666666865348816 0.4588235318660736 0.40784314274787903
0.935960590839386 0.2532764971256256 0.006719367578625679 0.4313725531101227 0.4117647111415863 0.33725491166114807
0.9807881712913513 0.22864361107349396 0.10553359985351562 0.6352941393852234 0.6666666865348816 0.615686297416687
0.7527093887329102 0.22216959297657013 0.006719367578625679 0.43921568989753723 0.43529412150382996 0.3529411852359772
0.9325123429298401 0.2128533124923706 0.007509881630539894 0.6039215922355652 0.6039215922355652 0.4941176474094391
0.8128078579902649 0.3020685315132141 0.0063241105526685715 0.615686297416687 0.6235294342041016 0.5411764979362488
0.7834975123405457 0.2722248435020447 0.9932806491851807 0.250980406999588 0.24313725531101227 0.24705882370471954
0.9766010046005249 0.25359228253364563 0.46086955070495605 0.7215686440467834 0.7372549176216125 0.7490196228027344
0.9657635688781738 0.1899573653936386 0.007905138656497002 0.6235294342041016 0.615686297416687 0.5333333611488342
0.8731527328491211 0.23353861272335052 0.9905138611793518 0.34117648005485535 0.32549020648002625 0.2823529541492462
0.9591132998466492 0.2952786982059479 0.007509881630539894 0.3843137323856354 0.37254902720451355 0.3137255012989044
0.8073891401290894 0.17306174337863922 0.991304337978363 0.32156863808631897 0.30588236451148987 0.2705882489681244
0.9472906589508057 0.18316753208637238 0.007905138656497002 0.529411792755127 0.5215686559677124 0.43921568989753723
0.9785714149475098 0.28075161576271057 0.020553359761834145 0.20392157137393951 0.1921568661928177 0.125490203499794
0.9763546586036682 0.24617084860801697 0.5395256876945496 0.7215686440467834 0.7372549176216125 0.7490196228027344
0.8790640234947205 0.183799147605896 0.9897233247756958 0.3333333432674408 0.30588236451148987 0.2666666805744171
0.8261083960533142 0.28548872470855713 0.0063241105526685715 0.5254902243614197 0.529411792755127 0.4588235318660736
0.9785714149475098 0.23464392125606537 0.6881422996520996 0.6784313917160034 0.6941176652908325 0.7058823704719543
0.9773399233818054 0.28564661741256714 0.6312252879142761 0.6901960968971252 0.7058823704719543 0.7019608020782471
0.982758641242981 0.17321963608264923 0.21778656542301178 0.12156862765550613 0.10196078568696976 0.09019608050584793
0.9763546586036682 0.2960682213306427 0.4581027626991272 0.6980392336845398 0.7176470756530762 0.7333333492279053
0.9820197224617004 0.2360650599002838 0.2130434811115265 0.7098039388656616 0.7176470756530762 0.6666666865348816
0.9775862097740173 0.3047528862953186 0.664426863193512 0.6509804129600525 0.6745098233222961 0.6745098233222961
0.9790640473365784 0.30617401003837585 0.7454545497894287 0.6274510025978088 0.6431372761726379 0.6549019813537598
0.9785714149475098 0.259276807308197 0.6901185512542725 0.6745098233222961 0.6901960968971252 0.6941176652908325
0.9366995096206665 0.24380230903625488 0.9889327883720398 0.34117648005485535 0.32549020648002625 0.27843138575553894
0.9802955389022827 0.2471182644367218 0.07747035473585129 0.7058823704719543 0.7137255072593689 0.6274510025978088
0.9761083722114563 0.2564345598220825 0.5138339996337891 0.7215686440467834 0.7372549176216125 0.7411764860153198
0.7721675038337708 0.21664297580718994 0.006719367578625679 0.47058823704719543 0.47058823704719543 0.3686274588108063
0.926354706287384 0.23480182886123657 0.0071146246045827866 0.4941176474094391 0.501960813999176 0.4156862795352936
0.9788177609443665 0.21411652863025665 0.3683794438838959 0.6392157077789307 0.6627451181411743 0.6627451181411743
0.9790640473365784 0.2564345598220825 0.03438735008239746 0.20000000298023224 0.1568627506494522 0.13333334028720856
0.982758641242981 0.2414337545633316 0.9778656363487244 0.364705890417099 0.33725491166114807 0.27450981736183167
0.9817733764648438 0.21964314579963684 0.8403161764144897 0.5764706134796143 0.572549045085907 0.4941176474094391
0.9822660088539124 0.2065371870994568 0.8648221492767334 0.5607843399047852 0.5411764979362488 0.46666666865348816
0.742118239402771 0.15916627645492554 0.005928853526711464 0.7254902124404907 0.7333333492279053 0.6823529601097107
0.9807881712913513 0.21159008145332336 0.7798418998718262 0.7647058963775635 0.7921568751335144 0.7647058963775635
0.8334975242614746 0.20037896931171417 0.006719367578625679 0.4627451002597809 0.4745098054409027 0.3921568691730499
0.9820197224617004 0.21048475801944733 0.8367589116096497 0.5921568870544434 0.5686274766921997 0.5137255191802979
0.8682265877723694 0.3071214258670807 0.0063241105526685715 0.45490196347236633 0.46666666865348816 0.3843137323856354
0.8709359765052795 0.2212221622467041 0.9905138611793518 0.34117648005485535 0.3176470696926117 0.2705882489681244
0.9790640473365784 0.189325749874115 0.2956521809101105 0.772549033164978 0.7764706015586853 0.7137255072593689
0.9581280946731567 0.2840675711631775 0.0071146246045827866 0.43921568989753723 0.4313725531101227 0.37254902720451355
0.9325123429298401 0.27664613723754883 0.9889327883720398 0.38823530077934265 0.37254902720451355 0.3294117748737335
0.9788177609443665 0.24538134038448334 0.03162055462598801 0.1921568661928177 0.1568627506494522 0.12156862765550613
0.9539408683776855 0.20827412605285645 0.007509881630539894 0.3921568691730499 0.3803921639919281 0.30588236451148987
0.9780788421630859 0.1871151179075241 0.4023715555667877 0.7607843279838562 0.7411764860153198 0.7254902124404907
0.876600980758667 0.18490447103977203 0.0071146246045827866 0.6274510025978088 0.6235294342041016 0.5411764979362488
0.9785714149475098 0.21111637353897095 0.5146244764328003 0.501960813999176 0.5098039507865906 0.46666666865348816
0.7568965554237366 0.26338228583335876 0.29525691270828247 0.09803921729326248 0.12941177189350128 0.13725490868091583
0.9724137783050537 0.20274750888347626 0.9869565367698669 0.3294117748737335 0.3137255012989044 0.2666666805744171
0.8633005023002625 0.26906678080558777 0.0063241105526685715 0.5176470875740051 0.5176470875740051 0.40784314274787903
0.9633004665374756 0.30364754796028137 0.007905138656497002 0.4627451002597809 0.4627451002597809 0.42352941632270813
0.9768472909927368 0.22216959297657013 0.5375494360923767 0.7254902124404907 0.7411764860153198 0.7450980544090271
0.757881760597229 0.2816990315914154 0.007509881630539894 0.23529411852359772 0.22745098173618317 0.18039216101169586
0.9830049276351929 0.1871151179075241 0.9169960618019104 0.48627451062202454 0.45490196347236633 0.40392157435417175
0.9731526970863342 0.3126480281352997 0.00830039568245411 0.35686275362968445 0.3529411852359772 0.3333333432674408
0.8320196866989136 0.28296226263046265 0.992094874382019 0.3294117748737335 0.3176470696926117 0.29019609093666077
0.9714285731315613 0.29512080550193787 0.3229249119758606 0.4901960790157318 0.47843137383461 0.4117647111415863
0.9790640473365784 0.2355913519859314 0.7122529745101929 0.658823549747467 0.6784313917160034 0.6941176652908325
0.7881773114204407 0.2610137462615967 0.0071146246045827866 0.4313725531101227 0.43921568989753723 0.3450980484485626
0.9738916158676147 0.2526448667049408 0.9877470135688782 0.3529411852359772 0.33725491166114807 0.29019609093666077
0.9807881712913513 0.29954206943511963 0.3011857569217682 0.5215686559677124 0.5098039507865906 0.45098039507865906
0.9224137663841248 0.27427759766578674 0.9893280863761902 0.37254902720451355 0.35686275362968445 0.30980393290519714
0.9766010046005249 0.22816990315914154 0.5332015752792358 0.7176470756530762 0.7372549176216125 0.7490196228027344
0.947044312953949 0.28043580055236816 0.0071146246045827866 0.40392157435417175 0.4000000059604645 0.3176470696926117
0.9125615954399109 0.2551713287830353 0.006719367578625679 0.3686274588108063 0.38823530077934265 0.2980392277240753
0.9815270900726318 0.2123796045780182 0.18339921534061432 0.7215686440467834 0.7137255072593689 0.6627451181411743
0.9817733764648438 0.22816990315914154 0.22727273404598236 0.7215686440467834 0.729411780834198 0.6784313917160034
0.8004925847053528 0.1954839676618576 0.006719367578625679 0.5843137502670288 0.572549045085907 0.5058823823928833
0.9386699795722961 0.23053844273090363 0.0071146246045827866 0.4274509847164154 0.41960784792900085 0.32156863808631897
0.9810344576835632 0.21206378936767578 0.29328063130378723 0.729411780834198 0.7215686440467834 0.6745098233222961
0.9800492525100708 0.2038528323173523 0.6335968375205994 0.4745098054409027 0.4431372582912445 0.4000000059604645
0.9830049276351929 0.28327807784080505 0.9193676114082336 0.4941176474094391 0.4627451002597809 0.37254902720451355
0.9837438464164734 0.17306174337863922 0.7865612506866455 0.19607843458652496 0.1725490242242813 0.1882352977991104
0.982758641242981 0.19627349078655243 0.8778656125068665 0.5411764979362488 0.5176470875740051 0.4627451002597809
0.8953201770782471 0.1751144826412201 0.9889327883720398 0.3294117748737335 0.3019607961177826 0.26274511218070984
0.9822660088539124 0.28043580055236816 0.8466402888298035 0.5921568870544434 0.5843137502670288 0.501960813999176
0.9832512140274048 0.27490919828414917 0.9545454382896423 0.42352941632270813 0.3921568691730499 0.34117648005485535
0.8381773233413696 0.29433128237724304 0.9916995763778687 0.33725491166114807 0.32549020648002625 0.30588236451148987
0.9788177609443665 0.17653560638427734 0.7727272510528564 0.3450980484485626 0.37254902720451355 0.40392157435417175
0.9802955389022827 0.2696984112262726 0.7936758995056152 0.6078431606292725 0.6235294342041016 0.6274510025978088
0.8517241477966309 0.16042949259281158 0.006719367578625679 0.5686274766921997 0.5882353186607361 0.5098039507865906
0.9561576247215271 0.1757460981607437 0.007905138656497002 0.572549045085907 0.5647059082984924 0.48235294222831726
0.8512315154075623 0.24238118529319763 0.006719367578625679 0.5372549295425415 0.5372549295425415 0.43529412150382996
0.9780788421630859 0.1836412400007248 0.6498023867607117 0.6980392336845398 0.7098039388656616 0.6666666865348816
0.7955664992332458 0.20906363427639008 0.992094874382019 0.29019609093666077 0.27843138575553894 0.250980406999588
0.8036946058273315 0.15853466093540192 0.0063241105526685715 0.6470588445663452 0.6470588445663452 0.6078431606292725
0.9773399233818054 0.2355913519859314 0.625296413898468 0.7019608020782471 0.7215686440467834 0.7333333492279053
0.8231527209281921 0.17700931429862976 0.9909090995788574 0.3294117748737335 0.3019607961177826 0.27843138575553894
0.8135467767715454 0.2441181093454361 0.006719367578625679 0.6078431606292725 0.6196078658103943 0.5137255191802979
0.9753694534301758 0.23353861272335052 0.0071146246045827866 0.6000000238418579 0.5921568870544434 0.5098039507865906
0.9773399233818054 0.3129638433456421 0.6533597111701965 0.6509804129600525 0.6666666865348816 0.6784313917160034
0.9773399233818054 0.2360650599002838 0.6233201622962952 0.7019608020782471 0.7215686440467834 0.7333333492279053
0.9822660088539124 0.30348965525627136 0.8403161764144897 0.5960784554481506 0.5843137502670288 0.5176470875740051
0.7576354742050171 0.17606189846992493 0.9924901127815247 0.25882354378700256 0.250980406999588 0.26274511218070984
0.9773399233818054 0.24806568026542664 0.6324110627174377 0.7058823704719543 0.7215686440467834 0.7254902124404907
0.982758641242981 0.20495815575122833 0.8988142013549805 0.5215686559677124 0.4941176474094391 0.4313725531101227
0.9539408683776855 0.1897994577884674 0.007905138656497002 0.5333333611488342 0.5137255191802979 0.43529412150382996
0.9362068772315979 0.21206378936767578 0.007509881630539894 0.501960813999176 0.5058823823928833 0.4431372582912445
0.9330049157142639 0.18158850073814392 0.9877470135688782 0.33725491166114807 0.3137255012989044 0.25882354378700256
0.8472906351089478 0.24032843112945557 0.006719367578625679 0.45490196347236633 0.4470588266849518 0.364705890417099
0.9810344576835632 0.2093794345855713 0.28774702548980713 0.7568627595901489 0.7450980544090271 0.7098039388656616
0.9790640473365784 0.2698563039302826 0.7213438749313354 0.6509804129600525 0.6666666865348816 0.6784313917160034
0.9822660088539124 0.1896415650844574 0.8695651888847351 0.5372549295425415 0.529411792755127 0.4470588266849518
0.9768472909927368 0.2764882445335388 0.4102766811847687 0.7215686440467834 0.7254902124404907 0.7411764860153198
0.7423645257949829 0.28264644742012024 0.29407113790512085 0.4941176474094391 0.5058823823928833 0.47843137383461
0.9783251285552979 0.18616768717765808 0.4577075242996216 0.7686274647712708 0.7529411911964417 0.7098039388656616
0.9790640473365784 0.18300963938236237 0.22727273404598236 0.5176470875740051 0.5372549295425415 0.5098039507865906
0.7834975123405457 0.20464235544204712 0.9924901127815247 0.30588236451148987 0.29411765933036804 0.27450981736183167
0.9817733764648438 0.23338070511817932 0.23517785966396332 0.7372549176216125 0.729411780834198 0.6823529601097107
0.8810344934463501 0.23717038333415985 0.006719367578625679 0.5764706134796143 0.5764706134796143 0.48235294222831726
0.8901478052139282 0.16895626485347748 0.0071146246045827866 0.5960784554481506 0.5882353186607361 0.529411792755127
0.9775862097740173 0.22280119359493256 0.6229249238967896 0.7058823704719543 0.7215686440467834 0.7333333492279053
0.9522167444229126 0.3047528862953186 0.9885375499725342 0.364705890417099 0.3490196168422699 0.3019607961177826
0.9775862097740173 0.31201642751693726 0.6739130616188049 0.6431372761726379 0.658823549747467 0.6705882549285889
0.982758641242981 0.27696195244789124 0.8818181753158569 0.545098066329956 0.5215686559677124 0.43529412150382996
0.743596076965332 0.2123796045780182 0.9932806491851807 0.6470588445663452 0.6745098233222961 0.7137255072593689
0.9834975600242615 0.29764723777770996 0.9411067366600037 0.4588235318660736 0.4313725531101227 0.3607843220233917
0.9046797752380371 0.2894362807273865 0.0063241105526685715 0.4745098054409027 0.45098039507865906 0.35686275362968445
0.9812808036804199 0.26369810104370117 0.2762845754623413 0.7176470756530762 0.7098039388656616 0.6627451181411743
0.9396551847457886 0.27727773785591125 0.9889327883720398 0.3764705955982208 0.364705890417099 0.30588236451148987
0.9775862097740173 0.23495973646640778 0.3640316128730774 0.7450980544090271 0.7647058963775635 0.7764706015586853
0.7866995334625244 0.15963998436927795 0.0063241105526685715 0.5843137502670288 0.5960784554481506 0.5529412031173706
0.8972906470298767 0.2843833863735199 0.9901185631752014 0.33725491166114807 0.32156863808631897 0.27843138575553894
0.9783251285552979 0.19927364587783813 0.6284584999084473 0.2235294133424759 0.20392157137393951 0.1882352977991104
0.8527093529701233 0.178272545337677 0.9901185631752014 0.34117648005485535 0.30588236451148987 0.27843138575553894
0.7743842601776123 0.3129638433456421 0.006719367578625679 0.3921568691730499 0.3686274588108063 0.30588236451148987
0.9830049276351929 0.18727301061153412 0.9521738886833191 0.4117647111415863 0.3803921639919281 0.3294117748737335
0.9780788421630859 0.22216959297657013 0.3181818127632141 0.5137255191802979 0.5058823823928833 0.4588235318660736
0.9761083722114563 0.2619611620903015 0.4936758875846863 0.7176470756530762 0.7333333492279053 0.7450980544090271
0.9403941035270691 0.22532765567302704 0.0071146246045827866 0.38823530077934265 0.3960784375667572 0.3137255012989044
0.9820197224617004 0.28817304968833923 0.8252964615821838 0.5882353186607361 0.5803921818733215 0.5215686559677124
0.9783251285552979 0.2843833863735199 0.009486165829002857 0.3803921639919281 0.3490196168422699 0.27450981736183167
0.7448275685310364 0.31438496708869934 0.9932806491851807 0.8509804010391235 0.8784313797950745 0.9019607901573181
0.7603448033332825 0.22264330089092255 0.9932806491851807 0.2862745225429535 0.2862745225429535 0.29411765933036804
0.9849753975868225 0.17148271203041077 0.0071146246045827866 0.4117647111415863 0.4156862795352936 0.3529411852359772
0.9354679584503174 0.20527395606040955 0.007509881630539894 0.658823549747467 0.6352941393852234 0.572549045085907
0.9379310607910156 0.3134375512599945 0.007905138656497002 0.5411764979362488 0.5333333611488342 0.45098039507865906
0.9536945819854736 0.28248855471611023 0.0071146246045827866 0.5176470875740051 0.5137255191802979 0.43529412150382996
0.8660098314285278 0.21174798905849457 0.9905138611793518 0.32549020648002625 0.32549020648002625 0.2862745225429535
0.9802955389022827 0.19327333569526672 0.5494071245193481 0.7843137383460999 0.8078431487083435 0.7921568751335144
0.9810344576835632 0.2185378223657608 0.29446640610694885 0.6039215922355652 0.5921568870544434 0.5568627715110779
0.9822660088539124 0.2272224873304367 0.9106719493865967 0.501960813999176 0.48627451062202454 0.38823530077934265
0.7741379141807556 0.28059372305870056 0.9932806491851807 0.24705882370471954 0.24313725531101227 0.23529411852359772
0.9761083722114563 0.31185850501060486 0.5857707262039185 0.6823529601097107 0.7058823704719543 0.7058823704719543
0.7445812821388245 0.1842728555202484 0.9932806491851807 0.6980392336845398 0.7372549176216125 0.7411764860153198
0.9761083722114563 0.24364440143108368 0.5075098872184753 0.7254902124404907 0.7411764860153198 0.7529411911964417
0.9820197224617004 0.28896257281303406 0.9873517751693726 0.2549019753932953 0.23137255012989044 0.1764705926179886
0.9822660088539124 0.24048633873462677 0.19090908765792847 0.6980392336845398 0.7019608020782471 0.6470588445663452
0.884482741355896 0.22848570346832275 0.9901185631752014 0.35686275362968445 0.3333333432674408 0.2862745225429535
0.7502462863922119 0.27759355306625366 0.9936758875846863 0.2549019753932953 0.2823529541492462 0.3137255012989044
0.7667487859725952 0.19374704360961914 0.9928853511810303 0.29019609093666077 0.2862745225429535 0.27843138575553894
0.9807881712913513 0.24001263082027435 0.7916995882987976 0.6235294342041016 0.6392157077789307 0.6509804129600525
0.982758641242981 0.25753986835479736 0.9581027626991272 0.4117647111415863 0.3843137323856354 0.32156863808631897
0.9807881712913513 0.19753670692443848 0.19565217196941376 0.7254902124404907 0.729411780834198 0.658823549747467
0.9815270900726318 0.178272545337677 0.8853754997253418 0.5372549295425415 0.5098039507865906 0.43921568989753723
0.8039408922195435 0.17637769877910614 0.006719367578625679 0.6509804129600525 0.6392157077789307 0.572549045085907
0.9778324961662292 0.2415916621685028 0.664426863193512 0.6901960968971252 0.7058823704719543 0.7019608020782471
0.871921181678772 0.20353703200817108 0.0071146246045827866 0.4470588266849518 0.4588235318660736 0.3764705955982208
0.9807881712913513 0.1751144826412201 0.5992094874382019 0.13333334028720856 0.13725490868091583 0.14509804546833038
0.7527093887329102 0.16216643154621124 0.9924901127815247 0.30588236451148987 0.2980392277240753 0.3176470696926117
0.9820197224617004 0.2588030993938446 0.20395256578922272 0.7019608020782471 0.7019608020782471 0.6549019813537598
0.9812808036804199 0.20827412605285645 0.124901182949543 0.7176470756530762 0.6980392336845398 0.6196078658103943
0.9093596339225769 0.20606347918510437 0.007509881630539894 0.49803921580314636 0.4901960790157318 0.4313725531101227
0.9785714149475098 0.1871151179075241 0.3015810251235962 0.7882353067398071 0.7764706015586853 0.7176470756530762
0.9775862097740173 0.24774987995624542 0.647826075553894 0.6901960968971252 0.7058823704719543 0.7176470756530762
0.9815270900726318 0.2272224873304367 0.24664030969142914 0.7450980544090271 0.7333333492279053 0.6980392336845398
0.8965517282485962 0.29685771465301514 0.006719367578625679 0.45098039507865906 0.4431372582912445 0.3607843220233917
0.9802955389022827 0.2635401785373688 0.08181817829608917 0.7215686440467834 0.7176470756530762 0.6392157077789307
0.9773399233818054 0.1751144826412201 0.009881422854959965 0.5882353186607361 0.6039215922355652 0.5490196347236633
0.9822660088539124 0.23511764407157898 0.8774703741073608 0.5568627715110779 0.5333333611488342 0.4470588266849518
0.7945812940597534 0.2576977610588074 0.006719367578625679 0.4901960790157318 0.48235294222831726 0.3843137323856354
0.9802955389022827 0.26859307289123535 0.7861660122871399 0.6078431606292725 0.6235294342041016 0.6352941393852234
0.8770936131477356 0.3099636733531952 0.006719367578625679 0.4627451002597809 0.4588235318660736 0.3764705955982208
0.7470443248748779 0.3129638433456421 0.007509881630539894 0.14901961386203766 0.14901961386203766 0.10980392247438431
0.8130542039871216 0.19185219705104828 0.006719367578625679 0.5215686559677124 0.5333333611488342 0.46666666865348816
0.9179803133010864 0.2561187446117401 0.9893280863761902 0.35686275362968445 0.3450980484485626 0.2862745225429535
0.9753694534301758 0.24569714069366455 0.3169960379600525 0.5490196347236633 0.5176470875740051 0.4745098054409027
0.9810344576835632 0.20069476962089539 0.4632411003112793 0.7490196228027344 0.7372549176216125 0.7098039388656616
0.7608374357223511 0.23732827603816986 0.006719367578625679 0.3843137323856354 0.3529411852359772 0.2705882489681244
0.9756157398223877 0.26590871810913086 0.33992093801498413 0.729411780834198 0.7568627595901489 0.7803921699523926
0.9817733764648438 0.30333176255226135 0.1881422996520996 0.7137255072593689 0.7058823704719543 0.6549019813537598
0.9820197224617004 0.2935417592525482 0.13201580941677094 0.2549019753932953 0.2549019753932953 0.21568627655506134
0.9805418848991394 0.264803409576416 0.7948616743087769 0.5921568870544434 0.6117647290229797 0.6235294342041016
0.9793103337287903 0.2040107399225235 0.7343873381614685 0.6392157077789307 0.6392157077789307 0.6000000238418579
0.982758641242981 0.2589609920978546 0.9367588758468628 0.4627451002597809 0.43529412150382996 0.364705890417099
0.9238916039466858 0.2267487794160843 0.0071146246045827866 0.46666666865348816 0.4588235318660736 0.3686274588108063
0.870197057723999 0.24901311099529266 0.006719367578625679 0.501960813999176 0.5098039507865906 0.42352941632270813
0.7820196747779846 0.27475130558013916 0.9932806491851807 0.23137255012989044 0.23137255012989044 0.2235294133424759
0.8815270662307739 0.30585819482803345 0.9905138611793518 0.34117648005485535 0.32549020648002625 0.29019609093666077
0.9770935773849487 0.3109110891819 0.6387351751327515 0.658823549747467 0.6784313917160034 0.6901960968971252
0.7440886497497559 0.2902258038520813 0.9932806491851807 0.9333333373069763 0.9647058844566345 0.9764705896377563
0.9719212055206299 0.28927838802337646 0.3185770809650421 0.5215686559677124 0.5176470875740051 0.4470588266849518
0.815517246723175 0.24569714069366455 0.9924901127815247 0.3019607961177826 0.30980393290519714 0.30588236451148987
0.9800492525100708 0.1751144826412201 0.8379446864128113 0.23137255012989044 0.23529411852359772 0.2549019753932953
0.9815270900726318 0.21474814414978027 0.8166007995605469 0.6039215922355652 0.5960784554481506 0.545098066329956
0.9770935773849487 0.2640138864517212 0.39723318815231323 0.7215686440467834 0.7333333492279053 0.7529411911964417
0.9815270900726318 0.21395863592624664 0.23083004355430603 0.7411764860153198 0.7333333492279053 0.686274528503418
0.9830049276351929 0.1896415650844574 0.9640316367149353 0.3843137323856354 0.3529411852359772 0.3019607961177826
0.9780788421630859 0.27111953496932983 0.6620553135871887 0.6745098233222961 0.6941176652908325 0.7098039388656616
0.9768472909927368 0.2725406587123871 0.40790513157844543 0.7176470756530762 0.7372549176216125 0.7490196228027344
0.8283251523971558 0.27948838472366333 0.0063241105526685715 0.48627451062202454 0.4941176474094391 0.4000000059604645
0.9805418848991394 0.20543186366558075 0.5810276865959167 0.7764706015586853 0.7843137383460999 0.7647058963775635
0.9820197224617004 0.2929101586341858 0.17272727191448212 0.7058823704719543 0.7098039388656616 0.6549019813537598
0.9783251285552979 0.3042791783809662 0.011067193932831287 0.43921568989753723 0.4117647111415863 0.34117648005485535
0.9743842482566833 0.1897994577884674 0.010276679880917072 0.4588235318660736 0.43529412150382996 0.37254902720451355
0.9541872143745422 0.2357492446899414 0.0071146246045827866 0.3921568691730499 0.37254902720451355 0.29411765933036804
0.7965517044067383 0.1634296476840973 0.0063241105526685715 0.6823529601097107 0.686274528503418 0.6313725709915161
0.9766010046005249 0.2670140564441681 0.46126481890678406 0.7137255072593689 0.7333333492279053 0.7490196228027344
0.9798029661178589 0.3042791783809662 0.3023715317249298 0.5215686559677124 0.5058823823928833 0.4588235318660736
0.9798029661178589 0.3014369308948517 0.7806324362754822 0.6039215922355652 0.6235294342041016 0.6352941393852234
0.982758641242981 0.21364282071590424 0.9256917238235474 0.47843137383461 0.4470588266849518 0.3960784375667572
0.9766010046005249 0.3153323829174042 0.6023715138435364 0.6705882549285889 0.6941176652908325 0.6941176652908325
0.9788177609443665 0.21680088341236115 0.7023715376853943 0.6705882549285889 0.6901960968971252 0.7137255072593689
0.8546798229217529 0.3069635331630707 0.991304337978363 0.4000000059604645 0.3921568691730499 0.3450980484485626
0.9214285612106323 0.2273803949356079 0.9889327883720398 0.3843137323856354 0.3607843220233917 0.3137255012989044
0.9174876809120178 0.18285173177719116 0.9885375499725342 0.3450980484485626 0.3137255012989044 0.2705882489681244
0.8192118406295776 0.21427443623542786 0.006719367578625679 0.6039215922355652 0.6196078658103943 0.5215686559677124
0.9815270900726318 0.2439602017402649 0.26324111223220825 0.7333333492279053 0.7333333492279053 0.686274528503418
0.8852216601371765 0.23101216554641724 0.0071146246045827866 0.5176470875740051 0.5137255191802979 0.4313725531101227
0.9830049276351929 0.3014369308948517 0.8996047377586365 0.5137255191802979 0.4941176474094391 0.40784314274787903
0.9815270900726318 0.19895784556865692 0.8292490243911743 0.5843137502670288 0.5686274766921997 0.5254902243614197
0.9788177609443665 0.2929101586341858 0.02648221328854561 0.21960784494876862 0.18431372940540314 0.1568627506494522
0.9790640473365784 0.18253591656684875 0.7442687749862671 0.45490196347236633 0.45490196347236633 0.45490196347236633
0.9775862097740173 0.22280119359493256 0.38735178112983704 0.7372549176216125 0.7568627595901489 0.772549033164978
0.9775862097740173 0.22548554837703705 0.38339921832084656 0.7372549176216125 0.7568627595901489 0.772549033164978
0.9822660088539124 0.1814306080341339 0.9015810489654541 0.5137255191802979 0.47843137383461 0.41960784792900085
0.9768472909927368 0.22059056162834167 0.5407114624977112 0.7254902124404907 0.7490196228027344 0.7411764860153198
0.8899014592170715 0.28548872470855713 0.0063241105526685715 0.5490196347236633 0.5843137502670288 0.501960813999176
0.8002462983131409 0.16469287872314453 0.991304337978363 0.250980406999588 0.239215686917305 0.21960784494876862
0.9133005142211914 0.2665403485298157 0.9897233247756958 0.3607843220233917 0.3490196168422699 0.29019609093666077
0.9768472909927368 0.28959420323371887 0.4110671877861023 0.7058823704719543 0.7254902124404907 0.7411764860153198
0.9775862097740173 0.18790462613105774 0.05573122575879097 0.7490196228027344 0.7450980544090271 0.6274510025978088
0.9807881712913513 0.1779567301273346 0.8553359508514404 0.20000000298023224 0.20000000298023224 0.23137255012989044
0.7573891878128052 0.24648666381835938 0.27233201265335083 0.1411764770746231 0.1568627506494522 0.16862745583057404
0.9810344576835632 0.23495973646640778 0.9873517751693726 0.27843138575553894 0.2549019753932953 0.20000000298023224
0.7408866882324219 0.2581714689731598 0.0071146246045827866 0.25882354378700256 0.250980406999588 0.1921568661928177
0.9812808036804199 0.1610611081123352 0.895652174949646 0.5058823823928833 0.48235294222831726 0.3960784375667572
0.864039421081543 0.1724301278591156 0.006719367578625679 0.5529412031173706 0.5607843399047852 0.5098039507865906
0.9790640473365784 0.17606189846992493 0.6031620502471924 0.20000000298023224 0.18039216101169586 0.19607843458652496
0.81083744764328 0.25169745087623596 0.9924901127815247 0.23137255012989044 0.21568627655506134 0.20392157137393951
0.7440886497497559 0.19643139839172363 0.9932806491851807 0.6352941393852234 0.6745098233222961 0.6823529601097107
0.9798029661178589 0.28880468010902405 0.7778655886650085 0.6117647290229797 0.6313725709915161 0.6431372761726379
0.9770935773849487 0.30617401003837585 0.635573148727417 0.6666666865348816 0.686274528503418 0.6980392336845398
0.9790640473365784 0.24853940308094025 0.7071146368980408 0.6627451181411743 0.6823529601097107 0.6941176652908325
0.8645319938659668 0.2444339245557785 0.006719367578625679 0.43529412150382996 0.4470588266849518 0.3333333432674408
0.8002462983131409 0.15916627645492554 0.0063241105526685715 0.6117647290229797 0.6117647290229797 0.572549045085907
0.9770935773849487 0.21774829924106598 0.47549405694007874 0.7333333492279053 0.7450980544090271 0.7647058963775635
0.9113300442695618 0.30870047211647034 0.9897233247756958 0.3843137323856354 0.3764705955982208 0.3294117748737335
0.9785714149475098 0.2150639444589615 0.36205533146858215 0.7686274647712708 0.8039215803146362 0.800000011920929
0.9820197224617004 0.21995894610881805 0.17944663763046265 0.7058823704719543 0.7098039388656616 0.6470588445663452
0.9766010046005249 0.270330011844635 0.45138341188430786 0.7098039388656616 0.7333333492279053 0.7333333492279053
0.9788177609443665 0.19137848913669586 0.37272727489471436 0.7490196228027344 0.7529411911964417 0.7215686440467834
0.9761083722114563 0.3015948235988617 0.48616600036621094 0.6941176652908325 0.7176470756530762 0.7176470756530762
0.9800492525100708 0.18332543969154358 0.1509881466627121 0.5372549295425415 0.5411764979362488 0.5098039507865906
0.9169950485229492 0.2876993417739868 0.006719367578625679 0.42352941632270813 0.42352941632270813 0.3294117748737335
0.8088669776916504 0.2929101586341858 0.9928853511810303 0.3450980484485626 0.3333333432674408 0.3137255012989044
0.9798029661178589 0.20780040323734283 0.5992094874382019 0.6666666865348816 0.6901960968971252 0.6823529601097107
0.9820197224617004 0.281225323677063 0.8268774747848511 0.5882353186607361 0.5803921818733215 0.5215686559677124
0.9825122952461243 0.2183799147605896 0.9039525985717773 0.5137255191802979 0.4941176474094391 0.40784314274787903
0.9773399233818054 0.2239065170288086 0.3968379497528076 0.7333333492279053 0.7529411911964417 0.7686274647712708
0.9766010046005249 0.2987525761127472 0.6086956262588501 0.6901960968971252 0.7058823704719543 0.7019608020782471
0.9512315392494202 0.21427443623542786 0.9877470135688782 0.3607843220233917 0.33725491166114807 0.2823529541492462
0.9576354622840881 0.2270645797252655 0.0071146246045827866 0.5803921818733215 0.572549045085907 0.4901960790157318
0.9763546586036682 0.2665403485298157 0.5596837997436523 0.7098039388656616 0.729411780834198 0.7411764860153198
0.9780788421630859 0.21411652863025665 0.5980237126350403 0.7098039388656616 0.729411780834198 0.7411764860153198
0.7785714268684387 0.1899573653936386 0.006719367578625679 0.5764706134796143 0.572549045085907 0.4941176474094391
0.7701970338821411 0.21790620684623718 0.9928853511810303 0.34117648005485535 0.34117648005485535 0.30980393290519714
0.8881773352622986 0.1634296476840973 0.9889327883720398 0.32156863808631897 0.2980392277240753 0.24313725531101227
0.9830049276351929 0.19027316570281982 0.9482213258743286 0.41960784792900085 0.3921568691730499 0.3294117748737335
0.9793103337287903 0.2382756918668747 0.052173912525177 0.686274528503418 0.6823529601097107 0.6000000238418579
0.9768472909927368 0.23432812094688416 0.4529644250869751 0.7254902124404907 0.7490196228027344 0.7490196228027344
0.7445812821388245 0.2905416190624237 0.007509881630539894 0.2980392277240753 0.2823529541492462 0.23529411852359772
0.8098522424697876 0.26622453331947327 0.9924901127815247 0.2980392277240753 0.2980392277240753 0.29019609093666077
