0.18325123190879822 0.32670140266418457 0.0071146246045827866 0.6117647290229797 0.615686297416687 0.5607843399047852
0.09236453473567963 0.34280750155448914 0.9893280863761902 0.38823530077934265 0.37254902720451355 0.33725491166114807
0.0036945813335478306 0.443233847618103 0.7675889134407043 0.5764706134796143 0.5686274766921997 0.5215686559677124
0.1830049306154251 0.4392862915992737 0.9901185631752014 0.40392157435417175 0.3921568691730499 0.364705890417099
0.19655172526836395 0.4451286792755127 0.9897233247756958 0.4000000059604645 0.38823530077934265 0.3607843220233917
0.003940886817872524 0.38654667139053345 0.2873517870903015 0.6627451181411743 0.6705882549285889 0.6274510025978088
0.004187192302197218 0.44449707865715027 0.9592885375022888 0.3450980484485626 0.3294117748737335 0.29411765933036804
0.003448275849223137 0.43265435099601746 0.7371541261672974 0.5882353186607361 0.5921568870544434 0.5607843399047852
0.03201970458030701 0.4277593493461609 0.9893280863761902 0.34117648005485535 0.34117648005485535 0.3019607961177826
0.003448275849223137 0.43470707535743713 0.6403161883354187 0.6313725709915161 0.6313725709915161 0.6000000238418579
0.017980296164751053 0.36901941895484924 0.9893280863761902 0.35686275362968445 0.3490196168422699 0.3019607961177826
0.08201970160007477 0.43802306056022644 0.008695651777088642 0.6352941393852234 0.6313725709915161 0.5529412031173706
0.0071428571827709675 0.321806401014328 0.01620553433895111 0.40784314274787903 0.4000000059604645 0.34117648005485535
0.2458128035068512 0.33507025241851807 0.006719367578625679 0.5960784554481506 0.5960784554481506 0.501960813999176
0.0032019703648984432 0.37754619121551514 0.5877470374107361 0.6509804129600525 0.6549019813537598 0.6313725709915161
0.004187192302197218 0.42412757873535156 0.3490118682384491 0.6392157077789307 0.6627451181411743 0.6078431606292725
0.003940886817872524 0.44607609510421753 0.5221343636512756 0.6078431606292725 0.615686297416687 0.5647059082984924
0.004679802805185318 0.4144954979419708 0.16245059669017792 0.6666666865348816 0.6941176652908325 0.6235294342041016
0.1504926085472107 0.33807042241096497 0.9897233247756958 0.45098039507865906 0.45490196347236633 0.43529412150382996
0.2342364490032196 0.3761250674724579 0.006719367578625679 0.6313725709915161 0.6352941393852234 0.5647059082984924
0.005911330226808786 0.4397599995136261 0.13715414702892303 0.6745098233222961 0.686274528503418 0.6196078658103943
0.09778325259685516 0.43518081307411194 0.007905138656497002 0.49803921580314636 0.5137255191802979 0.4588235318660736
0.13201969861984253 0.3974419832229614 0.0071146246045827866 0.5764706134796143 0.5764706134796143 0.5372549295425415
0.0036945813335478306 0.39791569113731384 0.40948617458343506 0.6666666865348816 0.6784313917160034 0.6431372761726379
0.0032019703648984432 0.408179372549057 0.612252950668335 0.6313725709915161 0.6274510025978088 0.6078431606292725
0.06625615805387497 0.3470709025859833 0.9893280863761902 0.43921568989753723 0.42352941632270813 0.3803921639919281
0.0027093596290796995 0.32670140266418457 0.6146245002746582 0.6705882549285889 0.6745098233222961 0.6549019813537598
0.004433497320860624 0.4620243310928345 0.9490118622779846 0.3764705955982208 0.3607843220233917 0.32549020648002625
0.002216748660430312 0.3276488184928894 0.864426851272583 0.5568627715110779 0.5647059082984924 0.5137255191802979
0.002463054144755006 0.32370123267173767 0.6664031744003296 0.6823529601097107 0.686274528503418 0.6666666865348816
0.0027093596290796995 0.3484920263290405 0.6411067247390747 0.6745098233222961 0.6784313917160034 0.658823549747467
0.0317733995616436 0.408179372549057 0.9893280863761902 0.3686274588108063 0.3529411852359772 0.3176470696926117
0.04630541801452637 0.4394441843032837 0.009486165829002857 0.501960813999176 0.5137255191802979 0.4313725531101227
0.004679802805185318 0.3996526002883911 0.17351779341697693 0.6666666865348816 0.6823529601097107 0.615686297416687
0.0036945813335478306 0.3844939172267914 0.3762845993041992 0.6823529601097107 0.6705882549285889 0.6352941393852234
0.08300492912530899 0.39475762844085693 0.9897233247756958 0.3686274588108063 0.3529411852359772 0.30588236451148987
0.0635467991232872 0.44418126344680786 0.9897233247756958 0.3450980484485626 0.3450980484485626 0.30588236451148987
0.004679802805185318 0.4418127238750458 0.2501976191997528 0.6627451181411743 0.6745098233222961 0.6000000238418579
0.20270936191082 0.35243961215019226 0.9897233247756958 0.43529412150382996 0.41960784792900085 0.40784314274787903
0.004433497320860624 0.4421285390853882 0.3845849931240082 0.6274510025978088 0.6313725709915161 0.6000000238418579
0.0032019703648984432 0.37517765164375305 0.5517786741256714 0.6549019813537598 0.6549019813537598 0.615686297416687
0.003940886817872524 0.3222801089286804 0.17549407482147217 0.6784313917160034 0.6941176652908325 0.6392157077789307
0.0036945813335478306 0.45239222049713135 0.7857707738876343 0.5607843399047852 0.5490196347236633 0.5215686559677124
0.003448275849223137 0.4309174120426178 0.6501976251602173 0.6352941393852234 0.6392157077789307 0.6078431606292725
0.07758620381355286 0.402652770280838 0.008695651777088642 0.6196078658103943 0.6235294342041016 0.5529412031173706
0.0032019703648984432 0.3186483383178711 0.38221344351768494 0.6745098233222961 0.6745098233222961 0.6352941393852234
0.004926108289510012 0.4598136842250824 0.27826085686683655 0.6666666865348816 0.6705882549285889 0.6078431606292725
0.0036945813335478306 0.4193904995918274 0.9434782862663269 0.40392157435417175 0.38823530077934265 0.3450980484485626
0.003940886817872524 0.413390189409256 0.9830039739608765 0.30980393290519714 0.29411765933036804 0.25882354378700256
0.004187192302197218 0.40044212341308594 0.30948618054389954 0.6745098233222961 0.6745098233222961 0.6431372761726379
0.004433497320860624 0.46644559502601624 0.4683794379234314 0.6196078658103943 0.6196078658103943 0.5803921818733215
0.004679802805185318 0.4075477719306946 0.15256917476654053 0.6745098233222961 0.6901960968971252 0.6235294342041016
0.11847290396690369 0.3328596353530884 0.9897233247756958 0.43529412150382996 0.42352941632270813 0.38823530077934265
0.20517241954803467 0.4476551413536072 0.9897233247756958 0.4274509847164154 0.4156862795352936 0.3803921639919281
0.0036945813335478306 0.46107688546180725 0.6490118503570557 0.5960784554481506 0.5921568870544434 0.572549045085907
0.003448275849223137 0.3587557375431061 0.3683794438838959 0.6784313917160034 0.6666666865348816 0.6392157077789307
0.2140394151210785 0.34375494718551636 0.9893280863761902 0.40392157435417175 0.3960784375667572 0.4000000059604645
0.2019704431295395 0.3424917161464691 0.9893280863761902 0.4431372582912445 0.43921568989753723 0.42352941632270813
0.039901476353406906 0.3383862376213074 0.9893280863761902 0.4431372582912445 0.43529412150382996 0.3764705955982208
0.005172413773834705 0.36917731165885925 0.02766798436641693 0.23529411852359772 0.21568627655506134 0.1411764770746231
0.004187192302197218 0.4634454548358917 0.8968379497528076 0.4470588266849518 0.43529412150382996 0.4000000059604645
0.18497537076473236 0.4173377454280853 0.9897233247756958 0.364705890417099 0.3529411852359772 0.3333333432674408
0.0032019703648984432 0.39854729175567627 0.6059288382530212 0.6352941393852234 0.6352941393852234 0.6039215922355652
0.1623152643442154 0.43818095326423645 0.9901185631752014 0.34117648005485535 0.3294117748737335 0.29411765933036804
0.11280788481235504 0.4116532504558563 0.9897233247756958 0.37254902720451355 0.364705890417099 0.3176470696926117
0.004679802805185318 0.4217590391635895 0.21067193150520325 0.6745098233222961 0.6941176652908325 0.615686297416687
0.18201971054077148 0.4604452848434448 0.9901185631752014 0.40784314274787903 0.3960784375667572 0.3607843220233917
0.006896551698446274 0.4160745441913605 0.030434781685471535 0.24313725531101227 0.21176470816135406 0.16862745583057404
0.005418719258159399 0.42965418100357056 0.14308300614356995 0.6705882549285889 0.6901960968971252 0.6000000238418579
0.10221675038337708 0.34012317657470703 0.007905138656497002 0.5098039507865906 0.47843137383461 0.4274509847164154
0.003940886817872524 0.3587557375431061 0.22806324064731598 0.6549019813537598 0.6666666865348816 0.6235294342041016
0.002955665113404393 0.3222801089286804 0.4426877498626709 0.6627451181411743 0.6627451181411743 0.6549019813537598
0.10369458049535751 0.3974419832229614 0.007905138656497002 0.4745098054409027 0.47058823704719543 0.3921568691730499
0.15344826877117157 0.37865149974823 0.9901185631752014 0.4000000059604645 0.38823530077934265 0.3529411852359772
0.002463054144755006 0.356860876083374 0.7359683513641357 0.6352941393852234 0.6392157077789307 0.6196078658103943
0.003940886817872524 0.3589136302471161 0.23715415596961975 0.6470588445663452 0.6705882549285889 0.615686297416687
0.16009852290153503 0.43502289056777954 0.0071146246045827866 0.6313725709915161 0.6431372761726379 0.6000000238418579
0.004679802805185318 0.35496604442596436 0.04901185631752014 0.22745098173618317 0.22745098173618317 0.18039216101169586
0.002463054144755006 0.32938575744628906 0.9075098633766174 0.501960813999176 0.5098039507865906 0.45490196347236633
0.004679802805185318 0.4662877023220062 0.36679843068122864 0.6235294342041016 0.6196078658103943 0.5490196347236633
0.003448275849223137 0.3503868579864502 0.3387351632118225 0.6784313917160034 0.6823529601097107 0.658823549747467
0.0036945813335478306 0.465024471282959 0.664426863193512 0.5882353186607361 0.5882353186607361 0.5490196347236633
0.003940886817872524 0.36886152625083923 0.2181818187236786 0.6666666865348816 0.6823529601097107 0.6274510025978088
0.026108374819159508 0.42902258038520813 0.010276679880917072 0.43921568989753723 0.4431372582912445 0.38823530077934265
0.005172413773834705 0.465024471282959 0.19920948147773743 0.6784313917160034 0.6901960968971252 0.615686297416687
0.11280788481235504 0.4514448046684265 0.007509881630539894 0.5647059082984924 0.5529412031173706 0.4941176474094391
0.08793103694915771 0.44639191031455994 0.9897233247756958 0.3686274588108063 0.3607843220233917 0.30980393290519714
0.007389162667095661 0.4618664085865021 0.0778656154870987 0.5921568870544434 0.6000000238418579 0.5490196347236633
0.004433497320860624 0.33743882179260254 0.038735177367925644 0.21568627655506134 0.20000000298023224 0.1568627506494522
0.05862069129943848 0.36080846190452576 0.00909090880304575 0.5215686559677124 0.5098039507865906 0.4745098054409027
0.0064039407297968864 0.42918047308921814 0.9893280863761902 0.2705882489681244 0.26274511218070984 0.21176470816135406
0.0032019703648984432 0.3728090822696686 0.529644250869751 0.6627451181411743 0.6666666865348816 0.6352941393852234
0.004433497320860624 0.3854413330554962 0.145454540848732 0.6666666865348816 0.6823529601097107 0.615686297416687
0.2216748744249344 0.39523133635520935 0.006719367578625679 0.6509804129600525 0.6549019813537598 0.6000000238418579
0.004679802805185318 0.43565452098846436 0.239130437374115 0.6705882549285889 0.6823529601097107 0.6000000238418579
0.004926108289510012 0.37754619121551514 0.05454545468091965 0.7372549176216125 0.7372549176216125 0.6980392336845398
0.14137931168079376 0.32575398683547974 0.9897233247756958 0.47058823704719543 0.45490196347236633 0.4431372582912445
0.0027093596290796995 0.38070425391197205 0.8197628259658813 0.5529412031173706 0.5607843399047852 0.5176470875740051
0.002463054144755006 0.3396494686603546 0.8086956739425659 0.5921568870544434 0.6039215922355652 0.5607843399047852
0.0032019703648984432 0.32654350996017456 0.312648206949234 0.658823549747467 0.6745098233222961 0.615686297416687
0.05246305465698242 0.4217590391635895 0.009486165829002857 0.45490196347236633 0.47058823704719543 0.4117647111415863
0.003448275849223137 0.402494877576828 0.5624505877494812 0.6392157077789307 0.6392157077789307 0.6000000238418579
0.006157635245472193 0.40596872568130493 0.04782608523964882 0.2235294133424759 0.2078431397676468 0.16470588743686676
0.004433497320860624 0.41481131315231323 0.25849801301956177 0.6705882549285889 0.686274528503418 0.6313725709915161
0.0027093596290796995 0.35180798172950745 0.9383399486541748 0.45098039507865906 0.4431372582912445 0.3960784375667572
0.14802955090999603 0.4711827039718628 0.9901185631752014 0.3921568691730499 0.3843137323856354 0.33725491166114807
0.011576354503631592 0.4481288492679596 0.9893280863761902 0.27450981736183167 0.2666666805744171 0.21960784494876862
0.007389162667095661 0.4364440143108368 0.053359683603048325 0.2078431397676468 0.2078431397676468 0.16078431904315948
0.09778325259685516 0.35796621441841125 0.9897233247756958 0.40784314274787903 0.3921568691730499 0.35686275362968445
0.19211822748184204 0.3165956139564514 0.9893280863761902 0.9176470637321472 0.9215686321258545 0.9372549057006836
0.006896551698446274 0.4345491826534271 0.06521739065647125 0.6901960968971252 0.7176470756530762 0.6470588445663452
0.10935960710048676 0.3451760709285736 0.007905138656497002 0.5568627715110779 0.5568627715110779 0.5176470875740051
0.004187192302197218 0.4403916001319885 0.9743083119392395 0.3137255012989044 0.2980392277240753 0.2549019753932953
0.004926108289510012 0.44449707865715027 0.2237154096364975 0.6705882549285889 0.686274528503418 0.5960784554481506
0.1899014711380005 0.35465025901794434 0.9897233247756958 0.43921568989753723 0.41960784792900085 0.40784314274787903
0.002463054144755006 0.33428075909614563 0.8011857867240906 0.6117647290229797 0.6235294342041016 0.5960784554481506
0.003940886817872524 0.4457603096961975 0.8687747120857239 0.4941176474094391 0.48235294222831726 0.4470588266849518
0.043103449046611786 0.3197536766529083 0.008695651777088642 0.38823530077934265 0.3960784375667572 0.3529411852359772
0.111330047249794 0.39807358384132385 0.9897233247756958 0.4000000059604645 0.38823530077934265 0.3529411852359772
0.004433497320860624 0.3761250674724579 0.13873517513275146 0.6745098233222961 0.6901960968971252 0.6313725709915161
0.056896552443504333 0.39775776863098145 0.9893280863761902 0.3843137323856354 0.3764705955982208 0.3294117748737335
0.0032019703648984432 0.3426496088504791 0.3802371621131897 0.6666666865348816 0.6666666865348816 0.6352941393852234
0.08226601034402847 0.4045476019382477 0.008695651777088642 0.6823529601097107 0.6980392336845398 0.6313725709915161
0.190640389919281 0.42081162333488464 0.0071146246045827866 0.6196078658103943 0.615686297416687 0.5960784554481506
0.0032019703648984432 0.41828516125679016 0.7498023509979248 0.6039215922355652 0.615686297416687 0.5803921818733215
0.004926108289510012 0.39554712176322937 0.1039525717496872 0.6745098233222961 0.6901960968971252 0.6313725709915161
0.004187192302197218 0.4568135142326355 0.8837944865226746 0.4627451002597809 0.45098039507865906 0.42352941632270813
0.23645320534706116 0.3990209996700287 0.006719367578625679 0.5686274766921997 0.5607843399047852 0.5098039507865906
0.002463054144755006 0.3447023630142212 0.7723320126533508 0.6235294342041016 0.6274510025978088 0.6039215922355652
0.003940886817872524 0.4688141345977783 0.6521739363670349 0.5843137502670288 0.5921568870544434 0.5490196347236633
0.004926108289510012 0.3649139404296875 0.03913043439388275 0.2549019753932953 0.23137255012989044 0.1764705926179886
0.1463054120540619 0.40707406401634216 0.9901185631752014 0.35686275362968445 0.3450980484485626 0.30980393290519714
0.24088670313358307 0.3728090822696686 0.006719367578625679 0.545098066329956 0.5372549295425415 0.47843137383461
0.030049260705709457 0.3734407126903534 0.9893280863761902 0.3921568691730499 0.3843137323856354 0.33725491166114807
0.002955665113404393 0.38038843870162964 0.8885375261306763 0.48235294222831726 0.48235294222831726 0.43529412150382996
0.0036945813335478306 0.3999684154987335 0.5011857748031616 0.6509804129600525 0.6549019813537598 0.6000000238418579
0.11773399263620377 0.46060317754745483 0.007509881630539894 0.4431372582912445 0.4470588266849518 0.3921568691730499
0.0036945813335478306 0.36601927876472473 0.2802371680736542 0.6745098233222961 0.6823529601097107 0.6392157077789307
0.003940886817872524 0.42112743854522705 0.4363636374473572 0.6509804129600525 0.6509804129600525 0.6117647290229797
0.0036945813335478306 0.4307595193386078 0.5371541380882263 0.6117647290229797 0.6274510025978088 0.572549045085907
0.003940886817872524 0.4315490424633026 0.9138339757919312 0.4431372582912445 0.4313725531101227 0.3960784375667572
0.004187192302197218 0.4511290192604065 0.48616600036621094 0.6196078658103943 0.6274510025978088 0.5843137502670288
0.003448275849223137 0.38970473408699036 0.5351778864860535 0.6431372761726379 0.6549019813537598 0.6274510025978088
0.2376847267150879 0.40312647819519043 0.006719367578625679 0.5411764979362488 0.5372549295425415 0.46666666865348816
0.08916255831718445 0.40596872568130493 0.9897233247756958 0.35686275362968445 0.3490196168422699 0.2980392277240753
0.1541871875524521 0.3930206894874573 0.0071146246045827866 0.5333333611488342 0.5254902243614197 0.4745098054409027
0.003940886817872524 0.47007736563682556 0.6940711736679077 0.5843137502670288 0.5764706134796143 0.5254902243614197
0.004679802805185318 0.46707722544670105 0.3762845993041992 0.6196078658103943 0.615686297416687 0.5333333611488342
0.0036945813335478306 0.39807358384132385 0.4000000059604645 0.6784313917160034 0.6784313917160034 0.6313725709915161
0.002463054144755006 0.33443865180015564 0.8901185989379883 0.5215686559677124 0.5254902243614197 0.4627451002597809
0.002463054144755006 0.3394915461540222 0.6853755116462708 0.6705882549285889 0.6745098233222961 0.6509804129600525
0.003448275849223137 0.4111795425415039 0.9098814129829407 0.4627451002597809 0.4470588266849518 0.4000000059604645
0.003940886817872524 0.42381179332733154 0.4316205680370331 0.6509804129600525 0.6509804129600525 0.6117647290229797
0.002955665113404393 0.3159639835357666 0.5256916880607605 0.6627451181411743 0.6666666865348816 0.6470588445663452
0.2342364490032196 0.4367598295211792 0.9897233247756958 0.364705890417099 0.3529411852359772 0.3176470696926117
0.1231527104973793 0.3628612160682678 0.9897233247756958 0.43529412150382996 0.42352941632270813 0.3960784375667572
0.003940886817872524 0.4394441843032837 0.4675889313220978 0.6274510025978088 0.6274510025978088 0.5960784554481506
0.036699507385492325 0.4481288492679596 0.9893280863761902 0.3137255012989044 0.3019607961177826 0.2666666805744171
0.01330049242824316 0.3240170478820801 0.011067193932831287 0.4156862795352936 0.4313725531101227 0.3764705955982208
0.22758620977401733 0.42965418100357056 0.9897233247756958 0.4000000059604645 0.38823530077934265 0.3529411852359772
0.003448275849223137 0.430127888917923 0.7932806611061096 0.5568627715110779 0.5411764979362488 0.4941176474094391
0.007635468151420355 0.4683404266834259 0.9893280863761902 0.24705882370471954 0.24705882370471954 0.2078431397676468
0.004187192302197218 0.41496920585632324 0.32569169998168945 0.6627451181411743 0.6705882549285889 0.6196078658103943
0.002463054144755006 0.3472287952899933 0.7426877617835999 0.6470588445663452 0.6431372761726379 0.6235294342041016
0.003448275849223137 0.32543817162513733 0.2869565188884735 0.6666666865348816 0.6784313917160034 0.6352941393852234
0.003940886817872524 0.4054950177669525 0.4063241183757782 0.6705882549285889 0.6745098233222961 0.6431372761726379
0.10862068831920624 0.42949628829956055 0.007905138656497002 0.5333333611488342 0.5490196347236633 0.4941176474094391
0.08694580942392349 0.3988631069660187 0.9897233247756958 0.4117647111415863 0.40392157435417175 0.35686275362968445
0.24334976077079773 0.34691300988197327 0.9889327883720398 0.364705890417099 0.3529411852359772 0.3333333432674408
0.004187192302197218 0.36033475399017334 0.18458497524261475 0.6549019813537598 0.6823529601097107 0.6196078658103943
0.0027093596290796995 0.3470709025859833 0.947826087474823 0.43529412150382996 0.4274509847164154 0.3803921639919281
0.24532020092010498 0.3944418132305145 0.006719367578625679 0.5686274766921997 0.5647059082984924 0.48627451062202454
0.0032019703648984432 0.3570187985897064 0.5019763112068176 0.6627451181411743 0.6666666865348816 0.6352941393852234
0.003448275849223137 0.4456023871898651 0.6624506115913391 0.6196078658103943 0.615686297416687 0.5960784554481506
0.21354679763317108 0.3627032935619354 0.9897233247756958 0.38823530077934265 0.3764705955982208 0.35686275362968445
0.003448275849223137 0.4276014566421509 0.8324110507965088 0.529411792755127 0.5215686559677124 0.43921568989753723
0.21280787885189056 0.4364440143108368 0.9897233247756958 0.4156862795352936 0.40392157435417175 0.3843137323856354
0.004187192302197218 0.3961787521839142 0.27905139327049255 0.6666666865348816 0.6784313917160034 0.6352941393852234
0.002955665113404393 0.38038843870162964 0.8814229369163513 0.48627451062202454 0.48627451062202454 0.4470588266849518
0.003448275849223137 0.33996525406837463 0.30869564414024353 0.6823529601097107 0.6823529601097107 0.6509804129600525
0.005418719258159399 0.4713405966758728 0.18300394713878632 0.6549019813537598 0.6666666865348816 0.5921568870544434
0.0032019703648984432 0.4171798527240753 0.643478274345398 0.6313725709915161 0.6352941393852234 0.6117647290229797
0.12758620083332062 0.3560713827610016 0.007509881630539894 0.5843137502670288 0.5843137502670288 0.545098066329956
0.00911330059170723 0.4710247814655304 0.9893280863761902 0.2666666805744171 0.2549019753932953 0.21960784494876862
0.002463054144755006 0.3358597755432129 0.9059288501739502 0.5058823823928833 0.5098039507865906 0.45490196347236633
0.004679802805185318 0.38149377703666687 0.0885375514626503 0.6901960968971252 0.7058823704719543 0.6470588445663452
0.07266009598970413 0.36980894207954407 0.008695651777088642 0.40784314274787903 0.4274509847164154 0.3490196168422699
0.15714286267757416 0.4253908097743988 0.0071146246045827866 0.572549045085907 0.5803921818733215 0.5254902243614197
0.19285714626312256 0.3912837505340576 0.006719367578625679 0.6470588445663452 0.6431372761726379 0.6235294342041016
0.13793103396892548 0.45207643508911133 0.9901185631752014 0.3803921639919281 0.364705890417099 0.32156863808631897
0.003448275849223137 0.3855992555618286 0.48260870575904846 0.6549019813537598 0.6666666865348816 0.6313725709915161
0.007389162667095661 0.3530712127685547 0.9889327883720398 0.3019607961177826 0.2862745225429535 0.239215686917305
0.004926108289510012 0.4482867419719696 0.24229249358177185 0.6705882549285889 0.6784313917160034 0.5921568870544434
0.07044334709644318 0.41481131315231323 0.00909090880304575 0.45098039507865906 0.4588235318660736 0.40392157435417175
0.052216749638319016 0.33743882179260254 0.9893280863761902 0.42352941632270813 0.40784314274787903 0.3607843220233917
0.002955665113404393 0.39759987592697144 0.8027667999267578 0.5607843399047852 0.5686274766921997 0.5254902243614197
0.004926108289510012 0.46107688546180725 0.22608695924282074 0.6823529601097107 0.6784313917160034 0.6078431606292725
0.004433497320860624 0.44923415780067444 0.3395256996154785 0.6352941393852234 0.6313725709915161 0.5529412031173706
0.002955665113404393 0.33412283658981323 0.4944663941860199 0.6392157077789307 0.6784313917160034 0.6431372761726379
0.13423645496368408 0.4454444944858551 0.9901185631752014 0.40392157435417175 0.3960784375667572 0.3490196168422699
0.04852216690778732 0.4392862915992737 0.9893280863761902 0.3294117748737335 0.32156863808631897 0.27450981736183167
0.003448275849223137 0.430127888917923 0.7932806611061096 0.5568627715110779 0.5411764979362488 0.4941176474094391
0.0258620698004961 0.4050213098526001 0.009881422854959965 0.34117648005485535 0.3490196168422699 0.30588236451148987
0.0064039407297968864 0.4345491826534271 0.09762845933437347 0.686274528503418 0.6901960968971252 0.6274510025978088
0.004187192302197218 0.4102321267127991 0.29328063130378723 0.6666666865348816 0.6705882549285889 0.6392157077789307
0.2426108419895172 0.38623085618019104 0.9897233247756958 0.40784314274787903 0.3960784375667572 0.3607843220233917
0.007635468151420355 0.4621822237968445 0.06600790470838547 0.5921568870544434 0.6000000238418579 0.5568627715110779
0.003448275849223137 0.37738826870918274 0.39328062534332275 0.6705882549285889 0.6745098233222961 0.6431372761726379
0.004433497320860624 0.3483341336250305 0.07233201712369919 0.6745098233222961 0.6980392336845398 0.6431372761726379
0.004187192302197218 0.3195957541465759 0.0881422907114029 0.6627451181411743 0.6705882549285889 0.615686297416687
0.0990147814154625 0.3415443003177643 0.9897233247756958 0.4627451002597809 0.4431372582912445 0.4274509847164154
0.003940886817872524 0.42112743854522705 0.40316206216812134 0.6666666865348816 0.6549019813537598 0.6196078658103943
0.0027093596290796995 0.35465025901794434 0.8905138373374939 0.5058823823928833 0.5058823823928833 0.46666666865348816
0.08965517580509186 0.43770724534988403 0.00830039568245411 0.3960784375667572 0.3960784375667572 0.3490196168422699
0.0036945813335478306 0.4084951877593994 0.4335968494415283 0.6549019813537598 0.6666666865348816 0.6235294342041016
0.002955665113404393 0.4054950177669525 0.800000011920929 0.5607843399047852 0.5686274766921997 0.5176470875740051
0.0036945813335478306 0.3884415030479431 0.42490118741989136 0.6666666865348816 0.6705882549285889 0.6392157077789307
0.1423645317554474 0.448602557182312 0.007509881630539894 0.6705882549285889 0.6784313917160034 0.5960784554481506
0.003448275849223137 0.4163903295993805 0.5889328122138977 0.6274510025978088 0.6313725709915161 0.6000000238418579
0.0036945813335478306 0.4227064549922943 0.8743082880973816 0.501960813999176 0.49803921580314636 0.4274509847164154
0.1583743840456009 0.33759671449661255 0.9897233247756958 0.7529411911964417 0.7647058963775635 0.8235294222831726
0.06551723927259445 0.3710721731185913 0.00909090880304575 0.501960813999176 0.5058823823928833 0.43529412150382996
0.1268472969532013 0.3592294454574585 0.007509881630539894 0.5411764979362488 0.5333333611488342 0.48235294222831726
0.19384236633777618 0.32670140266418457 0.9893280863761902 0.886274516582489 0.8901960849761963 0.8980392217636108
0.004187192302197218 0.4114953279495239 0.34071147441864014 0.6549019813537598 0.6666666865348816 0.6313725709915161
0.0027093596290796995 0.32654350996017456 0.5885375738143921 0.6627451181411743 0.6745098233222961 0.6470588445663452
0.0036945813335478306 0.4165482521057129 0.9632411003112793 0.35686275362968445 0.33725491166114807 0.3137255012989044
0.12512315809726715 0.3874940872192383 0.007509881630539894 0.5254902243614197 0.529411792755127 0.4745098054409027
0.19211822748184204 0.37265118956565857 0.0071146246045827866 0.6431372761726379 0.6078431606292725 0.572549045085907
0.004187192302197218 0.4187588691711426 0.3225296437740326 0.658823549747467 0.6666666865348816 0.6235294342041016
0.09359605610370636 0.3996526002883911 0.9897233247756958 0.3843137323856354 0.3764705955982208 0.32549020648002625
0.0032019703648984432 0.32338544726371765 0.33517786860466003 0.6549019813537598 0.6705882549285889 0.615686297416687
0.2024630606174469 0.3426496088504791 0.9893280863761902 0.4431372582912445 0.43921568989753723 0.42352941632270813
0.0027093596290796995 0.3854413330554962 0.7003952860832214 0.658823549747467 0.6549019813537598 0.6392157077789307
0.003448275849223137 0.39270487427711487 0.5454545617103577 0.6470588445663452 0.6470588445663452 0.615686297416687
0.06280788034200668 0.32085898518562317 0.00830039568245411 0.5686274766921997 0.5764706134796143 0.48235294222831726
0.002463054144755006 0.37723037600517273 0.7620553374290466 0.6196078658103943 0.6235294342041016 0.5921568870544434
0.004187192302197218 0.4538133442401886 0.45612648129463196 0.6274510025978088 0.6274510025978088 0.6196078658103943
0.005172413773834705 0.47023528814315796 0.21581028401851654 0.6745098233222961 0.6784313917160034 0.6078431606292725
0.0027093596290796995 0.34880784153938293 0.643478274345398 0.6784313917160034 0.6784313917160034 0.6705882549285889
0.003448275849223137 0.37486183643341064 0.4047430753707886 0.6784313917160034 0.6784313917160034 0.6470588445663452
0.1990147829055786 0.3709142506122589 0.0071146246045827866 0.6901960968971252 0.6901960968971252 0.6431372761726379
0.0036945813335478306 0.3993368148803711 0.9664031863212585 0.35686275362968445 0.3450980484485626 0.30980393290519714
0.007635468151420355 0.4686562418937683 0.05928853899240494 0.239215686917305 0.23137255012989044 0.18431372940540314
0.17290639877319336 0.4632875323295593 0.007509881630539894 0.5137255191802979 0.5254902243614197 0.4588235318660736
0.15000000596046448 0.3394915461540222 0.9897233247756958 0.45098039507865906 0.4470588266849518 0.4274509847164154
0.06945812702178955 0.362229585647583 0.9893280863761902 0.43921568989753723 0.42352941632270813 0.3803921639919281
0.14187191426753998 0.3390178382396698 0.9897233247756958 0.4588235318660736 0.4470588266849518 0.4274509847164154
0.06379310041666031 0.46644559502601624 0.008695651777088642 0.6235294342041016 0.6196078658103943 0.5411764979362488
0.003940886817872524 0.4656561017036438 0.6379446387290955 0.5921568870544434 0.5921568870544434 0.5529412031173706
0.004926108289510012 0.4084951877593994 0.13320158421993256 0.6745098233222961 0.6901960968971252 0.6235294342041016
0.003448275849223137 0.36333492398262024 0.4529644250869751 0.6745098233222961 0.686274528503418 0.6431372761726379
0.003940886817872524 0.4285488724708557 0.9747035503387451 0.32549020648002625 0.30588236451148987 0.2823529541492462
0.0036945813335478306 0.4276014566421509 0.5482213497161865 0.6078431606292725 0.6196078658103943 0.5764706134796143
0.111330047249794 0.39807358384132385 0.9897233247756958 0.4000000059604645 0.38823530077934265 0.3529411852359772
0.09630541503429413 0.321806401014328 0.00830039568245411 0.529411792755127 0.529411792755127 0.4901960790157318
0.08300492912530899 0.3827569782733917 0.9897233247756958 0.42352941632270813 0.4156862795352936 0.3686274588108063
0.10024630278348923 0.46123480796813965 0.007905138656497002 0.501960813999176 0.4901960790157318 0.4156862795352936
0.003940886817872524 0.45823463797569275 0.8055335879325867 0.5411764979362488 0.529411792755127 0.501960813999176
0.14581280946731567 0.45491868257522583 0.9901185631752014 0.3803921639919281 0.37254902720451355 0.32549020648002625
0.003940886817872524 0.4547607898712158 0.8193675875663757 0.5372549295425415 0.5254902243614197 0.49803921580314636
0.16896551847457886 0.3279646337032318 0.9897233247756958 0.8313725590705872 0.8470588326454163 0.8588235378265381
0.08571428805589676 0.42144322395324707 0.9897233247756958 0.29019609093666077 0.2823529541492462 0.23529411852359772
0.20270936191082 0.37501972913742065 0.006719367578625679 0.5333333611488342 0.5254902243614197 0.47843137383461
0.002463054144755006 0.33428075909614563 0.790513813495636 0.6274510025978088 0.6235294342041016 0.6078431606292725
0.11428571492433548 0.34675508737564087 0.9897233247756958 0.3843137323856354 0.3686274588108063 0.3333333432674408
0.005911330226808786 0.45776093006134033 0.16363635659217834 0.6784313917160034 0.686274528503418 0.6313725709915161
0.020443350076675415 0.37249329686164856 0.009486165829002857 0.47843137383461 0.4901960790157318 0.42352941632270813
0.15246304869651794 0.3818095624446869 0.9901185631752014 0.3921568691730499 0.3803921639919281 0.3607843220233917
0.003448275849223137 0.4317069351673126 0.7415019869804382 0.5921568870544434 0.5960784554481506 0.5647059082984924
0.0027093596290796995 0.32622769474983215 0.5865612626075745 0.6627451181411743 0.6745098233222961 0.6470588445663452
0.06551723927259445 0.32606980204582214 0.008695651777088642 0.5176470875740051 0.5254902243614197 0.4313725531101227
0.22093595564365387 0.3912837505340576 0.9897233247756958 0.40784314274787903 0.3960784375667572 0.3686274588108063
0.0032019703648984432 0.39175745844841003 0.9079051613807678 0.47843137383461 0.47058823704719543 0.3803921639919281
0.003940886817872524 0.316279798746109 0.13280633091926575 0.6784313917160034 0.686274528503418 0.6352941393852234
0.002955665113404393 0.33175429701805115 0.5790513753890991 0.6627451181411743 0.6666666865348816 0.6431372761726379
0.23226600885391235 0.4130743741989136 0.9897233247756958 0.4156862795352936 0.40392157435417175 0.3764705955982208
0.1428571492433548 0.4680246412754059 0.9901185631752014 0.38823530077934265 0.3803921639919281 0.3333333432674408
0.21748767793178558 0.454129159450531 0.9897233247756958 0.4156862795352936 0.4117647111415863 0.3921568691730499
0.004433497320860624 0.3657034635543823 0.08735177665948868 0.6784313917160034 0.6941176652908325 0.6274510025978088
0.10541871935129166 0.4590241611003876 0.9901185631752014 0.3843137323856354 0.3764705955982208 0.3294117748737335
0.031034482643008232 0.4162324368953705 0.009881422854959965 0.5647059082984924 0.5686274766921997 0.49803921580314636
0.003448275849223137 0.37454602122306824 0.4521739184856415 0.6627451181411743 0.6745098233222961 0.6392157077789307
0.004433497320860624 0.40423181653022766 0.25177866220474243 0.6705882549285889 0.686274528503418 0.6313725709915161
0.17315271496772766 0.4735512435436249 0.007509881630539894 0.529411792755127 0.5411764979362488 0.4745098054409027
0.005911330226808786 0.4601294696331024 0.16798418760299683 0.686274528503418 0.6823529601097107 0.6117647290229797
0.053694579750299454 0.36696669459342957 0.9893280863761902 0.4313725531101227 0.42352941632270813 0.3764705955982208
0.0027093596290796995 0.3911258578300476 0.7347826361656189 0.6392157077789307 0.6470588445663452 0.6039215922355652
0.14088669419288635 0.3530712127685547 0.9897233247756958 0.46666666865348816 0.45490196347236633 0.43529412150382996
0.004187192302197218 0.4107058346271515 0.29407113790512085 0.6627451181411743 0.6745098233222961 0.6392157077789307
0.0036945813335478306 0.45191851258277893 0.7347826361656189 0.5882353186607361 0.5764706134796143 0.5411764979362488
0.0032019703648984432 0.3442286550998688 0.40434783697128296 0.658823549747467 0.6823529601097107 0.6431372761726379
0.004926108289510012 0.4459182024002075 0.2442687749862671 0.6745098233222961 0.686274528503418 0.6039215922355652
0.1783251166343689 0.3529133200645447 0.9897233247756958 0.43921568989753723 0.42352941632270813 0.4117647111415863
0.03325122967362404 0.3813358545303345 0.009486165829002857 0.5098039507865906 0.49803921580314636 0.4313725531101227
0.0027093596290796995 0.38117796182632446 0.7719367742538452 0.6078431606292725 0.6117647290229797 0.5803921818733215
0.23177340626716614 0.3450181484222412 0.9893280863761902 0.33725491166114807 0.32156863808631897 0.30980393290519714
0.004433497320860624 0.4144954979419708 0.24308300018310547 0.6627451181411743 0.6901960968971252 0.6274510025978088
0.003448275849223137 0.3448602557182312 0.2810276746749878 0.6705882549285889 0.6941176652908325 0.6470588445663452
0.237931028008461 0.40360018610954285 0.9897233247756958 0.3960784375667572 0.3960784375667572 0.364705890417099
0.19630542397499084 0.4200221002101898 0.0071146246045827866 0.6274510025978088 0.6313725709915161 0.6078431606292725
0.1394088715314865 0.35765039920806885 0.9897233247756958 0.4588235318660736 0.4470588266849518 0.41960784792900085
0.002955665113404393 0.4108637273311615 0.6841897368431091 0.6509804129600525 0.6509804129600525 0.6196078658103943
0.03201970458030701 0.4576030373573303 0.9893280863761902 0.29019609093666077 0.29019609093666077 0.250980406999588
0.021182265132665634 0.4253908097743988 0.010276679880917072 0.46666666865348816 0.4941176474094391 0.42352941632270813
0.05985221639275551 0.43881258368492126 0.00909090880304575 0.5215686559677124 0.5176470875740051 0.4470588266849518
0.007881773635745049 0.45855045318603516 0.05928853899240494 0.34117648005485535 0.3294117748737335 0.3019607961177826
0.004187192302197218 0.32275381684303284 0.06403162330389023 0.6549019813537598 0.658823549747467 0.6039215922355652
0.036699507385492325 0.45870834589004517 0.009486165829002857 0.4156862795352936 0.4313725531101227 0.3764705955982208
0.22857142984867096 0.3412284851074219 0.006719367578625679 0.5607843399047852 0.5529412031173706 0.501960813999176
0.002463054144755006 0.34343913197517395 0.8822134137153625 0.529411792755127 0.5333333611488342 0.47843137383461
0.003940886817872524 0.47323542833328247 0.739920973777771 0.5686274766921997 0.5647059082984924 0.4941176474094391
0.0027093596290796995 0.3514921963214874 0.904347836971283 0.4941176474094391 0.4941176474094391 0.45490196347236633
0.003940886817872524 0.39286279678344727 0.33162054419517517 0.6666666865348816 0.6705882549285889 0.6392157077789307
0.15714286267757416 0.3533870279788971 0.0071146246045827866 0.572549045085907 0.5764706134796143 0.5568627715110779
0.13743841648101807 0.32275381684303284 0.007509881630539894 0.6000000238418579 0.5960784554481506 0.5254902243614197
0.004187192302197218 0.4421285390853882 0.9537549614906311 0.3529411852359772 0.33725491166114807 0.3019607961177826
0.037931036204099655 0.3974419832229614 0.009486165829002857 0.48235294222831726 0.47058823704719543 0.45098039507865906
0.002216748660430312 0.3241749703884125 0.8343873620033264 0.5843137502670288 0.5843137502670288 0.5764706134796143
0.004679802805185318 0.3188062608242035 0.03794466331601143 0.14901961386203766 0.13725490868091583 0.10980392247438431
0.14950738847255707 0.34864991903305054 0.9897233247756958 0.4470588266849518 0.4313725531101227 0.41960784792900085
0.1549261063337326 0.4332859516143799 0.9901185631752014 0.3607843220233917 0.3450980484485626 0.30980393290519714
0.002955665113404393 0.40012630820274353 0.8059288263320923 0.5607843399047852 0.5686274766921997 0.5176470875740051
0.0396551713347435 0.3443865478038788 0.9893280863761902 0.4470588266849518 0.4313725531101227 0.3843137323856354
0.10049261152744293 0.40075793862342834 0.9897233247756958 0.38823530077934265 0.3803921639919281 0.3294117748737335
0.18965516984462738 0.3734407126903534 0.0071146246045827866 0.6313725709915161 0.6078431606292725 0.5607843399047852
0.0992610827088356 0.46376124024391174 0.007905138656497002 0.5215686559677124 0.5372549295425415 0.48235294222831726
0.004433497320860624 0.4632875323295593 0.4023715555667877 0.6196078658103943 0.615686297416687 0.545098066329956
0.08842364698648453 0.45507657527923584 0.9897233247756958 0.364705890417099 0.35686275362968445 0.30980393290519714
0.2305418699979782 0.43533870577812195 0.0071146246045827866 0.5372549295425415 0.5529412031173706 0.49803921580314636
0.0036945813335478306 0.373282790184021 0.3237154185771942 0.6784313917160034 0.6784313917160034 0.6470588445663452
0.13571429252624512 0.42081162333488464 0.9901185631752014 0.3764705955982208 0.3686274588108063 0.32156863808631897
0.002463054144755006 0.3396494686603546 0.9047430753707886 0.5058823823928833 0.5058823823928833 0.4588235318660736
0.002463054144755006 0.34343913197517395 0.7944663763046265 0.6000000238418579 0.6117647290229797 0.5843137502670288
0.12832511961460114 0.38323068618774414 0.007509881630539894 0.5568627715110779 0.5607843399047852 0.4901960790157318
0.002463054144755006 0.32843834161758423 0.7897233366966248 0.6313725709915161 0.6352941393852234 0.6117647290229797
0.10123153030872345 0.47039318084716797 0.007905138656497002 0.3764705955982208 0.3803921639919281 0.30980393290519714
0.004433497320860624 0.4317069351673126 0.3173913061618805 0.6431372761726379 0.658823549747467 0.5921568870544434
0.0036945813335478306 0.4576030373573303 0.6324110627174377 0.6039215922355652 0.6000000238418579 0.5843137502670288
0.18325123190879822 0.3443865478038788 0.0071146246045827866 0.545098066329956 0.545098066329956 0.49803921580314636
0.004187192302197218 0.424601286649704 0.343478262424469 0.6431372761726379 0.6666666865348816 0.6196078658103943
0.003448275849223137 0.33459654450416565 0.26205533742904663 0.658823549747467 0.6705882549285889 0.6274510025978088
0.23078817129135132 0.32038527727127075 0.0071146246045827866 0.6196078658103943 0.6235294342041016 0.5529412031173706
0.0036945813335478306 0.4193904995918274 0.5288537740707397 0.6274510025978088 0.6352941393852234 0.5921568870544434
0.24482758343219757 0.42665404081344604 0.9897233247756958 0.38823530077934265 0.3764705955982208 0.3490196168422699
0.06108374521136284 0.37217748165130615 0.00909090880304575 0.6196078658103943 0.615686297416687 0.5372549295425415
0.0032019703648984432 0.3592294454574585 0.4624505937099457 0.6745098233222961 0.6823529601097107 0.6392157077789307
0.005418719258159399 0.3735986053943634 0.021739130839705467 0.23529411852359772 0.21568627655506134 0.1411764770746231
0.0596059113740921 0.34912362694740295 0.008695651777088642 0.5254902243614197 0.5176470875740051 0.47058823704719543
0.013546798378229141 0.3249644637107849 0.9889327883720398 0.32549020648002625 0.3137255012989044 0.2862745225429535
0.1152709349989891 0.34880784153938293 0.007509881630539894 0.5058823823928833 0.5098039507865906 0.45490196347236633
0.17167487740516663 0.34375494718551636 0.9897233247756958 0.48627451062202454 0.46666666865348816 0.48235294222831726
0.003940886817872524 0.4217590391635895 0.9494071006774902 0.3843137323856354 0.3686274588108063 0.32549020648002625
0.1985221654176712 0.44607609510421753 0.9897233247756958 0.40784314274787903 0.3960784375667572 0.3607843220233917
0.04556650295853615 0.35749250650405884 0.00909090880304575 0.4627451002597809 0.46666666865348816 0.40392157435417175
0.003940886817872524 0.453971266746521 0.8561264872550964 0.49803921580314636 0.48627451062202454 0.4588235318660736
0.20418719947338104 0.35559767484664917 0.0071146246045827866 0.6274510025978088 0.6392157077789307 0.6039215922355652
0.03768472746014595 0.4307595193386078 0.9893280863761902 0.29411765933036804 0.29411765933036804 0.2549019753932953
0.18940886855125427 0.351018488407135 0.0071146246045827866 0.6039215922355652 0.6039215922355652 0.5647059082984924
0.002463054144755006 0.3612821698188782 0.8256916999816895 0.5686274766921997 0.5686274766921997 0.5372549295425415
0.15935960412025452 0.4373914301395416 0.9901185631752014 0.4000000059604645 0.38823530077934265 0.3529411852359772
0.003448275849223137 0.4276014566421509 0.6407114863395691 0.6392157077789307 0.6274510025978088 0.6000000238418579
0.004926108289510012 0.43849676847457886 0.18498024344444275 0.6784313917160034 0.6901960968971252 0.615686297416687
0.003940886817872524 0.45570820569992065 0.6011857986450195 0.6078431606292725 0.6039215922355652 0.5843137502670288
0.004679802805185318 0.38686245679855347 0.10869564861059189 0.6745098233222961 0.7019608020782471 0.6313725709915161
0.20369458198547363 0.47023528814315796 0.007509881630539894 0.5686274766921997 0.572549045085907 0.501960813999176
0.004187192302197218 0.4566556215286255 0.5035573244094849 0.6235294342041016 0.615686297416687 0.5686274766921997
0.002463054144755006 0.3241749703884125 0.9375494122505188 0.47843137383461 0.48235294222831726 0.4117647111415863
0.002463054144755006 0.32875415682792664 0.7747035622596741 0.6431372761726379 0.6392157077789307 0.6196078658103943
0.0036945813335478306 0.4534975588321686 0.7193675637245178 0.5960784554481506 0.5960784554481506 0.5490196347236633
0.002463054144755006 0.34975525736808777 0.7023715376853943 0.6666666865348816 0.6666666865348816 0.6352941393852234
0.1307881772518158 0.44607609510421753 0.9901185631752014 0.37254902720451355 0.364705890417099 0.3176470696926117
0.04433497413992882 0.4422864317893982 0.009486165829002857 0.5058823823928833 0.5137255191802979 0.4588235318660736
0.0032019703648984432 0.3281225264072418 0.3806324005126953 0.658823549747467 0.6666666865348816 0.6235294342041016
0.003448275849223137 0.38591504096984863 0.9869565367698669 0.30588236451148987 0.29019609093666077 0.24705882370471954
0.18719211220741272 0.3184904456138611 0.0071146246045827866 0.5215686559677124 0.5254902243614197 0.47058823704719543
0.003940886817872524 0.4680246412754059 0.6430829763412476 0.6000000238418579 0.5921568870544434 0.5411764979362488
0.002463054144755006 0.33507025241851807 0.7150197625160217 0.6705882549285889 0.6745098233222961 0.6509804129600525
0.012561576440930367 0.40312647819519043 0.009881422854959965 0.5058823823928833 0.49803921580314636 0.4470588266849518
0.002216748660430312 0.3221222162246704 0.8134387135505676 0.6039215922355652 0.6000000238418579 0.5843137502670288
0.04926108196377754 0.31754302978515625 0.9893280863761902 0.41960784792900085 0.4117647111415863 0.364705890417099
0.0036945813335478306 0.44923415780067444 0.6371541619300842 0.615686297416687 0.615686297416687 0.5843137502670288
0.059359606355428696 0.4306015968322754 0.9893280863761902 0.33725491166114807 0.3294117748737335 0.2823529541492462
0.004679802805185318 0.3791252076625824 0.0881422907114029 0.6823529601097107 0.7176470756530762 0.6509804129600525
0.004433497320860624 0.42444339394569397 0.31343874335289 0.6509804129600525 0.6666666865348816 0.6078431606292725
0.004926108289510012 0.4516027271747589 0.25731223821640015 0.6745098233222961 0.6627451181411743 0.5882353186607361
0.003448275849223137 0.42128533124923706 0.8019762635231018 0.545098066329956 0.5529412031173706 0.501960813999176
0.004187192302197218 0.34643927216529846 0.1411067247390747 0.6823529601097107 0.6980392336845398 0.6392157077789307
0.005172413773834705 0.3964945375919342 0.08260869234800339 0.6705882549285889 0.686274528503418 0.6196078658103943
0.06428571790456772 0.3849676251411438 0.9893280863761902 0.4156862795352936 0.40784314274787903 0.35686275362968445
0.002216748660430312 0.3276488184928894 0.8320158123970032 0.5803921818733215 0.5843137502670288 0.5647059082984924
0.003940886817872524 0.4634454548358917 0.5660079121589661 0.6078431606292725 0.6117647290229797 0.5568627715110779
0.002955665113404393 0.3876519799232483 0.8675889372825623 0.4941176474094391 0.49803921580314636 0.46666666865348816
0.005911330226808786 0.4168640375137329 0.9893280863761902 0.2666666805744171 0.250980406999588 0.2078431397676468
0.003448275849223137 0.3159639835357666 0.24347825348377228 0.6784313917160034 0.6901960968971252 0.6470588445663452
0.23620688915252686 0.37786200642585754 0.9897233247756958 0.4117647111415863 0.4000000059604645 0.364705890417099
0.002463054144755006 0.3165956139564514 0.7043478488922119 0.6823529601097107 0.6823529601097107 0.6745098233222961
0.03201970458030701 0.44070741534233093 0.009881422854959965 0.43921568989753723 0.46666666865348816 0.43921568989753723
0.005418719258159399 0.3911258578300476 0.05928853899240494 0.6941176652908325 0.7019608020782471 0.6470588445663452
0.003448275849223137 0.3508605659008026 0.36679843068122864 0.6705882549285889 0.6784313917160034 0.6352941393852234
0.003448275849223137 0.39523133635520935 0.91660076379776 0.47843137383461 0.45490196347236633 0.3921568691730499
0.17315271496772766 0.4735512435436249 0.007509881630539894 0.529411792755127 0.5411764979362488 0.4745098054409027
0.10615763813257217 0.38070425391197205 0.007905138656497002 0.686274528503418 0.6784313917160034 0.6196078658103943
0.0027093596290796995 0.3336491286754608 0.6059288382530212 0.6705882549285889 0.6745098233222961 0.6509804129600525
0.005418719258159399 0.4075477719306946 0.9893280863761902 0.26274511218070984 0.2549019753932953 0.20392157137393951
0.005172413773834705 0.43786513805389404 0.17430830001831055 0.686274528503418 0.6901960968971252 0.6196078658103943
0.06650245934724808 0.4632875323295593 0.008695651777088642 0.545098066329956 0.5333333611488342 0.4745098054409027
