0.63768470287323 0.7950418591499329 0.992094874382019 1.0 1.0 1.0
0.6647783517837524 0.8482551574707031 0.9909090995788574 0.35686275362968445 0.3450980484485626 0.3176470696926117
0.6009852290153503 0.7966208457946777 0.00830039568245411 0.2823529541492462 0.27450981736183167 0.22745098173618317
0.5975369215011597 0.7993052005767822 0.29328063130378723 0.4588235318660736 0.5098039507865906 0.48235294222831726
0.6310344934463501 0.729669988155365 0.29525691270828247 0.5921568870544434 0.615686297416687 0.6078431606292725
0.6960591077804565 0.7254065871238708 0.0063241105526685715 0.27843138575553894 0.29019609093666077 0.2549019753932953
0.6509852409362793 0.7751460671424866 0.008695651777088642 0.27450981736183167 0.2823529541492462 0.239215686917305
0.6278325319290161 0.7500394582748413 0.29486167430877686 0.545098066329956 0.5647059082984924 0.5490196347236633
0.5133004784584045 0.8293067812919617 0.9901185631752014 0.3137255012989044 0.30980393290519714 0.29019609093666077
0.6689655184745789 0.8477814793586731 0.0071146246045827866 0.3019607961177826 0.3137255012989044 0.27843138575553894
0.6600984930992126 0.7524080276489258 0.00830039568245411 0.21176470816135406 0.20392157137393951 0.1568627506494522
0.6051723957061768 0.8089373111724854 0.008695651777088642 0.27843138575553894 0.2705882489681244 0.21960784494876862
0.7147783041000366 0.8458866477012634 0.0071146246045827866 0.3137255012989044 0.34117648005485535 0.30980393290519714
0.5330049395561218 0.8430444002151489 0.9897233247756958 0.3176470696926117 0.3137255012989044 0.30588236451148987
0.5347290635108948 0.7980419993400574 0.9901185631752014 0.3019607961177826 0.3019607961177826 0.29411765933036804
0.507881760597229 0.7909363508224487 0.00909090880304575 0.3490196168422699 0.33725491166114807 0.2705882489681244
0.648522138595581 0.8007263541221619 0.992094874382019 1.0 1.0 1.0
0.49827587604522705 0.7877783179283142 0.22094862163066864 0.5843137502670288 0.6235294342041016 0.6196078658103943
0.5460591316223145 0.7279330492019653 0.9909090995788574 0.30980393290519714 0.30588236451148987 0.29019609093666077
0.6115763783454895 0.7986736297607422 0.992094874382019 0.6117647290229797 0.6274510025978088 0.6392157077789307
0.5852216482162476 0.7255644798278809 0.29525691270828247 0.5764706134796143 0.5921568870544434 0.6039215922355652
0.7160098552703857 0.7329859733581543 0.0063241105526685715 0.1921568661928177 0.1921568661928177 0.15294118225574493
0.7197044491767883 0.745934009552002 0.29486167430877686 0.5686274766921997 0.5882353186607361 0.6000000238418579
0.7197044491767883 0.8607295155525208 0.25177866220474243 0.03529411926865578 0.03529411926865578 0.03529411926865578
0.7120689749717712 0.8659403324127197 0.2505928874015808 0.03921568766236305 0.03921568766236305 0.03921568766236305
0.5990147590637207 0.7475130558013916 0.991304337978363 0.3607843220233917 0.35686275362968445 0.3803921639919281
0.5923645496368408 0.8360966444015503 0.16758893430233002 0.364705890417099 0.4000000059604645 0.38823530077934265
0.6972906589508057 0.8575714230537415 0.24268774688243866 0.20000000298023224 0.21568627655506134 0.22745098173618317
0.5965517163276672 0.7432496547698975 0.29486167430877686 0.5333333611488342 0.5529412031173706 0.5372549295425415
0.6078817844390869 0.734880805015564 0.29525691270828247 0.572549045085907 0.5803921818733215 0.5764706134796143
0.5103448033332825 0.8340439200401306 0.9897233247756958 0.3333333432674408 0.3333333432674408 0.3019607961177826
0.5253694653511047 0.8013579845428467 0.29407113790512085 0.6000000238418579 0.6313725709915161 0.6392157077789307
0.5133004784584045 0.7490920424461365 0.9905138611793518 0.30588236451148987 0.30980393290519714 0.2862745225429535
0.633004903793335 0.8643612861633301 0.007509881630539894 0.1921568661928177 0.18431372940540314 0.13725490868091583
0.5236453413963318 0.7814621925354004 0.1924901157617569 0.05882352963089943 0.05882352963089943 0.05882352963089943
0.7273399233818054 0.7495657801628113 0.0063241105526685715 0.1568627506494522 0.1568627506494522 0.11764705926179886
0.6566502451896667 0.8330965042114258 0.17826086282730103 0.29411765933036804 0.3294117748737335 0.32549020648002625
0.639162540435791 0.7918837666511536 0.29328063130378723 0.45490196347236633 0.49803921580314636 0.4745098054409027
0.7150246500968933 0.7723038196563721 0.992094874382019 0.95686274766922 0.9764705896377563 0.9921568632125854
0.6450738906860352 0.7693036198616028 0.29446640610694885 0.4901960790157318 0.5254902243614197 0.5215686559677124
0.7142857313156128 0.7781462073326111 0.29367589950561523 0.5137255191802979 0.5529412031173706 0.5568627715110779
0.7322660088539124 0.7500394582748413 0.9924901127815247 0.95686274766922 0.9686274528503418 0.9882352948188782
0.7184728980064392 0.8302541971206665 0.9909090995788574 0.42352941632270813 0.41960784792900085 0.4117647111415863
0.7236453294754028 0.8357808589935303 0.006719367578625679 0.3607843220233917 0.364705890417099 0.29411765933036804
0.6884236335754395 0.7222485542297363 0.9924901127815247 0.9647058844566345 0.9764705896377563 1.0
0.7320197224617004 0.746249794960022 0.0063241105526685715 0.1921568661928177 0.1921568661928177 0.16078431904315948
0.6995074152946472 0.8553608059883118 0.9905138611793518 0.4313725531101227 0.4117647111415863 0.4000000059604645
0.6997537016868591 0.7176693677902222 0.29525691270828247 0.6313725709915161 0.6549019813537598 0.6549019813537598
0.7012315392494202 0.8665719032287598 0.0071146246045827866 0.29411765933036804 0.2862745225429535 0.239215686917305
0.7189655303955078 0.8605716228485107 0.23241107165813446 0.03921568766236305 0.0470588244497776 0.04313725605607033
0.5975369215011597 0.8469919562339783 0.007905138656497002 0.1882352977991104 0.1882352977991104 0.1411764770746231
0.6793103218078613 0.7890415191650391 0.00830039568245411 0.21176470816135406 0.21960784494876862 0.1764705926179886
0.5150246024131775 0.7920416593551636 0.9901185631752014 0.29411765933036804 0.2980392277240753 0.27843138575553894
0.5189655423164368 0.718616783618927 0.2960474193096161 0.5647059082984924 0.5686274766921997 0.5882353186607361
0.5623152852058411 0.8420969247817993 0.00830039568245411 0.3960784375667572 0.38823530077934265 0.34117648005485535
0.6992610692977905 0.826938271522522 0.991304337978363 0.43921568989753723 0.43529412150382996 0.41960784792900085
0.6965517401695251 0.7252486944198608 0.9928853511810303 0.9725490212440491 0.9882352948188782 1.0
0.5029556751251221 0.8209379315376282 0.9897233247756958 0.32156863808631897 0.32549020648002625 0.3019607961177826
0.6694581508636475 0.7303016185760498 0.29525691270828247 0.6313725709915161 0.6666666865348816 0.6627451181411743
0.5248768329620361 0.8038843870162964 0.23557312786579132 0.1568627506494522 0.15294118225574493 0.13725490868091583
0.6586207151412964 0.8283593654632568 0.007905138656497002 0.3137255012989044 0.34117648005485535 0.27843138575553894
0.5258620977401733 0.8122532963752747 0.9901185631752014 0.30980393290519714 0.30588236451148987 0.2862745225429535
0.626600980758667 0.7569872140884399 0.007905138656497002 0.21176470816135406 0.20000000298023224 0.1411764770746231
0.7366995215415955 0.7855676412582397 0.006719367578625679 0.23137255012989044 0.23137255012989044 0.18431372940540314
0.6246305704116821 0.8376756906509399 0.991304337978363 0.30980393290519714 0.3137255012989044 0.29411765933036804
0.7140393853187561 0.7457761168479919 0.29486167430877686 0.5882353186607361 0.6117647290229797 0.5960784554481506
0.6751231551170349 0.7666193246841431 0.9916995763778687 0.9686274528503418 0.9843137264251709 0.9960784316062927
0.5517241358757019 0.7579346299171448 0.00830039568245411 0.2235294133424759 0.2235294133424759 0.1764705926179886
0.7086206674575806 0.7440391778945923 0.0063241105526685715 0.20392157137393951 0.20392157137393951 0.1568627506494522
0.7283251285552979 0.7372493147850037 0.29486167430877686 0.572549045085907 0.6000000238418579 0.6235294342041016
0.5669950842857361 0.7261961102485657 0.29525691270828247 0.6078431606292725 0.6274510025978088 0.6392157077789307
0.7145320177078247 0.8632559776306152 0.2719367444515228 0.03529411926865578 0.03529411926865578 0.03529411926865578
0.6955664753913879 0.8643612861633301 0.2699604630470276 0.27450981736183167 0.29019609093666077 0.3019607961177826
0.6541872024536133 0.7173535227775574 0.2956521809101105 0.6274510025978088 0.6470588445663452 0.658823549747467
0.5285714268684387 0.7528817057609558 0.0071146246045827866 0.1411764770746231 0.15294118225574493 0.11764705926179886
0.692118227481842 0.8487288951873779 0.18418972194194794 0.27450981736183167 0.30980393290519714 0.30588236451148987
0.6019704341888428 0.7201957702636719 0.007509881630539894 0.2235294133424759 0.2078431397676468 0.16078431904315948
0.5953202247619629 0.7928311824798584 0.007905138656497002 0.2235294133424759 0.21568627655506134 0.16470588743686676
0.6647783517837524 0.7923575043678284 0.29328063130378723 0.47058823704719543 0.4941176474094391 0.48627451062202454
0.5950738787651062 0.7539870738983154 0.29486167430877686 0.5137255191802979 0.5372549295425415 0.5372549295425415
0.5357142686843872 0.8234643936157227 0.9905138611793518 0.29019609093666077 0.27843138575553894 0.250980406999588
0.6270936131477356 0.7663034796714783 0.992094874382019 0.8784313797950745 0.8980392217636108 0.9098039269447327
0.7152709364891052 0.8648349642753601 0.0071146246045827866 0.26274511218070984 0.250980406999588 0.2235294133424759
0.7229064106941223 0.7975683212280273 0.2924901247024536 0.47058823704719543 0.5058823823928833 0.5411764979362488
0.6408867239952087 0.7735670208930969 0.00830039568245411 0.3019607961177826 0.29411765933036804 0.24313725531101227
0.6445812582969666 0.7770408987998962 0.00830039568245411 0.21568627655506134 0.2235294133424759 0.18039216101169586
0.5298029780387878 0.8653087019920349 0.9893280863761902 0.32549020648002625 0.32156863808631897 0.3019607961177826
0.7315270900726318 0.8132007122039795 0.006719367578625679 0.2666666805744171 0.250980406999588 0.20392157137393951
0.7174876928329468 0.7195641994476318 0.0063241105526685715 0.29411765933036804 0.29411765933036804 0.24705882370471954
0.6145319938659668 0.8351492285728455 0.9916995763778687 0.2980392277240753 0.29411765933036804 0.2862745225429535
0.6352216601371765 0.8558345437049866 0.9905138611793518 0.3450980484485626 0.34117648005485535 0.32549020648002625
0.7349753975868225 0.7596715688705444 0.9924901127815247 0.9490196108818054 0.9686274528503418 0.9843137264251709
0.5805418491363525 0.826938271522522 0.00830039568245411 0.3686274588108063 0.34117648005485535 0.30980393290519714
0.6588670015335083 0.821411669254303 0.1826086938381195 0.24705882370471954 0.2862745225429535 0.29019609093666077
0.6073891520500183 0.7650402784347534 0.29446640610694885 0.47843137383461 0.4941176474094391 0.4901960790157318
0.7130541801452637 0.8563082218170166 0.29446640610694885 0.30588236451148987 0.34117648005485535 0.33725491166114807
0.6465517282485962 0.7522501349449158 0.29486167430877686 0.5529412031173706 0.5764706134796143 0.5607843399047852
0.4965517222881317 0.8566240072250366 0.0071146246045827866 0.4156862795352936 0.4274509847164154 0.3450980484485626
0.5009852051734924 0.849360466003418 0.0063241105526685715 0.572549045085907 0.5921568870544434 0.5058823823928833
0.5709359645843506 0.7947260141372681 0.29367589950561523 0.5215686559677124 0.545098066329956 0.545098066329956
0.6551724076271057 0.7389862537384033 0.992094874382019 0.9411764740943909 0.9607843160629272 0.9764705896377563
0.7004926204681396 0.8441497087478638 0.0071146246045827866 0.32549020648002625 0.3294117748737335 0.30980393290519714
0.6692118048667908 0.8657823801040649 0.17944663763046265 0.3333333432674408 0.364705890417099 0.37254902720451355
0.5332512259483337 0.7498815655708313 0.9905138611793518 0.2235294133424759 0.22745098173618317 0.2078431397676468
0.5945813059806824 0.7220906615257263 0.991304337978363 0.3294117748737335 0.3294117748737335 0.33725491166114807
0.6509852409362793 0.8528343439102173 0.9909090995788574 0.3490196168422699 0.3490196168422699 0.34117648005485535
0.6384236216545105 0.8354650139808655 0.18063241243362427 0.29019609093666077 0.33725491166114807 0.3294117748737335
0.6618226766586304 0.7359861135482788 0.992094874382019 0.9529411792755127 0.9725490212440491 0.9882352948188782
0.5931034684181213 0.7694615721702576 0.991304337978363 0.34117648005485535 0.34117648005485535 0.3333333432674408
0.61231529712677 0.8043581247329712 0.992094874382019 0.6745098233222961 0.6980392336845398 0.6980392336845398
0.7236453294754028 0.7873045802116394 0.29288536310195923 0.5176470875740051 0.545098066329956 0.5764706134796143
0.5120689868927002 0.8293067812919617 0.9901185631752014 0.3294117748737335 0.32549020648002625 0.30588236451148987
0.5236453413963318 0.7279330492019653 0.004743082914501429 0.35686275362968445 0.3686274588108063 0.29411765933036804
0.6694581508636475 0.8291488885879517 0.007905138656497002 0.3294117748737335 0.32156863808631897 0.239215686917305
0.4928571283817291 0.8136743903160095 0.28932806849479675 0.12941177189350128 0.12941177189350128 0.12156862765550613
0.5278325080871582 0.7323543429374695 0.005138339940458536 0.26274511218070984 0.2705882489681244 0.22745098173618317
0.6145319938659668 0.832149088382721 0.9916995763778687 0.29411765933036804 0.29019609093666077 0.2823529541492462
0.6726601123809814 0.816516637802124 0.18418972194194794 0.4901960790157318 0.4745098054409027 0.3764705955982208
0.5541871786117554 0.718932569026947 0.2960474193096161 0.6000000238418579 0.6235294342041016 0.6235294342041016
0.6332512497901917 0.8166745901107788 0.1826086938381195 0.21960784494876862 0.23529411852359772 0.23137255012989044
0.5140393972396851 0.7604610919952393 0.9905138611793518 0.30588236451148987 0.30980393290519714 0.2862745225429535
0.5544335246086121 0.7606189846992493 0.00830039568245411 0.2823529541492462 0.250980406999588 0.2078431397676468
0.5263546705245972 0.7273014187812805 0.004743082914501429 0.29019609093666077 0.29019609093666077 0.250980406999588
0.5697044134140015 0.8683088421821594 0.008695651777088642 0.2666666805744171 0.2705882489681244 0.2078431397676468
0.4958128035068512 0.7424601316452026 0.9905138611793518 0.3137255012989044 0.3176470696926117 0.2862745225429535
0.699999988079071 0.7631454467773438 0.992094874382019 0.9647058844566345 0.9843137264251709 0.9960784316062927
0.6059113144874573 0.7710405588150024 0.29446640610694885 0.4627451002597809 0.48627451062202454 0.47843137383461
0.576600968837738 0.7366177439689636 0.991304337978363 0.3176470696926117 0.3176470696926117 0.30980393290519714
0.6076354384422302 0.7866730093955994 0.29407113790512085 0.4588235318660736 0.48235294222831726 0.4745098054409027
0.5448275804519653 0.8135164976119995 0.9905138611793518 0.27843138575553894 0.2823529541492462 0.25882354378700256
0.6514778137207031 0.8171482682228088 0.992094874382019 0.30980393290519714 0.30980393290519714 0.3019607961177826
0.6334975361824036 0.8569398522377014 0.9905138611793518 0.30980393290519714 0.30588236451148987 0.29019609093666077
0.6019704341888428 0.7680404186248779 0.29446640610694885 0.47058823704719543 0.4941176474094391 0.48627451062202454
0.63768470287323 0.7321964502334595 0.9916995763778687 0.9411764740943909 0.9529411792755127 0.9725490212440491
0.5115763545036316 0.7620400786399841 0.2956521809101105 0.6078431606292725 0.6392157077789307 0.6470588445663452
0.49482759833335876 0.7912521958351135 0.9901185631752014 0.2823529541492462 0.2823529541492462 0.27450981736183167
0.7059113383293152 0.8484130501747131 0.18300394713878632 0.3019607961177826 0.3294117748737335 0.2980392277240753
0.6142857074737549 0.8623085618019104 0.9905138611793518 0.30980393290519714 0.30980393290519714 0.3019607961177826
0.5226600766181946 0.7478288412094116 0.0063241105526685715 0.19607843458652496 0.20392157137393951 0.16078431904315948
0.693842351436615 0.7282488346099854 0.9924901127815247 0.9764705896377563 0.9803921580314636 1.0
0.6894088387489319 0.7541449666023254 0.0063241105526685715 0.18039216101169586 0.1764705926179886 0.16078431904315948
0.5642856955528259 0.7550923824310303 0.29486167430877686 0.5647059082984924 0.572549045085907 0.5686274766921997
0.6448276042938232 0.7380388379096985 0.007509881630539894 0.2549019753932953 0.2549019753932953 0.21568627655506134
0.6145319938659668 0.810832142829895 0.008695651777088642 0.22745098173618317 0.23529411852359772 0.18039216101169586
0.5337438583374023 0.7173535227775574 0.2960474193096161 0.5764706134796143 0.5882353186607361 0.6078431606292725
0.648522138595581 0.8086215257644653 0.00909090880304575 0.29411765933036804 0.30980393290519714 0.250980406999588
0.6960591077804565 0.7475130558013916 0.992094874382019 0.9647058844566345 0.9843137264251709 1.0
0.5652709603309631 0.7689878344535828 0.29446640610694885 0.5411764979362488 0.5607843399047852 0.572549045085907
0.5366995334625244 0.8446233868598938 0.00830039568245411 0.3686274588108063 0.3529411852359772 0.2549019753932953
0.6869457960128784 0.7265118956565857 0.29525691270828247 0.6352941393852234 0.6549019813537598 0.6666666865348816
0.7256157398223877 0.7224064469337463 0.29525691270828247 0.5803921818733215 0.6000000238418579 0.6235294342041016
0.5770936012268066 0.7699352502822876 0.9909090995788574 0.3176470696926117 0.32156863808631897 0.3294117748737335
0.6943349838256836 0.8645191788673401 0.21067193150520325 0.0941176488995552 0.10980392247438431 0.11372549086809158
0.6029556393623352 0.8283593654632568 0.16324110329151154 0.3176470696926117 0.3529411852359772 0.3333333432674408
0.5906403660774231 0.8116216659545898 0.9916995763778687 0.2705882489681244 0.2666666805744171 0.25882354378700256
0.6352216601371765 0.8510974049568176 0.007509881630539894 0.29019609093666077 0.2823529541492462 0.23137255012989044
0.5041871666908264 0.8487288951873779 0.0063241105526685715 0.48235294222831726 0.501960813999176 0.4156862795352936
0.6913793087005615 0.8233065009117126 0.991304337978363 0.41960784792900085 0.4156862795352936 0.40784314274787903
0.5201970338821411 0.713248074054718 0.0035573123022913933 0.3490196168422699 0.364705890417099 0.30980393290519714
0.5933497548103333 0.8514132499694824 0.9905138611793518 0.33725491166114807 0.34117648005485535 0.32156863808631897
0.5761083960533142 0.8019895553588867 0.007905138656497002 0.364705890417099 0.35686275362968445 0.30588236451148987
0.6032019853591919 0.7345649600028992 0.29525691270828247 0.5607843399047852 0.5686274766921997 0.5490196347236633
0.6103448271751404 0.762671709060669 0.007509881630539894 0.2235294133424759 0.2078431397676468 0.16470588743686676
0.5160098671913147 0.7860413789749146 0.20671936869621277 0.04313725605607033 0.04313725605607033 0.04313725605607033
0.6214285492897034 0.7457761168479919 0.29486167430877686 0.5333333611488342 0.572549045085907 0.5411764979362488
0.5394088625907898 0.8079898953437805 0.008695651777088642 0.3960784375667572 0.3921568691730499 0.37254902720451355
0.6300492882728577 0.8515711426734924 0.9909090995788574 0.34117648005485535 0.33725491166114807 0.32156863808631897
0.7066502571105957 0.7538291215896606 0.0063241105526685715 0.18431372940540314 0.18431372940540314 0.14509804546833038
0.7334975600242615 0.7487762570381165 0.0063241105526685715 0.3019607961177826 0.3019607961177826 0.26274511218070984
0.6443349719047546 0.7801989316940308 0.992094874382019 0.9372549057006836 0.9529411792755127 0.9647058844566345
0.6605911254882812 0.8120953440666199 0.008695651777088642 0.2705882489681244 0.27843138575553894 0.2235294133424759
0.5182266235351562 0.7975683212280273 0.009486165829002857 0.32156863808631897 0.3137255012989044 0.2666666805744171
0.6647783517837524 0.8332543969154358 0.1770751029253006 0.2862745225429535 0.3333333432674408 0.32549020648002625
0.6413792967796326 0.7211432456970215 0.007509881630539894 0.3450980484485626 0.32156863808631897 0.25882354378700256
0.6305418610572815 0.7527238130569458 0.29486167430877686 0.5333333611488342 0.5568627715110779 0.5411764979362488
0.5842364430427551 0.7697773575782776 0.007905138656497002 0.21176470816135406 0.2078431397676468 0.1882352977991104
0.6596059203147888 0.8522027730941772 0.007509881630539894 0.4000000059604645 0.40784314274787903 0.38823530077934265
0.5832512378692627 0.8414653539657593 0.9909090995788574 0.3333333432674408 0.33725491166114807 0.3137255012989044
0.5620689392089844 0.8402020931243896 0.00830039568245411 0.3803921639919281 0.3803921639919281 0.3333333432674408
0.5783251523971558 0.713248074054718 0.005928853526711464 0.05098039284348488 0.05882352963089943 0.0470588244497776
0.6189655065536499 0.7535133361816406 0.007509881630539894 0.23529411852359772 0.21960784494876862 0.18431372940540314
0.5396551489830017 0.7271435260772705 0.9909090995788574 0.30980393290519714 0.30588236451148987 0.29019609093666077
0.4931034445762634 0.8567819595336914 0.0071146246045827866 0.5411764979362488 0.5372549295425415 0.4274509847164154
0.6862068772315979 0.7839886546134949 0.992094874382019 0.9686274528503418 0.9843137264251709 0.9882352948188782
0.5977832674980164 0.8259908556938171 0.00830039568245411 0.3137255012989044 0.3019607961177826 0.2666666805744171
0.6142857074737549 0.8514132499694824 0.007509881630539894 0.34117648005485535 0.3450980484485626 0.27450981736183167
0.5630542039871216 0.8536238670349121 0.9901185631752014 0.3450980484485626 0.35686275362968445 0.3294117748737335
0.5369458198547363 0.7374072074890137 0.005928853526711464 0.3019607961177826 0.3137255012989044 0.239215686917305
0.629802942276001 0.7285646796226501 0.007509881630539894 0.3843137323856354 0.37254902720451355 0.30588236451148987
0.7105911374092102 0.8233065009117126 0.006719367578625679 0.4274509847164154 0.45098039507865906 0.40392157435417175
0.7024630308151245 0.8670456409454346 0.9901185631752014 0.4588235318660736 0.4431372582912445 0.4313725531101227
0.4955665171146393 0.7558819055557251 0.004347825888544321 0.27843138575553894 0.27843138575553894 0.239215686917305
0.6958128213882446 0.7688299417495728 0.006719367578625679 0.23137255012989044 0.23529411852359772 0.18039216101169586
0.7320197224617004 0.8076741099357605 0.006719367578625679 0.250980406999588 0.2549019753932953 0.20000000298023224
0.5677340030670166 0.7737249135971069 0.29407113790512085 0.5254902243614197 0.5411764979362488 0.545098066329956
0.6884236335754395 0.7929890751838684 0.992094874382019 0.9607843160629272 0.9607843160629272 0.9686274528503418
0.5226600766181946 0.7783041000366211 0.9905138611793518 0.23137255012989044 0.23529411852359772 0.21568627655506134
0.5758620500564575 0.8373598456382751 0.007905138656497002 0.4000000059604645 0.38823530077934265 0.3529411852359772
0.7169950604438782 0.8439918160438538 0.0071146246045827866 0.1568627506494522 0.18039216101169586 0.1725490242242813
0.5418719053268433 0.7501973509788513 0.007509881630539894 0.20392157137393951 0.2078431397676468 0.1764705926179886
0.5334975123405457 0.7705668807029724 0.29486167430877686 0.6666666865348816 0.6823529601097107 0.6784313917160034
0.7135468125343323 0.7784620523452759 0.9916995763778687 0.9490196108818054 0.9764705896377563 1.0
0.4965517222881317 0.8460445404052734 0.9897233247756958 0.3294117748737335 0.33725491166114807 0.29411765933036804
0.50935959815979 0.8233065009117126 0.9901185631752014 0.32549020648002625 0.3137255012989044 0.29411765933036804
0.5128079056739807 0.7727774977684021 0.9905138611793518 0.250980406999588 0.24705882370471954 0.23137255012989044
0.5903940796852112 0.7989894151687622 0.991304337978363 0.30980393290519714 0.30588236451148987 0.2980392277240753
0.6879310607910156 0.8264645338058472 0.17826086282730103 0.47058823704719543 0.4627451002597809 0.364705890417099
0.6105911135673523 0.7948839664459229 0.9916995763778687 0.4901960790157318 0.4941176474094391 0.5098039507865906
0.7130541801452637 0.7445128560066223 0.9924901127815247 0.9490196108818054 0.9803921580314636 0.9882352948188782
0.7376847267150879 0.8504658341407776 0.0071146246045827866 0.4588235318660736 0.46666666865348816 0.4156862795352936
0.5583744049072266 0.7511448264122009 0.9909090995788574 0.30588236451148987 0.30588236451148987 0.30588236451148987
0.49827587604522705 0.8143060207366943 0.9897233247756958 0.29019609093666077 0.2862745225429535 0.2666666805744171
0.6721674799919128 0.815885066986084 0.16047431528568268 0.1921568661928177 0.19607843458652496 0.1725490242242813
0.5832512378692627 0.7342491745948792 0.007905138656497002 0.25882354378700256 0.25882354378700256 0.21960784494876862
0.6453201770782471 0.805463433265686 0.992094874382019 1.0 1.0 1.0
0.6145319938659668 0.7546186447143555 0.9916995763778687 0.9647058844566345 0.9960784316062927 1.0
0.5995073914527893 0.7149850130081177 0.006719367578625679 0.33725491166114807 0.3294117748737335 0.27843138575553894
0.7115763425827026 0.7637770175933838 0.992094874382019 0.95686274766922 0.9843137264251709 1.0
0.6802955865859985 0.7786199450492859 0.29407113790512085 0.46666666865348816 0.5058823823928833 0.501960813999176
0.6901477575302124 0.8376756906509399 0.9909090995788574 0.4313725531101227 0.4156862795352936 0.40392157435417175
0.5076354742050171 0.788725733757019 0.19407114386558533 0.04313725605607033 0.05098039284348488 0.0470588244497776
0.6911330223083496 0.8540976047515869 0.0071146246045827866 0.2823529541492462 0.2705882489681244 0.250980406999588
0.6916255950927734 0.83783358335495 0.186956524848938 0.4901960790157318 0.4941176474094391 0.4313725531101227
0.6785714030265808 0.7876204252243042 0.992094874382019 0.9607843160629272 0.9764705896377563 0.9882352948188782
0.6768472790718079 0.8179377913475037 0.00830039568245411 0.40784314274787903 0.4274509847164154 0.3490196168422699
0.7236453294754028 0.8656244874000549 0.3075098693370819 0.04313725605607033 0.05098039284348488 0.0470588244497776
0.5948275923728943 0.7808305621147156 0.007905138656497002 0.21568627655506134 0.20392157137393951 0.16862745583057404
0.5642856955528259 0.8583609461784363 0.9901185631752014 0.3490196168422699 0.3529411852359772 0.3333333432674408
0.6258620619773865 0.7964629530906677 0.008695651777088642 0.16862745583057404 0.16862745583057404 0.13725490868091583
0.5807881951332092 0.7424601316452026 0.991304337978363 0.3450980484485626 0.3450980484485626 0.33725491166114807
0.6854679584503174 0.7596715688705444 0.9916995763778687 0.9725490212440491 0.9882352948188782 1.0
0.6514778137207031 0.7861992716789246 0.992094874382019 1.0 1.0 1.0
0.7093595862388611 0.8035686016082764 0.9916995763778687 0.9176470637321472 0.9137254953384399 0.9333333373069763
0.5337438583374023 0.7833570241928101 0.9905138611793518 0.3019607961177826 0.30588236451148987 0.2862745225429535
0.7339901328086853 0.8305700421333313 0.9909090995788574 0.4588235318660736 0.4470588266849518 0.4117647111415863
0.6982758641242981 0.8550450205802917 0.9905138611793518 0.41960784792900085 0.40392157435417175 0.3921568691730499
0.6613300442695618 0.8607295155525208 0.007509881630539894 0.4000000059604645 0.4117647111415863 0.3843137323856354
0.5147783160209656 0.7601452469825745 0.0071146246045827866 0.2666666805744171 0.2666666805744171 0.21960784494876862
0.6544334888458252 0.724617063999176 0.29525691270828247 0.6274510025978088 0.6470588445663452 0.6627451181411743
0.5253694653511047 0.7808305621147156 0.29486167430877686 0.6431372761726379 0.6745098233222961 0.6823529601097107
0.6009852290153503 0.805621325969696 0.9916995763778687 0.3176470696926117 0.3019607961177826 0.2980392277240753
0.6798029541969299 0.724143385887146 0.29525691270828247 0.6549019813537598 0.6745098233222961 0.686274528503418
0.670197069644928 0.7688299417495728 0.9916995763778687 0.95686274766922 0.9764705896377563 0.9882352948188782
0.7231526970863342 0.8124111890792847 0.006719367578625679 0.3176470696926117 0.32156863808631897 0.2666666805744171
0.5411329865455627 0.8187273144721985 0.9905138611793518 0.2980392277240753 0.3019607961177826 0.27843138575553894
0.7110837697982788 0.8034107089042664 0.2920948565006256 0.0941176488995552 0.09019608050584793 0.08235294371843338
0.507881760597229 0.7800410389900208 0.17905138432979584 0.06666667014360428 0.06666667014360428 0.06666667014360428
0.5086206793785095 0.7694615721702576 0.005928853526711464 0.14901961386203766 0.1568627506494522 0.14509804546833038
0.6536945700645447 0.8460445404052734 0.17312252521514893 0.29019609093666077 0.3294117748737335 0.3333333432674408
0.6066502332687378 0.7959892749786377 0.9916995763778687 0.34117648005485535 0.34117648005485535 0.3490196168422699
0.6541872024536133 0.729669988155365 0.007509881630539894 0.29019609093666077 0.27843138575553894 0.21960784494876862
0.49876847863197327 0.815885066986084 0.9897233247756958 0.2980392277240753 0.2980392277240753 0.2666666805744171
0.6113300323486328 0.7596715688705444 0.007509881630539894 0.22745098173618317 0.21176470816135406 0.16470588743686676
0.5135468244552612 0.7633033394813538 0.2956521809101105 0.6235294342041016 0.6431372761726379 0.658823549747467
0.5357142686843872 0.8332543969154358 0.007905138656497002 0.40784314274787903 0.4117647111415863 0.38823530077934265
0.7137930989265442 0.8529922366142273 0.2296442687511444 0.1411764770746231 0.1568627506494522 0.16862745583057404
0.6083743572235107 0.8450971245765686 0.991304337978363 0.3137255012989044 0.30980393290519714 0.29411765933036804
0.7246305346488953 0.7923575043678284 0.992094874382019 0.9254902005195618 0.9450980424880981 0.9686274528503418
0.5615763664245605 0.793936550617218 0.007905138656497002 0.26274511218070984 0.25882354378700256 0.24313725531101227
0.6529556512832642 0.8651508092880249 0.9901185631752014 0.4117647111415863 0.40784314274787903 0.38823530077934265
0.5273398756980896 0.8416232466697693 0.9897233247756958 0.2980392277240753 0.29411765933036804 0.27450981736183167
0.49334976077079773 0.8083056807518005 0.1671936810016632 0.1764705926179886 0.1764705926179886 0.1764705926179886
0.5088669657707214 0.7121427655220032 0.2956521809101105 0.5607843399047852 0.5647059082984924 0.5803921818733215
0.6293103694915771 0.718616783618927 0.007509881630539894 0.3490196168422699 0.33725491166114807 0.2705882489681244
0.6270936131477356 0.8452550172805786 0.9909090995788574 0.3450980484485626 0.3490196168422699 0.3294117748737335
0.6600984930992126 0.8019895553588867 0.992094874382019 1.0 1.0 1.0
0.6204433441162109 0.7959892749786377 0.992094874382019 0.7647058963775635 0.7960784435272217 0.8039215803146362
0.5879310369491577 0.7743565440177917 0.29407113790512085 0.46666666865348816 0.48235294222831726 0.47843137383461
0.5194581151008606 0.7252486944198608 0.004347825888544321 0.3176470696926117 0.32549020648002625 0.27450981736183167
0.7192118167877197 0.8615190386772156 0.21581028401851654 0.2980392277240753 0.34117648005485535 0.3490196168422699
0.6807881593704224 0.849044680595398 0.0071146246045827866 0.43529412150382996 0.43921568989753723 0.4156862795352936
0.5987684726715088 0.7898310422897339 0.007905138656497002 0.239215686917305 0.239215686917305 0.20000000298023224
0.5950738787651062 0.8035686016082764 0.00830039568245411 0.23137255012989044 0.2235294133424759 0.1764705926179886
0.6105911135673523 0.7669351100921631 0.9916995763778687 0.33725491166114807 0.3490196168422699 0.3686274588108063
0.6682265996932983 0.713248074054718 0.007509881630539894 0.04313725605607033 0.05882352963089943 0.062745101749897
0.6273398995399475 0.7582504153251648 0.29446640610694885 0.5137255191802979 0.5490196347236633 0.5372549295425415
0.5884236693382263 0.821727454662323 0.008695651777088642 0.3137255012989044 0.3019607961177826 0.27450981736183167
0.6332512497901917 0.7819358706474304 0.29407113790512085 0.45098039507865906 0.4745098054409027 0.46666666865348816
0.7056650519371033 0.8588346838951111 0.27905139327049255 0.3019607961177826 0.29019609093666077 0.32549020648002625
0.5256157517433167 0.7424601316452026 0.9905138611793518 0.3176470696926117 0.32156863808631897 0.3019607961177826
0.5187191963195801 0.7339333891868591 0.005138339940458536 0.1568627506494522 0.16078431904315948 0.1411764770746231
0.7214285731315613 0.746565580368042 0.9924901127815247 0.9529411792755127 0.9686274528503418 0.9725490212440491
0.6667487621307373 0.7140375971794128 0.007509881630539894 0.27450981736183167 0.2666666805744171 0.21568627655506134
0.6603448390960693 0.8023054003715515 0.992094874382019 1.0 1.0 1.0
0.568719208240509 0.7958313822746277 0.007509881630539894 0.2666666805744171 0.2549019753932953 0.23529411852359772
0.6687192320823669 0.8310437202453613 0.991304337978363 0.3960784375667572 0.40392157435417175 0.3921568691730499
0.564039409160614 0.7642507553100586 0.29446640610694885 0.5607843399047852 0.5764706134796143 0.5882353186607361
0.5290640592575073 0.7236696481704712 0.004743082914501429 0.24705882370471954 0.25882354378700256 0.2235294133424759
0.5270935893058777 0.7904626727104187 0.29446640610694885 0.6392157077789307 0.658823549747467 0.6705882549285889
0.697044312953949 0.8672035336494446 0.18893280625343323 0.24705882370471954 0.29019609093666077 0.2980392277240753
0.5288177132606506 0.8291488885879517 0.007509881630539894 0.32156863808631897 0.32156863808631897 0.3137255012989044
0.6640394330024719 0.7691457271575928 0.9916995763778687 0.9529411792755127 0.9725490212440491 0.9882352948188782
0.49802955985069275 0.8591504693031311 0.0071146246045827866 0.4745098054409027 0.4941176474094391 0.4156862795352936
0.554679811000824 0.7413548231124878 0.0071146246045827866 0.14509804546833038 0.14509804546833038 0.10588235408067703
0.4958128035068512 0.7367756366729736 0.2960474193096161 0.5333333611488342 0.5490196347236633 0.5607843399047852
0.6334975361824036 0.7768830060958862 0.29407113790512085 0.46666666865348816 0.4901960790157318 0.4901960790157318
0.5391625761985779 0.8084636330604553 0.00909090880304575 0.32549020648002625 0.3137255012989044 0.29411765933036804
0.5859605669975281 0.8386231064796448 0.9909090995788574 0.3294117748737335 0.3294117748737335 0.32156863808631897
0.5549260973930359 0.7610926628112793 0.9909090995788574 0.30980393290519714 0.30980393290519714 0.3019607961177826
0.6337438225746155 0.8098847270011902 0.9924901127815247 1.0 1.0 1.0
0.5477832555770874 0.8395705223083496 0.9901185631752014 0.3333333432674408 0.3294117748737335 0.30980393290519714
0.5268473029136658 0.8368861675262451 0.9901185631752014 0.32549020648002625 0.32156863808631897 0.3137255012989044
0.4931034445762634 0.7116690278053284 0.2960474193096161 0.545098066329956 0.5568627715110779 0.5764706134796143
0.6625615954399109 0.8075161576271057 0.00909090880304575 0.29411765933036804 0.3019607961177826 0.250980406999588
0.5371921062469482 0.794252336025238 0.007905138656497002 0.18431372940540314 0.18039216101169586 0.16078431904315948
0.6568965315818787 0.7451444864273071 0.9916995763778687 0.9529411792755127 0.9647058844566345 0.9843137264251709
0.5386699438095093 0.7331438660621643 0.2960474193096161 0.7058823704719543 0.7098039388656616 0.7176470756530762
0.5460591316223145 0.8209379315376282 0.007905138656497002 0.3019607961177826 0.2980392277240753 0.27843138575553894
0.693842351436615 0.8640455007553101 0.21185770630836487 0.0941176488995552 0.10980392247438431 0.11372549086809158
0.507881760597229 0.8078320026397705 0.26166006922721863 0.13725490868091583 0.13725490868091583 0.12941177189350128
0.6428571343421936 0.843675971031189 0.1762845814228058 0.29019609093666077 0.32549020648002625 0.32156863808631897
0.6566502451896667 0.8496763110160828 0.1711462438106537 0.2862745225429535 0.3176470696926117 0.32549020648002625
0.6884236335754395 0.8656244874000549 0.23241107165813446 0.19607843458652496 0.21176470816135406 0.2235294133424759
0.5588669776916504 0.8283593654632568 0.00830039568245411 0.30588236451148987 0.30588236451148987 0.2666666805744171
0.6596059203147888 0.8515711426734924 0.9909090995788574 0.29019609093666077 0.29019609093666077 0.250980406999588
0.5411329865455627 0.8597820997238159 0.008695651777088642 0.3607843220233917 0.364705890417099 0.30980393290519714
0.6381773352622986 0.8537817597389221 0.007509881630539894 0.2549019753932953 0.24705882370471954 0.1882352977991104
0.5665024518966675 0.7394599914550781 0.29525691270828247 0.5882353186607361 0.6117647290229797 0.6117647290229797
0.6522167325019836 0.7397757768630981 0.007905138656497002 0.27843138575553894 0.2705882489681244 0.2235294133424759
0.7120689749717712 0.7768830060958862 0.006719367578625679 0.24313725531101227 0.24313725531101227 0.20392157137393951
0.5081281065940857 0.7904626727104187 0.00909090880304575 0.3019607961177826 0.29019609093666077 0.2235294133424759
0.6672413945198059 0.7400915622711182 0.992094874382019 0.9647058844566345 0.9686274528503418 0.9764705896377563
0.5455664992332458 0.7288804650306702 0.2960474193096161 0.6941176652908325 0.7098039388656616 0.7058823704719543
0.5140393972396851 0.8528343439102173 0.9893280863761902 0.3450980484485626 0.3450980484485626 0.30588236451148987
0.68916255235672 0.8334122896194458 0.18458497524261475 0.4941176474094391 0.47843137383461 0.37254902720451355
0.5391625761985779 0.7310910820960999 0.005533596966415644 0.22745098173618317 0.239215686917305 0.20392157137393951
0.6761083602905273 0.8683088421821594 0.007509881630539894 0.21960784494876862 0.21568627655506134 0.19607843458652496
0.5330049395561218 0.8188852071762085 0.9905138611793518 0.29411765933036804 0.2980392277240753 0.27843138575553894
0.5485221743583679 0.7271435260772705 0.2960474193096161 0.6901960968971252 0.7058823704719543 0.7019608020782471
0.4960591197013855 0.7179851531982422 0.9909090995788574 0.32549020648002625 0.32549020648002625 0.29411765933036804
0.5721675157546997 0.7629875540733337 0.29446640610694885 0.529411792755127 0.545098066329956 0.5490196347236633
0.6802955865859985 0.849202573299408 0.0071146246045827866 0.43529412150382996 0.43921568989753723 0.4156862795352936
0.5352216958999634 0.7773566842079163 0.29486167430877686 0.6470588445663452 0.6666666865348816 0.6784313917160034
0.504679799079895 0.7819358706474304 0.17984189093112946 0.05882352963089943 0.05882352963089943 0.05882352963089943
0.617241382598877 0.832464873790741 0.18458497524261475 0.3490196168422699 0.40392157435417175 0.40392157435417175
0.7216748595237732 0.8550450205802917 0.9901185631752014 0.43529412150382996 0.42352941632270813 0.40392157435417175
0.5598522424697876 0.8360966444015503 0.9905138611793518 0.32156863808631897 0.32549020648002625 0.30588236451148987
0.5394088625907898 0.7271435260772705 0.9909090995788574 0.30980393290519714 0.30588236451148987 0.29019609093666077
0.7071428298950195 0.713090181350708 0.0063241105526685715 0.27450981736183167 0.2862745225429535 0.250980406999588
0.673399031162262 0.7835149168968201 0.29367589950561523 0.46666666865348816 0.501960813999176 0.4901960790157318
0.584482729434967 0.735038697719574 0.29525691270828247 0.5568627715110779 0.572549045085907 0.5843137502670288
0.5295566320419312 0.7947260141372681 0.01067193690687418 0.2549019753932953 0.250980406999588 0.23137255012989044
0.5928571224212646 0.7254065871238708 0.991304337978363 0.3333333432674408 0.3333333432674408 0.3333333432674408
0.5113300681114197 0.8522027730941772 0.9893280863761902 0.3450980484485626 0.3450980484485626 0.30588236451148987
0.7256157398223877 0.7726196050643921 0.29407113790512085 0.5215686559677124 0.5411764979362488 0.5529412031173706
0.7204433679580688 0.7659876942634583 0.992094874382019 0.9490196108818054 0.9686274528503418 0.9921568632125854
0.5450738668441772 0.7841465473175049 0.29407113790512085 0.6000000238418579 0.6196078658103943 0.6313725709915161
0.5534482598304749 0.7123006582260132 0.004743082914501429 0.2549019753932953 0.2666666805744171 0.239215686917305
0.63768470287323 0.7732512354850769 0.992094874382019 0.9098039269447327 0.929411768913269 0.9411764740943909
0.5928571224212646 0.7167219519615173 0.006719367578625679 0.26274511218070984 0.2549019753932953 0.2078431397676468
0.4992610812187195 0.7751460671424866 0.006719367578625679 0.47058823704719543 0.43921568989753723 0.35686275362968445
0.7305418848991394 0.8604137301445007 0.16324110329151154 0.1921568661928177 0.2078431397676468 0.20392157137393951
0.6305418610572815 0.821253776550293 0.992094874382019 0.32549020648002625 0.32156863808631897 0.3137255012989044
0.6113300323486328 0.7566714286804199 0.9916995763778687 0.3137255012989044 0.3294117748737335 0.37254902720451355
0.5300492644309998 0.8564661145210266 0.9893280863761902 0.3450980484485626 0.3490196168422699 0.32549020648002625
0.5391625761985779 0.735354483127594 0.2960474193096161 0.7058823704719543 0.7137255072593689 0.7019608020782471
0.5591133236885071 0.746249794960022 0.29486167430877686 0.6000000238418579 0.615686297416687 0.6274510025978088
0.5322660207748413 0.7896731495857239 0.29446640610694885 0.6313725709915161 0.6549019813537598 0.6549019813537598
0.6428571343421936 0.8023054003715515 0.29288536310195923 0.4588235318660736 0.49803921580314636 0.4941176474094391
0.6864532232284546 0.8630980849266052 0.18379446864128113 0.3294117748737335 0.3607843220233917 0.3686274588108063
0.7105911374092102 0.8465182185173035 0.17549407482147217 0.29411765933036804 0.32549020648002625 0.27450981736183167
0.6096059083938599 0.794094443321228 0.00830039568245411 0.239215686917305 0.239215686917305 0.20000000298023224
0.6746305227279663 0.7211432456970215 0.007905138656497002 0.062745101749897 0.07058823853731155 0.06666667014360428
0.7027093768119812 0.7522501349449158 0.29446640610694885 0.5882353186607361 0.6117647290229797 0.6117647290229797
0.6492610573768616 0.7285646796226501 0.29525691270828247 0.6235294342041016 0.6431372761726379 0.658823549747467
0.7201970219612122 0.8501499891281128 0.0071146246045827866 0.3764705955982208 0.3803921639919281 0.3490196168422699
0.5379310250282288 0.8522027730941772 0.9897233247756958 0.32549020648002625 0.32156863808631897 0.3019607961177826
0.6940886974334717 0.7966208457946777 0.0071146246045827866 0.1882352977991104 0.1921568661928177 0.13725490868091583
0.6450738906860352 0.7813042998313904 0.008695651777088642 0.1921568661928177 0.20000000298023224 0.14901961386203766
0.6847290396690369 0.7107216119766235 0.0063241105526685715 0.43921568989753723 0.4313725531101227 0.3843137323856354
0.5307881832122803 0.7580925226211548 0.9905138611793518 0.2980392277240753 0.3019607961177826 0.2823529541492462
0.5251231789588928 0.8476235866546631 0.9897233247756958 0.30980393290519714 0.30588236451148987 0.29019609093666077
0.6056650280952454 0.8239381313323975 0.9916995763778687 0.2666666805744171 0.26274511218070984 0.24705882370471954
0.6997537016868591 0.7866730093955994 0.29328063130378723 0.47843137383461 0.5137255191802979 0.5098039507865906
0.5768473148345947 0.8662561178207397 0.00830039568245411 0.33725491166114807 0.32156863808631897 0.2862745225429535
0.7133004665374756 0.8548871278762817 0.18102766573429108 0.2549019753932953 0.2862745225429535 0.29411765933036804
0.6544334888458252 0.8261487483978271 0.9916995763778687 0.3333333432674408 0.3333333432674408 0.32549020648002625
0.5701970458030701 0.8499920964241028 0.00830039568245411 0.43529412150382996 0.4274509847164154 0.3764705955982208
0.5477832555770874 0.7356703281402588 0.2956521809101105 0.6901960968971252 0.6980392336845398 0.686274528503418
0.6394088864326477 0.7209852933883667 0.992094874382019 0.9450980424880981 0.9647058844566345 0.9803921580314636
0.5428571701049805 0.724459171295166 0.9909090995788574 0.3137255012989044 0.30980393290519714 0.29411765933036804
0.6677339673042297 0.8237801790237427 0.9916995763778687 0.42352941632270813 0.42352941632270813 0.4156862795352936
0.674876868724823 0.7730933427810669 0.9916995763778687 0.9686274528503418 0.9843137264251709 0.9960784316062927
0.5778325200080872 0.8248855471611023 0.008695651777088642 0.35686275362968445 0.3294117748737335 0.2980392277240753
0.7093595862388611 0.7138797044754028 0.29525691270828247 0.5921568870544434 0.6117647290229797 0.6235294342041016
0.6884236335754395 0.8155692219734192 0.9916995763778687 0.43921568989753723 0.4745098054409027 0.501960813999176
0.7182266116142273 0.7438812851905823 0.29486167430877686 0.5803921818733215 0.6039215922355652 0.6039215922355652
0.7275862097740173 0.8679930567741394 0.18537549674510956 0.20392157137393951 0.22745098173618317 0.22745098173618317
0.7071428298950195 0.8578872680664062 0.21462450921535492 0.11372549086809158 0.11372549086809158 0.11372549086809158
0.7103448510169983 0.7255644798278809 0.9928853511810303 0.9647058844566345 0.9843137264251709 0.9960784316062927
0.729556679725647 0.8278856873512268 0.9909090995788574 0.47058823704719543 0.45490196347236633 0.41960784792900085
0.6004925966262817 0.83830726146698 0.007905138656497002 0.3450980484485626 0.3333333432674408 0.30588236451148987
0.6815270781517029 0.8623085618019104 0.9901185631752014 0.3764705955982208 0.37254902720451355 0.35686275362968445
0.7147783041000366 0.8665719032287598 0.30513834953308105 0.19607843458652496 0.2235294133424759 0.24705882370471954
0.631280779838562 0.7955155372619629 0.992094874382019 1.0 1.0 1.0
0.5753694772720337 0.8627822399139404 0.00830039568245411 0.2078431397676468 0.2078431397676468 0.16862745583057404
0.6561576128005981 0.7863571643829346 0.008695651777088642 0.19607843458652496 0.20392157137393951 0.16078431904315948
0.49802955985069275 0.7825675010681152 0.007509881630539894 0.4000000059604645 0.38823530077934265 0.32156863808631897
0.7354679703712463 0.7205116152763367 0.0063241105526685715 0.3019607961177826 0.29411765933036804 0.24313725531101227
0.5896551609039307 0.7903047800064087 0.991304337978363 0.30980393290519714 0.30588236451148987 0.2980392277240753
0.5522167682647705 0.7269856333732605 0.005928853526711464 0.30588236451148987 0.3019607961177826 0.2862745225429535
0.49876847863197327 0.7743565440177917 0.2956521809101105 0.545098066329956 0.5764706134796143 0.5843137502670288
0.6709359884262085 0.8030949234962463 0.2924901247024536 0.062745101749897 0.0784313753247261 0.07450980693101883
0.5990147590637207 0.7424601316452026 0.29486167430877686 0.5333333611488342 0.5490196347236633 0.545098066329956
0.5137931108474731 0.8591504693031311 0.007905138656497002 0.41960784792900085 0.43921568989753723 0.3490196168422699
0.573645293712616 0.8173061609268188 0.991304337978363 0.26274511218070984 0.26274511218070984 0.26274511218070984
0.6943349838256836 0.7852518558502197 0.992094874382019 0.9647058844566345 0.9803921580314636 0.9843137264251709
0.5953202247619629 0.816516637802124 0.008695651777088642 0.3450980484485626 0.33725491166114807 0.2862745225429535
0.6775861978530884 0.7555660605430603 0.9916995763778687 0.9764705896377563 0.9803921580314636 0.9882352948188782
0.6679803133010864 0.75730299949646 0.9916995763778687 0.95686274766922 0.9764705896377563 0.9921568632125854
0.5219211578369141 0.8300963044166565 0.007509881630539894 0.1764705926179886 0.16470588743686676 0.13725490868091583
0.5869458317756653 0.7511448264122009 0.29486167430877686 0.5333333611488342 0.5490196347236633 0.5529412031173706
0.5416256189346313 0.7115111351013184 0.991304337978363 0.30588236451148987 0.30980393290519714 0.2862745225429535
0.5113300681114197 0.7227222323417664 0.003952569328248501 0.4156862795352936 0.4156862795352936 0.3686274588108063
0.6071428656578064 0.8345175981521606 0.007905138656497002 0.30588236451148987 0.30588236451148987 0.27450981736183167
