0.48275861144065857 0.6407705545425415 0.9916995763778687 0.364705890417099 0.3607843220233917 0.34117648005485535
0.5066502690315247 0.6022422313690186 0.004347825888544321 0.46666666865348816 0.48627451062202454 0.47058823704719543
0.3738916218280792 0.6346123218536377 0.991304337978363 0.32549020648002625 0.32156863808631897 0.3019607961177826
0.6128078699111938 0.5859782099723816 0.2964426875114441 0.6196078658103943 0.6313725709915161 0.6509804129600525
0.5714285969734192 0.696984052658081 0.003952569328248501 0.2823529541492462 0.2666666805744171 0.23137255012989044
0.5874384045600891 0.5727143287658691 0.29169961810112 0.15294118225574493 0.16078431904315948 0.1411764770746231
0.43866994976997375 0.632717490196228 0.00830039568245411 0.33725491166114807 0.33725491166114807 0.2980392277240753
0.49729064106941223 0.7102479338645935 0.0019762846641242504 0.3607843220233917 0.37254902720451355 0.2980392277240753
0.40320196747779846 0.6437707543373108 0.991304337978363 0.30588236451148987 0.30588236451148987 0.27450981736183167
0.4241379201412201 0.6731407046318054 0.9909090995788574 0.30980393290519714 0.30980393290519714 0.2705882489681244
0.4000000059604645 0.5550292134284973 0.29486167430877686 0.5490196347236633 0.5921568870544434 0.615686297416687
0.5118226408958435 0.6696668267250061 0.0031620552763342857 0.4156862795352936 0.4156862795352936 0.3764705955982208
0.5056650042533875 0.626559317111969 0.29920947551727295 0.21960784494876862 0.21960784494876862 0.18039216101169586
0.576600968837738 0.6688773036003113 0.9916995763778687 0.37254902720451355 0.37254902720451355 0.3803921639919281
0.4524630606174469 0.6849834322929382 0.30000001192092896 0.49803921580314636 0.501960813999176 0.5215686559677124
0.48128077387809753 0.6147165894508362 0.0063241105526685715 0.42352941632270813 0.42352941632270813 0.3843137323856354
0.37068966031074524 0.5633980631828308 0.15335968136787415 0.05098039284348488 0.05098039284348488 0.05098039284348488
0.4130541980266571 0.6917732357978821 0.9909090995788574 0.29019609093666077 0.27843138575553894 0.24313725531101227
0.39876848459243774 0.6549818515777588 0.2972331941127777 0.501960813999176 0.5137255191802979 0.5333333611488342
0.4532019793987274 0.5698720812797546 0.2968379557132721 0.5960784554481506 0.615686297416687 0.6392157077789307
0.38374385237693787 0.6611400842666626 0.2968379557132721 0.48235294222831726 0.49803921580314636 0.5098039507865906
0.3852216601371765 0.5580293536186218 0.29446640610694885 0.5647059082984924 0.6078431606292725 0.6235294342041016
0.41921183466911316 0.632243812084198 0.2972331941127777 0.5411764979362488 0.5490196347236633 0.5960784554481506
0.4049261212348938 0.6481919884681702 0.991304337978363 0.3294117748737335 0.3294117748737335 0.29019609093666077
0.5083743929862976 0.6684036254882812 0.30039525032043457 0.08235294371843338 0.09803921729326248 0.0941176488995552
0.39433497190475464 0.6608242392539978 0.2972331941127777 0.4901960790157318 0.5058823823928833 0.5176470875740051
0.4995073974132538 0.5913469195365906 0.006719367578625679 0.4941176474094391 0.5098039507865906 0.5215686559677124
0.5967980027198792 0.6800884008407593 0.2960474193096161 0.529411792755127 0.5607843399047852 0.5686274766921997
0.4396551847457886 0.7050371170043945 0.002766798483207822 0.29019609093666077 0.29019609093666077 0.25882354378700256
0.4719211757183075 0.5581872463226318 0.9905138611793518 0.3607843220233917 0.3607843220233917 0.32156863808631897
0.501724123954773 0.5937154293060303 0.2964426875114441 0.5529412031173706 0.545098066329956 0.5647059082984924
0.4049261212348938 0.6480340957641602 0.991304337978363 0.32549020648002625 0.32549020648002625 0.29411765933036804
0.4652709364891052 0.5651350021362305 0.9909090995788574 0.34117648005485535 0.3294117748737335 0.29411765933036804
0.5231527090072632 0.7089846730232239 0.9909090995788574 0.3137255012989044 0.3176470696926117 0.29411765933036804
0.5162561535835266 0.6499289274215698 0.9916995763778687 0.3333333432674408 0.3294117748737335 0.3137255012989044
0.5903940796852112 0.6420338153839111 0.2964426875114441 0.5372549295425415 0.5215686559677124 0.5098039507865906
0.4051724076271057 0.5813990235328674 0.1770751029253006 0.04313725605607033 0.04313725605607033 0.04313725605607033
0.548275887966156 0.6829307079315186 0.991304337978363 0.3450980484485626 0.34117648005485535 0.32549020648002625
0.411822646856308 0.5769777297973633 0.0063241105526685715 0.239215686917305 0.23137255012989044 0.18039216101169586
0.44211822748184204 0.5610295534133911 0.18300394713878632 0.05098039284348488 0.05882352963089943 0.054901961237192154
0.3933497667312622 0.5828201770782471 0.29486167430877686 0.6274510025978088 0.6549019813537598 0.686274528503418
0.48226600885391235 0.6194536685943604 0.29920947551727295 0.5803921818733215 0.5803921818733215 0.6117647290229797
0.4130541980266571 0.5847150087356567 0.005928853526711464 0.3450980484485626 0.3294117748737335 0.2823529541492462
0.39950740337371826 0.5652928948402405 0.16482213139533997 0.05882352963089943 0.05882352963089943 0.05882352963089943
0.3891625702381134 0.6529291272163391 0.1723320186138153 0.07450980693101883 0.07450980693101883 0.07450980693101883
0.4253694713115692 0.6017684936523438 0.005533596966415644 0.1568627506494522 0.16078431904315948 0.13725490868091583
0.3899014890193939 0.7063003182411194 0.007905138656497002 0.26274511218070984 0.2666666805744171 0.21176470816135406
0.4233990013599396 0.6451918482780457 0.0063241105526685715 0.2823529541492462 0.27450981736183167 0.22745098173618317
0.5214285850524902 0.6794568300247192 0.991304337978363 0.33725491166114807 0.34117648005485535 0.3176470696926117
0.49802955985069275 0.6481919884681702 0.005928853526711464 0.5137255191802979 0.5058823823928833 0.45490196347236633
0.3775862157344818 0.5768198370933533 0.17312252521514893 0.06666667014360428 0.06666667014360428 0.06666667014360428
0.4128078818321228 0.6458234786987305 0.1770751029253006 0.062745101749897 0.062745101749897 0.062745101749897
0.4199507534503937 0.5801358222961426 0.17944663763046265 0.06666667014360428 0.06666667014360428 0.06666667014360428
0.435960590839386 0.5550292134284973 0.005138339940458536 0.29019609093666077 0.2980392277240753 0.27843138575553894
0.5147783160209656 0.6731407046318054 0.30039525032043457 0.10588235408067703 0.10980392247438431 0.09019608050584793
0.49039408564567566 0.6393494606018066 0.30000001192092896 0.5411764979362488 0.5372549295425415 0.5568627715110779
0.5660098791122437 0.561976969242096 0.9905138611793518 0.33725491166114807 0.33725491166114807 0.2980392277240753
0.5938423871994019 0.567977249622345 0.9905138611793518 0.38823530077934265 0.3686274588108063 0.3450980484485626
0.5854679942131042 0.7017211318016052 0.2960474193096161 0.6078431606292725 0.6117647290229797 0.6313725709915161
0.379802942276001 0.5668719410896301 0.9909090995788574 0.3490196168422699 0.33725491166114807 0.3176470696926117
0.5908867120742798 0.6112427115440369 0.0031620552763342857 0.12941177189350128 0.11372549086809158 0.11764705926179886
0.5135468244552612 0.638086199760437 0.2924901247024536 0.027450980618596077 0.0313725508749485 0.03921568766236305
0.4120689630508423 0.6529291272163391 0.2976284623146057 0.5058823823928833 0.5254902243614197 0.5490196347236633
0.3778325021266937 0.5760303139686584 0.0063241105526685715 0.4431372582912445 0.43529412150382996 0.3843137323856354
0.5832512378692627 0.5872414112091064 0.0031620552763342857 0.2235294133424759 0.239215686917305 0.24313725531101227
0.3849753737449646 0.6753513216972351 0.2968379557132721 0.4588235318660736 0.4745098054409027 0.47058823704719543
0.6135467886924744 0.6172429919242859 0.2964426875114441 0.5176470875740051 0.5176470875740051 0.5176470875740051
0.5945813059806824 0.6316121816635132 0.2964426875114441 0.5137255191802979 0.5137255191802979 0.5058823823928833
0.5165024399757385 0.5670298337936401 0.9909090995788574 0.3686274588108063 0.3686274588108063 0.32156863808631897
0.5800492763519287 0.6000315546989441 0.0071146246045827866 0.6352941393852234 0.6352941393852234 0.6666666865348816
0.4849753677845001 0.6098215579986572 0.9909090995788574 0.3529411852359772 0.3490196168422699 0.3294117748737335
0.5231527090072632 0.6041370630264282 0.002766798483207822 0.4588235318660736 0.48235294222831726 0.46666666865348816
0.49359604716300964 0.6281383037567139 0.9916995763778687 0.3294117748737335 0.32549020648002625 0.30588236451148987
0.43768471479415894 0.6627190709114075 0.991304337978363 0.33725491166114807 0.3450980484485626 0.3019607961177826
0.5738916397094727 0.6894047260284424 0.0035573123022913933 0.1882352977991104 0.1764705926179886 0.1411764770746231
0.5236453413963318 0.6797726154327393 0.0023715414572507143 0.45098039507865906 0.45490196347236633 0.42352941632270813
0.5458127856254578 0.6012948155403137 0.991304337978363 0.3686274588108063 0.3686274588108063 0.3294117748737335
0.4871921241283417 0.648507833480835 0.30039525032043457 0.5137255191802979 0.5098039507865906 0.529411792755127
0.5935960412025452 0.5670298337936401 0.9905138611793518 0.3843137323856354 0.364705890417099 0.34117648005485535
0.6039409041404724 0.6437707543373108 0.003952569328248501 0.10980392247438431 0.10588235408067703 0.08627451211214066
0.47339901328086853 0.6838781237602234 0.002766798483207822 0.3176470696926117 0.32156863808631897 0.2666666805744171
0.5211822390556335 0.6788251996040344 0.0023715414572507143 0.6392157077789307 0.6431372761726379 0.6117647290229797
0.4123152792453766 0.6557713747024536 0.2976284623146057 0.4901960790157318 0.5176470875740051 0.5490196347236633
0.3923645317554474 0.6750355362892151 0.007905138656497002 0.21176470816135406 0.20000000298023224 0.16470588743686676
0.4719211757183075 0.5979788303375244 0.29841896891593933 0.6117647290229797 0.6117647290229797 0.6431372761726379
0.6036945581436157 0.6775619983673096 0.992094874382019 0.29411765933036804 0.29019609093666077 0.30980393290519714
0.49704432487487793 0.6781935691833496 0.0023715414572507143 0.3764705955982208 0.3686274588108063 0.30980393290519714
0.39852216839790344 0.6649297475814819 0.2972331941127777 0.4745098054409027 0.4901960790157318 0.501960813999176
0.3921182155609131 0.5646613240242004 0.29446640610694885 0.5803921818733215 0.6235294342041016 0.6392157077789307
0.370197057723999 0.5744512677192688 0.18142291903495789 0.05098039284348488 0.05098039284348488 0.05098039284348488
0.5391625761985779 0.5760303139686584 0.004347825888544321 0.42352941632270813 0.4470588266849518 0.4470588266849518
0.6110837459564209 0.5903995037078857 0.2964426875114441 0.6117647290229797 0.6274510025978088 0.6392157077789307
0.5859605669975281 0.6917732357978821 0.9916995763778687 0.32156863808631897 0.32156863808631897 0.3294117748737335
0.6086207032203674 0.5905573964118958 0.991304337978363 0.34117648005485535 0.3450980484485626 0.32156863808631897
0.3763546943664551 0.6192957758903503 0.007905138656497002 0.1568627506494522 0.1568627506494522 0.14901961386203766
0.38275861740112305 0.6207168698310852 0.2956521809101105 0.615686297416687 0.6431372761726379 0.6823529601097107
0.3938423693180084 0.5791884064674377 0.16324110329151154 0.03921568766236305 0.03921568766236305 0.03921568766236305
0.5470443367958069 0.5973471999168396 0.0035573123022913933 0.4156862795352936 0.43529412150382996 0.4117647111415863
0.5894088745117188 0.6426653861999512 0.2960474193096161 0.5333333611488342 0.5686274766921997 0.5882353186607361
0.4091132879257202 0.6589294075965881 0.991304337978363 0.3019607961177826 0.3019607961177826 0.2705882489681244
0.41403940320014954 0.7039318084716797 0.9909090995788574 0.3176470696926117 0.32549020648002625 0.2823529541492462
0.5731527209281921 0.7088267803192139 0.991304337978363 0.3333333432674408 0.3333333432674408 0.32549020648002625
0.495320200920105 0.6155060529708862 0.29960474371910095 0.6039215922355652 0.6039215922355652 0.6117647290229797
0.5071428418159485 0.6259276866912842 0.004347825888544321 0.4941176474094391 0.48235294222831726 0.42352941632270813
0.48128077387809753 0.578872561454773 0.005928853526711464 0.45490196347236633 0.47843137383461 0.47058823704719543
0.5403940677642822 0.6011369228363037 0.0035573123022913933 0.4274509847164154 0.45098039507865906 0.4431372582912445
0.5886699557304382 0.6290857195854187 0.002766798483207822 0.11372549086809158 0.10980392247438431 0.0941176488995552
0.565517246723175 0.7083530426025391 0.004743082914501429 0.04313725605607033 0.03921568766236305 0.0313725508749485
0.5150246024131775 0.6925627589225769 0.9909090995788574 0.3333333432674408 0.33725491166114807 0.3137255012989044
0.4714285731315613 0.6065056324005127 0.29841896891593933 0.6000000238418579 0.6000000238418579 0.6313725709915161
0.5674876570701599 0.5787146687507629 0.9905138611793518 0.37254902720451355 0.37254902720451355 0.3333333432674408
0.4798029661178589 0.5850307941436768 0.0071146246045827866 0.45490196347236633 0.4745098054409027 0.4588235318660736
0.464778333902359 0.6957208514213562 0.30000001192092896 0.49803921580314636 0.501960813999176 0.5098039507865906
0.5568965673446655 0.6687194108963013 0.9916995763778687 0.3803921639919281 0.3764705955982208 0.3686274588108063
0.5839901566505432 0.6744039058685303 0.28814229369163513 0.11764705926179886 0.10980392247438431 0.11372549086809158
0.4238916337490082 0.6680877804756165 0.004743082914501429 0.22745098173618317 0.22745098173618317 0.18039216101169586
0.4236453175544739 0.7029843926429749 0.2960474193096161 0.06666667014360428 0.07450980693101883 0.07058823853731155
0.40985220670700073 0.6385599374771118 0.006719367578625679 0.12156862765550613 0.12156862765550613 0.08235294371843338
0.45394089818000793 0.5785567760467529 0.9909090995788574 0.34117648005485535 0.3294117748737335 0.3019607961177826
0.4556650221347809 0.5600821375846863 0.005138339940458536 0.5058823823928833 0.5098039507865906 0.43921568989753723
0.6017241477966309 0.5896099805831909 0.004743082914501429 0.46666666865348816 0.5058823823928833 0.5137255191802979
0.43078818917274475 0.6761408448219299 0.29881423711776733 0.4901960790157318 0.4941176474094391 0.5098039507865906
0.6009852290153503 0.5997157692909241 0.01304347813129425 0.21960784494876862 0.24313725531101227 0.24313725531101227
0.5896551609039307 0.7045633792877197 0.005533596966415644 0.250980406999588 0.239215686917305 0.20392157137393951
0.548275887966156 0.7051950097084045 0.003952569328248501 0.3450980484485626 0.3333333432674408 0.3137255012989044
0.3802955746650696 0.6286120414733887 0.007509881630539894 0.16862745583057404 0.1568627506494522 0.12941177189350128
0.39532020688056946 0.6224538087844849 0.0071146246045827866 0.08627451211214066 0.07058823853731155 0.05882352963089943
0.4529556632041931 0.5610295534133911 0.2968379557132721 0.5882353186607361 0.6000000238418579 0.6274510025978088
0.45517241954803467 0.707563579082489 0.0019762846641242504 0.3529411852359772 0.3294117748737335 0.2666666805744171
0.3758620619773865 0.6690351963043213 0.1723320186138153 0.0784313753247261 0.0784313753247261 0.0784313753247261
0.5891625881195068 0.5682930946350098 0.9905138611793518 0.364705890417099 0.3529411852359772 0.3176470696926117
0.5253694653511047 0.708195149898529 0.0031620552763342857 0.3176470696926117 0.3333333432674408 0.3294117748737335
0.4810344874858856 0.5806095004081726 0.29802370071411133 0.6196078658103943 0.6313725709915161 0.658823549747467
0.4194581210613251 0.5583451986312866 0.16758893430233002 0.12156862765550613 0.12941177189350128 0.125490203499794
0.41896551847457886 0.6372966766357422 0.2976284623146057 0.5411764979362488 0.5411764979362488 0.572549045085907
0.41798028349876404 0.6717195510864258 0.17905138432979584 0.05882352963089943 0.05882352963089943 0.05882352963089943
0.3938423693180084 0.6462971568107605 0.991304337978363 0.32549020648002625 0.3294117748737335 0.30980393290519714
0.42980295419692993 0.6843518018722534 0.29881423711776733 0.47058823704719543 0.4941176474094391 0.4941176474094391
0.6081280708312988 0.6226117014884949 0.2964426875114441 0.4941176474094391 0.501960813999176 0.49803921580314636
0.5312808156013489 0.6445602178573608 0.0031620552763342857 0.4588235318660736 0.46666666865348816 0.3843137323856354
0.42216747999191284 0.632085919380188 0.0063241105526685715 0.21568627655506134 0.20000000298023224 0.16470588743686676
0.5445812940597534 0.6076109409332275 0.991304337978363 0.33725491166114807 0.33725491166114807 0.30588236451148987
0.39532020688056946 0.5708194971084595 0.9909090995788574 0.3686274588108063 0.364705890417099 0.3450980484485626
0.5137931108474731 0.62119060754776 0.290909081697464 0.054901961237192154 0.054901961237192154 0.054901961237192154
0.43448275327682495 0.5693984031677246 0.1818181872367859 0.06666667014360428 0.06666667014360428 0.06666667014360428
0.43004927039146423 0.5705037117004395 0.005928853526711464 0.27843138575553894 0.27450981736183167 0.2549019753932953
0.5918719172477722 0.5897678732872009 0.2964426875114441 0.5921568870544434 0.6000000238418579 0.5960784554481506
0.37906405329704285 0.6931943893432617 0.00909090880304575 0.27450981736183167 0.25882354378700256 0.21176470816135406
0.443842351436615 0.5776093602180481 0.18300394713878632 0.3333333432674408 0.3529411852359772 0.364705890417099
0.4201970398426056 0.6014527082443237 0.005533596966415644 0.2078431397676468 0.21176470816135406 0.1921568661928177
0.4206896424293518 0.670772135257721 0.17944663763046265 0.05882352963089943 0.05882352963089943 0.06666667014360428
0.37536945939064026 0.6336649060249329 0.1774703562259674 0.10980392247438431 0.11372549086809158 0.09019608050584793
0.5980295538902283 0.6060318946838379 0.2964426875114441 0.5490196347236633 0.5529412031173706 0.5607843399047852
0.5280787944793701 0.5543975830078125 0.005138339940458536 0.4156862795352936 0.45098039507865906 0.4313725531101227
0.40763548016548157 0.5675035715103149 0.29525691270828247 0.5764706134796143 0.6117647290229797 0.6392157077789307
0.39187192916870117 0.6560871601104736 0.2968379557132721 0.48235294222831726 0.501960813999176 0.5137255191802979
0.40320196747779846 0.5705037117004395 0.17470355331897736 0.05098039284348488 0.05098039284348488 0.05098039284348488
0.4810344874858856 0.5806095004081726 0.29802370071411133 0.6196078658103943 0.6313725709915161 0.658823549747467
0.44605910778045654 0.5605558156967163 0.005138339940458536 0.4000000059604645 0.4000000059604645 0.3529411852359772
0.5167487859725952 0.6251381635665894 0.9916995763778687 0.3176470696926117 0.3176470696926117 0.2862745225429535
0.3970443308353424 0.6526132822036743 0.17391304671764374 0.06666667014360428 0.06666667014360428 0.06666667014360428
0.4684728980064392 0.6319279670715332 0.29920947551727295 0.5372549295425415 0.5372549295425415 0.5764706134796143
0.43103447556495667 0.6859308481216431 0.18142291903495789 0.054901961237192154 0.05882352963089943 0.06666667014360428
0.5283251404762268 0.5705037117004395 0.002766798483207822 0.48235294222831726 0.5411764979362488 0.529411792755127
0.5677340030670166 0.6295594573020935 0.0031620552763342857 0.18431372940540314 0.16862745583057404 0.1568627506494522
0.4566502571105957 0.6584557294845581 0.29960474371910095 0.49803921580314636 0.5137255191802979 0.5254902243614197
0.37142857909202576 0.6710879802703857 0.2964426875114441 0.4431372582912445 0.46666666865348816 0.46666666865348816
0.4253694713115692 0.643139123916626 0.991304337978363 0.34117648005485535 0.34117648005485535 0.30980393290519714
0.370197057723999 0.6687194108963013 0.9909090995788574 0.32156863808631897 0.3176470696926117 0.2980392277240753
0.44679802656173706 0.5990841388702393 0.2972331941127777 0.6078431606292725 0.6078431606292725 0.6392157077789307
0.5298029780387878 0.643454909324646 0.9916995763778687 0.3529411852359772 0.3490196168422699 0.3333333432674408
0.4408867061138153 0.6041370630264282 0.0071146246045827866 0.239215686917305 0.239215686917305 0.2078431397676468
0.5647783279418945 0.5979788303375244 0.004347825888544321 0.29411765933036804 0.3019607961177826 0.2823529541492462
0.37463054060935974 0.5643454790115356 0.17312252521514893 0.06666667014360428 0.06666667014360428 0.06666667014360428
0.6054187417030334 0.6221380233764648 0.0035573123022913933 0.08627451211214066 0.09019608050584793 0.09803921729326248
0.3928571343421936 0.6507184505462646 0.0071146246045827866 0.10588235408067703 0.10980392247438431 0.09019608050584793
0.4834975302219391 0.7074056267738342 0.9909090995788574 0.32549020648002625 0.32549020648002625 0.29411765933036804
0.614039421081543 0.6388757228851318 0.004743082914501429 0.29019609093666077 0.29019609093666077 0.250980406999588
0.39433497190475464 0.6172429919242859 0.2960474193096161 0.6078431606292725 0.6235294342041016 0.6705882549285889
0.3763546943664551 0.6192957758903503 0.007905138656497002 0.1568627506494522 0.1568627506494522 0.14901961386203766
0.5921182036399841 0.5548713207244873 0.00830039568245411 0.0470588244497776 0.04313725605607033 0.06666667014360428
0.4871921241283417 0.6680877804756165 0.991304337978363 0.32549020648002625 0.3294117748737335 0.30588236451148987
0.44630542397499084 0.616295576095581 0.29802370071411133 0.572549045085907 0.5764706134796143 0.5960784554481506
0.4093596041202545 0.6069793105125427 0.005533596966415644 0.15294118225574493 0.1411764770746231 0.11372549086809158
0.41009852290153503 0.6818253397941589 0.005928853526711464 0.23529411852359772 0.21960784494876862 0.1764705926179886
0.44310346245765686 0.6464550495147705 0.29881423711776733 0.5254902243614197 0.5254902243614197 0.5647059082984924
0.4810344874858856 0.561976969242096 0.9909090995788574 0.37254902720451355 0.37254902720451355 0.3333333432674408
0.5155172348022461 0.6982472538948059 0.9909090995788574 0.3333333432674408 0.3294117748737335 0.30980393290519714
0.4253694713115692 0.604926586151123 0.005533596966415644 0.10980392247438431 0.12156862765550613 0.0941176488995552
0.4443349838256836 0.5760303139686584 0.18379446864128113 0.05098039284348488 0.05098039284348488 0.05098039284348488
0.5963054299354553 0.6524553894996643 0.2964426875114441 0.5176470875740051 0.5137255191802979 0.5333333611488342
0.4886699616909027 0.6301910877227783 0.007509881630539894 0.501960813999176 0.5098039507865906 0.45490196347236633
0.5381773114204407 0.6170850992202759 0.002766798483207822 0.4313725531101227 0.3921568691730499 0.3843137323856354
0.44285714626312256 0.6631928086280823 0.1822134405374527 0.0470588244497776 0.0470588244497776 0.0470588244497776
0.4955665171146393 0.6241907477378845 0.30000001192092896 0.6117647290229797 0.5960784554481506 0.5843137502670288
0.37093594670295715 0.6153481602668762 0.29486167430877686 0.658823549747467 0.6784313917160034 0.7019608020782471
0.5987684726715088 0.648507833480835 0.003952569328248501 0.16862745583057404 0.16470588743686676 0.1568627506494522
0.4554187059402466 0.562134861946106 0.2968379557132721 0.5960784554481506 0.6078431606292725 0.6352941393852234
0.615517258644104 0.6927206516265869 0.005533596966415644 0.4156862795352936 0.40392157435417175 0.3450980484485626
0.3931034505367279 0.5760303139686584 0.29446640610694885 0.615686297416687 0.6431372761726379 0.6745098233222961
0.562561571598053 0.5730301737785339 0.006719367578625679 0.4000000059604645 0.40392157435417175 0.3803921639919281
0.5906403660774231 0.6076109409332275 0.2873517870903015 0.13725490868091583 0.1411764770746231 0.1568627506494522
0.5103448033332825 0.653876543045044 0.30000001192092896 0.10196078568696976 0.09803921729326248 0.11764705926179886
0.5137931108474731 0.5963997840881348 0.003952569328248501 0.47843137383461 0.501960813999176 0.501960813999176
0.48669952154159546 0.6448760628700256 0.9916995763778687 0.3294117748737335 0.32549020648002625 0.30588236451148987
0.5551724433898926 0.5839254856109619 0.9909090995788574 0.3843137323856354 0.3843137323856354 0.3450980484485626
0.371921181678772 0.6837201714515686 0.9909090995788574 0.3137255012989044 0.3137255012989044 0.2823529541492462
0.43054187297821045 0.6601926684379578 0.991304337978363 0.30980393290519714 0.3137255012989044 0.2823529541492462
0.41108375787734985 0.6737722754478455 0.005928853526711464 0.22745098173618317 0.22745098173618317 0.18039216101169586
0.5197044610977173 0.5747671127319336 0.0019762846641242504 0.45490196347236633 0.4941176474094391 0.49803921580314636
0.6012315154075623 0.6649297475814819 0.004347825888544321 0.15294118225574493 0.13725490868091583 0.125490203499794
0.4416256248950958 0.6055582165718079 0.2972331941127777 0.6039215922355652 0.6039215922355652 0.6352941393852234
0.5396551489830017 0.6612979769706726 0.9916995763778687 0.35686275362968445 0.3529411852359772 0.3450980484485626
0.548275887966156 0.6965103149414062 0.0031620552763342857 0.054901961237192154 0.062745101749897 0.05882352963089943
0.5229064226150513 0.5668719410896301 0.005928853526711464 0.49803921580314636 0.545098066329956 0.5372549295425415
0.4046798050403595 0.6183483600616455 0.00830039568245411 0.125490203499794 0.125490203499794 0.11764705926179886
0.3926108479499817 0.5629243850708008 0.17351779341697693 0.08235294371843338 0.08235294371843338 0.08235294371843338
0.5007389187812805 0.6295594573020935 0.005928853526711464 0.4627451002597809 0.43921568989753723 0.3843137323856354
0.3849753737449646 0.6492973566055298 0.0071146246045827866 0.2862745225429535 0.2705882489681244 0.22745098173618317
0.5615763664245605 0.6009789705276489 0.004347825888544321 0.27843138575553894 0.2823529541492462 0.25882354378700256
0.47019705176353455 0.6559292674064636 0.30000001192092896 0.5058823823928833 0.5058823823928833 0.49803921580314636
0.428078830242157 0.6592452526092529 0.29841896891593933 0.5137255191802979 0.5137255191802979 0.545098066329956
0.4433497488498688 0.6827727556228638 0.29960474371910095 0.4901960790157318 0.49803921580314636 0.48627451062202454
0.39433497190475464 0.6005052924156189 0.2956521809101105 0.6352941393852234 0.6627451181411743 0.7019608020782471
0.5724138021469116 0.5810832381248474 0.9909090995788574 0.40784314274787903 0.40784314274787903 0.3764705955982208
0.5706896781921387 0.638244092464447 0.0031620552763342857 0.16078431904315948 0.14901961386203766 0.11372549086809158
0.4450739026069641 0.6178746223449707 0.29802370071411133 0.572549045085907 0.5764706134796143 0.5921568870544434
0.5512315034866333 0.6936680674552917 0.991304337978363 0.32156863808631897 0.30588236451148987 0.3019607961177826
0.5711822509765625 0.6275067329406738 0.992094874382019 0.3294117748737335 0.32549020648002625 0.30588236451148987
0.4093596041202545 0.5926101207733154 0.005928853526711464 0.3686274588108063 0.35686275362968445 0.3294117748737335
0.4756157696247101 0.6181904077529907 0.991304337978363 0.34117648005485535 0.33725491166114807 0.3176470696926117
0.3800492584705353 0.6412442922592163 0.006719367578625679 0.19607843458652496 0.18431372940540314 0.16470588743686676
0.41921183466911316 0.6871940493583679 0.17984189093112946 0.062745101749897 0.062745101749897 0.062745101749897
0.5566502213478088 0.5987683534622192 0.991304337978363 0.3803921639919281 0.3803921639919281 0.34117648005485535
0.45123153924942017 0.6169272065162659 0.00909090880304575 0.21176470816135406 0.21568627655506134 0.19607843458652496
0.37487685680389404 0.6630349159240723 0.17075099050998688 0.09019608050584793 0.09019608050584793 0.09019608050584793
0.5362069010734558 0.7015632390975952 0.0031620552763342857 0.48235294222831726 0.48627451062202454 0.42352941632270813
0.4527093470096588 0.6815095543861389 0.9909090995788574 0.3176470696926117 0.3176470696926117 0.2862745225429535
0.4123152792453766 0.5908731818199158 0.005928853526711464 0.27450981736183167 0.26274511218070984 0.22745098173618317
0.4556650221347809 0.6098215579986572 0.9909090995788574 0.3176470696926117 0.3176470696926117 0.2862745225429535
0.42709359526634216 0.6720353960990906 0.004347825888544321 0.22745098173618317 0.22745098173618317 0.18039216101169586
0.3923645317554474 0.6295594573020935 0.006719367578625679 0.21568627655506134 0.20000000298023224 0.16470588743686676
0.5817734003067017 0.6046107411384583 0.011857707053422928 0.11764705926179886 0.10196078568696976 0.09019608050584793
0.5536946058273315 0.5542396903038025 0.9905138611793518 0.364705890417099 0.364705890417099 0.32549020648002625
0.5940886735916138 0.6369808912277222 0.9924901127815247 0.3607843220233917 0.35686275362968445 0.3490196168422699
0.4416256248950958 0.599399983882904 0.9909090995788574 0.3294117748737335 0.3294117748737335 0.2980392277240753
0.5613300204277039 0.627032995223999 0.0031620552763342857 0.239215686917305 0.21960784494876862 0.2078431397676468
0.3857142925262451 0.6278225183486938 0.0071146246045827866 0.1882352977991104 0.1725490242242813 0.13725490868091583
0.5004926323890686 0.6720353960990906 0.3011857569217682 0.5803921818733215 0.5921568870544434 0.5568627715110779
0.37906405329704285 0.62166428565979 0.007905138656497002 0.05882352963089943 0.05882352963089943 0.05098039284348488
0.39507389068603516 0.5599241852760315 0.17351779341697693 0.08235294371843338 0.08235294371843338 0.08235294371843338
0.3963054120540619 0.6594031453132629 0.17430830001831055 0.06666667014360428 0.06666667014360428 0.06666667014360428
0.43374383449554443 0.6876677870750427 0.1822134405374527 0.09019608050584793 0.0941176488995552 0.10196078568696976
0.6024630665779114 0.665403425693512 0.004347825888544321 0.16078431904315948 0.14901961386203766 0.12941177189350128
0.6017241477966309 0.654350221157074 0.992094874382019 0.3843137323856354 0.3843137323856354 0.3843137323856354
0.5770936012268066 0.6044528484344482 0.9916995763778687 0.3490196168422699 0.3490196168422699 0.3176470696926117
0.6128078699111938 0.7053529024124146 0.006719367578625679 0.30980393290519714 0.3019607961177826 0.250980406999588
0.413300484418869 0.5801358222961426 0.2956521809101105 0.6039215922355652 0.6313725709915161 0.6705882549285889
0.37906405329704285 0.670930027961731 0.2968379557132721 0.4470588266849518 0.47058823704719543 0.47058823704719543
0.5273398756980896 0.5690825581550598 0.9909090995788574 0.3803921639919281 0.3803921639919281 0.34117648005485535
0.47857141494750977 0.6011369228363037 0.29881423711776733 0.6078431606292725 0.6078431606292725 0.6392157077789307
0.5458127856254578 0.6767724752426147 0.0023715414572507143 0.3764705955982208 0.3764705955982208 0.33725491166114807
0.6007389426231384 0.6363492608070374 0.2964426875114441 0.5058823823928833 0.5137255191802979 0.4941176474094391
0.4522167444229126 0.5559766292572021 0.004743082914501429 0.45098039507865906 0.45490196347236633 0.4000000059604645
0.4605911374092102 0.6778777837753296 0.30000001192092896 0.48235294222831726 0.49803921580314636 0.501960813999176
0.47364532947540283 0.632243812084198 0.004743082914501429 0.5568627715110779 0.5372549295425415 0.4627451002597809
0.5780788064002991 0.637928307056427 0.9924901127815247 0.3490196168422699 0.3450980484485626 0.32549020648002625
0.5307881832122803 0.584557056427002 0.9909090995788574 0.33725491166114807 0.32549020648002625 0.29019609093666077
0.3896551728248596 0.6879835724830627 0.17588932812213898 0.08627451211214066 0.08627451211214066 0.08627451211214066
0.4931034445762634 0.5613453388214111 0.005138339940458536 0.45490196347236633 0.4901960790157318 0.47843137383461
0.5881773233413696 0.5798199772834778 0.29367589950561523 0.5490196347236633 0.5568627715110779 0.5529412031173706
0.4162561595439911 0.5843991637229919 0.2956521809101105 0.6000000238418579 0.6274510025978088 0.6666666865348816
0.4362069070339203 0.6614558696746826 0.005533596966415644 0.24705882370471954 0.24705882370471954 0.20000000298023224
0.614039421081543 0.6046107411384583 0.9916995763778687 0.34117648005485535 0.33725491166114807 0.3176470696926117
0.4834975302219391 0.6511921882629395 0.0063241105526685715 0.4588235318660736 0.42352941632270813 0.38823530077934265
0.3817734122276306 0.6331912279129028 0.991304337978363 0.3176470696926117 0.3019607961177826 0.29019609093666077
0.5963054299354553 0.5791884064674377 0.9909090995788574 0.37254902720451355 0.3607843220233917 0.32549020648002625
0.5118226408958435 0.6668245792388916 0.991304337978363 0.3450980484485626 0.34117648005485535 0.32549020648002625
0.38768473267555237 0.5801358222961426 0.0063241105526685715 0.3803921639919281 0.3843137323856354 0.3294117748737335
0.49802955985069275 0.5774514675140381 0.2960474193096161 0.6039215922355652 0.5960784554481506 0.615686297416687
0.5746305584907532 0.5945049524307251 0.004743082914501429 0.08627451211214066 0.10196078568696976 0.09803921729326248
0.4997536838054657 0.648823618888855 0.005533596966415644 0.5921568870544434 0.5843137502670288 0.5254902243614197
0.44655171036720276 0.6082425117492676 0.2976284623146057 0.5921568870544434 0.5921568870544434 0.6313725709915161
0.5049260854721069 0.5916627049446106 0.005928853526711464 0.48627451062202454 0.5058823823928833 0.5176470875740051
0.4275861978530884 0.5656087398529053 0.005533596966415644 0.3803921639919281 0.40392157435417175 0.38823530077934265
0.5258620977401733 0.6508763432502747 0.9916995763778687 0.3529411852359772 0.3490196168422699 0.3333333432674408
0.6091132760047913 0.6573503613471985 0.004743082914501429 0.13725490868091583 0.125490203499794 0.09803921729326248
0.46182265877723694 0.5785567760467529 0.2972331941127777 0.6039215922355652 0.6235294342041016 0.6470588445663452
0.48645320534706116 0.5973471999168396 0.29881423711776733 0.6235294342041016 0.615686297416687 0.658823549747467
0.5224137902259827 0.6041370630264282 0.991304337978363 0.35686275362968445 0.35686275362968445 0.3176470696926117
0.5945813059806824 0.6971419453620911 0.9916995763778687 0.3490196168422699 0.3490196168422699 0.35686275362968445
0.3849753737449646 0.6199273467063904 0.007905138656497002 0.11372549086809158 0.09803921729326248 0.0941176488995552
0.4564039409160614 0.6041370630264282 0.9909090995788574 0.3333333432674408 0.3294117748737335 0.30980393290519714
0.47832512855529785 0.5919785499572754 0.9909090995788574 0.35686275362968445 0.35686275362968445 0.3176470696926117
0.3997536897659302 0.6537185907363892 0.0071146246045827866 0.15294118225574493 0.13725490868091583 0.125490203499794
0.5977832674980164 0.6276646256446838 0.0031620552763342857 0.10980392247438431 0.11372549086809158 0.0941176488995552
0.5379310250282288 0.6663508415222168 0.9916995763778687 0.3607843220233917 0.35686275362968445 0.3490196168422699
0.47339901328086853 0.5866098403930664 0.9909090995788574 0.3450980484485626 0.3450980484485626 0.3137255012989044
0.3815270960330963 0.7039318084716797 0.2960474193096161 0.0784313753247261 0.0784313753247261 0.07058823853731155
0.5987684726715088 0.5791884064674377 0.2964426875114441 0.615686297416687 0.6196078658103943 0.6274510025978088
0.39876848459243774 0.5866098403930664 0.17549407482147217 0.054901961237192154 0.054901961237192154 0.054901961237192154
0.5391625761985779 0.6057161092758179 0.0035573123022913933 0.4274509847164154 0.45098039507865906 0.43529412150382996
0.4334975481033325 0.6335070133209229 0.29802370071411133 0.5411764979362488 0.5411764979362488 0.5803921818733215
0.6054187417030334 0.6342965364456177 0.9924901127815247 0.34117648005485535 0.3490196168422699 0.3294117748737335
0.6002463102340698 0.70203697681427 0.2960474193096161 0.5921568870544434 0.6039215922355652 0.6313725709915161
0.5871921181678772 0.7010895013809204 0.9916995763778687 0.3450980484485626 0.3450980484485626 0.3529411852359772
0.5295566320419312 0.5851886868476868 0.9909090995788574 0.35686275362968445 0.3450980484485626 0.30980393290519714
0.378078818321228 0.573188066482544 0.29407113790512085 0.6431372761726379 0.6784313917160034 0.7137255072593689
0.41108375787734985 0.5960839986801147 0.005533596966415644 0.0941176488995552 0.0784313753247261 0.06666667014360428
0.4522167444229126 0.5700299739837646 0.9909090995788574 0.3450980484485626 0.3333333432674408 0.30588236451148987
0.3724137842655182 0.5903995037078857 0.17549407482147217 0.15294118225574493 0.1568627506494522 0.16470588743686676
0.47512316703796387 0.7026685476303101 0.2960474193096161 0.20000000298023224 0.20392157137393951 0.21176470816135406
0.4169950783252716 0.6458234786987305 0.991304337978363 0.3333333432674408 0.3333333432674408 0.3019607961177826
0.40320196747779846 0.6264013648033142 0.2964426875114441 0.5921568870544434 0.6000000238418579 0.6470588445663452
0.41527092456817627 0.5607137084007263 0.9909090995788574 0.35686275362968445 0.3450980484485626 0.30980393290519714
0.6113300323486328 0.5742933750152588 0.004347825888544321 0.0470588244497776 0.054901961237192154 0.04313725605607033
0.46650245785713196 0.6063476800918579 0.29841896891593933 0.5921568870544434 0.5921568870544434 0.6235294342041016
0.49482759833335876 0.6804042458534241 0.9909090995788574 0.3294117748737335 0.3294117748737335 0.2980392277240753
0.495320200920105 0.7014053463935852 0.0003952569095417857 0.3921568691730499 0.38823530077934265 0.30980393290519714
0.3724137842655182 0.6417179703712463 0.2193675935268402 0.125490203499794 0.125490203499794 0.11764705926179886
0.552955687046051 0.638244092464447 0.0031620552763342857 0.3450980484485626 0.3176470696926117 0.27843138575553894
0.37167486548423767 0.6409284472465515 0.22529643774032593 0.12156862765550613 0.12156862765550613 0.11372549086809158
0.5024630427360535 0.7055107951164246 0.0019762846641242504 0.3333333432674408 0.3294117748737335 0.24705882370471954
0.606157660484314 0.6946154832839966 0.9916995763778687 0.35686275362968445 0.3450980484485626 0.37254902720451355
0.4514778256416321 0.5761882066726685 0.005928853526711464 0.3686274588108063 0.37254902720451355 0.3490196168422699
0.4603448212146759 0.6619295477867126 0.005928853526711464 0.5843137502670288 0.5529412031173706 0.47843137383461
0.47413793206214905 0.6055582165718079 0.007905138656497002 0.364705890417099 0.3686274588108063 0.33725491166114807
0.39827585220336914 0.6038212776184082 0.991304337978363 0.32156863808631897 0.30588236451148987 0.3019607961177826
0.5637931227684021 0.627190887928009 0.992094874382019 0.3333333432674408 0.33725491166114807 0.3137255012989044
0.5985221862792969 0.5695562958717346 0.003952569328248501 0.2235294133424759 0.2235294133424759 0.1921568661928177
0.601477861404419 0.6312963962554932 0.0035573123022913933 0.14901961386203766 0.14509804546833038 0.12941177189350128
0.5650246143341064 0.6747197508811951 0.002766798483207822 0.24313725531101227 0.23137255012989044 0.19607843458652496
0.45763546228408813 0.6928785443305969 0.002766798483207822 0.2078431397676468 0.2078431397676468 0.1764705926179886
0.44999998807907104 0.6875098943710327 0.30000001192092896 0.4941176474094391 0.49803921580314636 0.5137255191802979
0.5975369215011597 0.562450647354126 0.007905138656497002 0.03529411926865578 0.03921568766236305 0.019607843831181526
0.42709359526634216 0.691299557685852 0.004347825888544321 0.19607843458652496 0.20000000298023224 0.16862745583057404
0.39876848459243774 0.6982472538948059 0.007509881630539894 0.06666667014360428 0.06666667014360428 0.05882352963089943
0.37955665588378906 0.6459813714027405 0.991304337978363 0.32156863808631897 0.32549020648002625 0.3019607961177826
0.49064040184020996 0.6071372032165527 0.9909090995788574 0.364705890417099 0.364705890417099 0.3333333432674408
0.5322660207748413 0.5559766292572021 0.9905138611793518 0.3843137323856354 0.37254902720451355 0.33725491166114807
0.39901477098464966 0.6802463531494141 0.2976284623146057 0.45098039507865906 0.4901960790157318 0.4941176474094391
0.5967980027198792 0.6234012246131897 0.2964426875114441 0.4941176474094391 0.4901960790157318 0.48235294222831726
0.5977832674980164 0.568135142326355 0.005138339940458536 0.2078431397676468 0.2078431397676468 0.1764705926179886
0.5600985288619995 0.6191378235816956 0.9916995763778687 0.3529411852359772 0.3529411852359772 0.32156863808631897
0.46231526136398315 0.6039791703224182 0.29802370071411133 0.6000000238418579 0.6000000238418579 0.6313725709915161
0.5073891878128052 0.6044528484344482 0.003952569328248501 0.4588235318660736 0.47843137383461 0.45490196347236633
0.42610836029052734 0.6425074934959412 0.29802370071411133 0.5333333611488342 0.5333333611488342 0.5647059082984924
0.4275861978530884 0.6594031453132629 0.17984189093112946 0.05882352963089943 0.05882352963089943 0.05882352963089943
0.37906405329704285 0.5907152891159058 0.29446640610694885 0.686274528503418 0.6941176652908325 0.7411764860153198
0.3933497667312622 0.5978209376335144 0.991304337978363 0.3450980484485626 0.3490196168422699 0.3294117748737335
0.40541872382164 0.6875098943710327 0.0071146246045827866 0.21960784494876862 0.2078431397676468 0.1725490242242813
0.37536945939064026 0.637770414352417 0.17786560952663422 0.09019608050584793 0.09803921729326248 0.0941176488995552
0.4519704580307007 0.665245532989502 0.9909090995788574 0.3450980484485626 0.3490196168422699 0.3176470696926117
0.42610836029052734 0.6082425117492676 0.005928853526711464 0.18431372940540314 0.1764705926179886 0.12941177189350128
0.42290639877319336 0.6551397442817688 0.991304337978363 0.32156863808631897 0.30980393290519714 0.29019609093666077
0.3724137842655182 0.5637139081954956 0.17905138432979584 0.0470588244497776 0.0470588244497776 0.0470588244497776
0.41428571939468384 0.6781935691833496 0.004743082914501429 0.18039216101169586 0.19607843458652496 0.13725490868091583
0.5418719053268433 0.5806095004081726 0.004743082914501429 0.45098039507865906 0.48627451062202454 0.48235294222831726
0.48275861144065857 0.5765040516853333 0.9909090995788574 0.364705890417099 0.364705890417099 0.32549020648002625
0.50935959815979 0.6679298877716064 0.991304337978363 0.35686275362968445 0.3529411852359772 0.3333333432674408
0.4253694713115692 0.696984052658081 0.004347825888544321 0.09019608050584793 0.10980392247438431 0.12156862765550613
0.46157634258270264 0.6440865397453308 0.0035573123022913933 0.49803921580314636 0.4745098054409027 0.4117647111415863
0.40197044610977173 0.654666006565094 0.2972331941127777 0.5058823823928833 0.5176470875740051 0.5372549295425415
0.39088669419288635 0.6827727556228638 0.17509882152080536 0.07058823853731155 0.07058823853731155 0.07058823853731155
0.506157636642456 0.5982946753501892 0.29367589950561523 0.12941177189350128 0.12941177189350128 0.13725490868091583
0.46970441937446594 0.5850307941436768 0.005928853526711464 0.16078431904315948 0.16862745583057404 0.1568627506494522
0.6068965792655945 0.6815095543861389 0.004347825888544321 0.27843138575553894 0.2705882489681244 0.21176470816135406
0.4137931168079376 0.6570345759391785 0.005928853526711464 0.09019608050584793 0.0784313753247261 0.05882352963089943
0.5049260854721069 0.6085583567619324 0.2972331941127777 0.15294118225574493 0.14509804546833038 0.14901961386203766
0.5221675038337708 0.7083530426025391 0.0031620552763342857 0.3607843220233917 0.364705890417099 0.34117648005485535
0.4637930989265442 0.5873993635177612 0.2976284623146057 0.6117647290229797 0.6235294342041016 0.658823549747467
0.5837438702583313 0.6854571104049683 0.9916995763778687 0.34117648005485535 0.34117648005485535 0.3490196168422699
0.5004926323890686 0.6219801306724548 0.29960474371910095 0.6196078658103943 0.615686297416687 0.5960784554481506
0.4596059024333954 0.6352439522743225 0.29881423711776733 0.545098066329956 0.545098066329956 0.5843137502670288
0.5009852051734924 0.6909837126731873 0.3019762933254242 0.6784313917160034 0.6980392336845398 0.7098039388656616
0.41083744168281555 0.5684509873390198 0.16956521570682526 0.0784313753247261 0.0784313753247261 0.0784313753247261
0.4009852111339569 0.5613453388214111 0.16521738469600677 0.062745101749897 0.062745101749897 0.062745101749897
0.5985221862792969 0.5700299739837646 0.2964426875114441 0.6078431606292725 0.6352941393852234 0.658823549747467
0.4480295479297638 0.6354018449783325 0.991304337978363 0.32549020648002625 0.32549020648002625 0.29411765933036804
0.5004926323890686 0.6559292674064636 0.3007905185222626 0.48235294222831726 0.48627451062202454 0.4627451002597809
0.41896551847457886 0.5637139081954956 0.16916996240615845 0.11372549086809158 0.11372549086809158 0.11372549086809158
0.39852216839790344 0.5580293536186218 0.006719367578625679 0.20392157137393951 0.19607843458652496 0.13725490868091583
0.5455664992332458 0.7040897011756897 0.0035573123022913933 0.3843137323856354 0.3803921639919281 0.3607843220233917
0.565517246723175 0.6084004640579224 0.0035573123022913933 0.2078431397676468 0.1882352977991104 0.16470588743686676
0.4004926085472107 0.6726669669151306 0.2976284623146057 0.47843137383461 0.49803921580314636 0.5098039507865906
0.47807881236076355 0.7034580707550049 0.2960474193096161 0.062745101749897 0.054901961237192154 0.07450980693101883
0.4487684667110443 0.5648192167282104 0.9909090995788574 0.3529411852359772 0.34117648005485535 0.30588236451148987
0.43916255235671997 0.6758250594139099 0.004347825888544321 0.239215686917305 0.239215686917305 0.20000000298023224
0.47487685084342957 0.6365072131156921 0.004743082914501429 0.5607843399047852 0.5490196347236633 0.4745098054409027
0.42660099267959595 0.6328754425048828 0.2976284623146057 0.545098066329956 0.5568627715110779 0.5921568870544434
0.41059112548828125 0.5881888270378113 0.991304337978363 0.3450980484485626 0.34117648005485535 0.32156863808631897
0.567241370677948 0.5690825581550598 0.006719367578625679 0.3019607961177826 0.32156863808631897 0.2980392277240753
0.5591133236885071 0.5618190169334412 0.007509881630539894 0.3294117748737335 0.3686274588108063 0.33725491166114807
0.4325123131275177 0.7018790245056152 0.9909090995788574 0.30980393290519714 0.30980393290519714 0.2705882489681244
0.42586207389831543 0.6456655859947205 0.29802370071411133 0.5058823823928833 0.5176470875740051 0.5529412031173706
0.40320196747779846 0.5889783501625061 0.1671936810016632 0.07058823853731155 0.07058823853731155 0.07058823853731155
0.5645320415496826 0.5976630449295044 0.003952569328248501 0.30588236451148987 0.3137255012989044 0.29411765933036804
0.5694581270217896 0.7074056267738342 0.991304337978363 0.3333333432674408 0.3333333432674408 0.32549020648002625
0.4093596041202545 0.6745617985725403 0.29802370071411133 0.4901960790157318 0.501960813999176 0.529411792755127
0.5135468244552612 0.6174009442329407 0.29169961810112 0.06666667014360428 0.06666667014360428 0.06666667014360428
0.41847291588783264 0.6854571104049683 0.17944663763046265 0.062745101749897 0.062745101749897 0.062745101749897
0.3928571343421936 0.6208747625350952 0.991304337978363 0.33725491166114807 0.32156863808631897 0.30980393290519714
0.4411329925060272 0.696984052658081 0.9909090995788574 0.30980393290519714 0.3137255012989044 0.2823529541492462
0.3699507415294647 0.5580293536186218 0.0071146246045827866 0.35686275362968445 0.3490196168422699 0.3019607961177826
0.4596059024333954 0.6805621385574341 0.0035573123022913933 0.27450981736183167 0.27450981736183167 0.23529411852359772
0.5103448033332825 0.665561318397522 0.0031620552763342857 0.5568627715110779 0.5686274766921997 0.501960813999176
0.38743841648101807 0.6234012246131897 0.2960474193096161 0.6078431606292725 0.6235294342041016 0.6666666865348816
0.4652709364891052 0.5978209376335144 0.9909090995788574 0.3450980484485626 0.3450980484485626 0.3137255012989044
0.4598522186279297 0.6674562096595764 0.30000001192092896 0.5098039507865906 0.5137255191802979 0.5215686559677124
