0.26822659373283386 0.4389704763889313 0.9897233247756958 0.4117647111415863 0.40392157435417175 0.3529411852359772
0.2263546735048294 0.4950260519981384 0.006719367578625679 0.572549045085907 0.5686274766921997 0.49803921580314636
0.21256157755851746 0.4620243310928345 0.9901185631752014 0.32156863808631897 0.30980393290519714 0.27450981736183167
0.2103448212146759 0.44149690866470337 0.0071146246045827866 0.6901960968971252 0.6823529601097107 0.6313725709915161
0.19605910778045654 0.4940786361694336 0.0071146246045827866 0.6117647290229797 0.6196078658103943 0.5372549295425415
0.23128078877925873 0.40107375383377075 0.9897233247756958 0.3764705955982208 0.364705890417099 0.33725491166114807
0.27561575174331665 0.443233847618103 0.0071146246045827866 0.5764706134796143 0.572549045085907 0.501960813999176
0.2337438464164734 0.4138638973236084 0.9897233247756958 0.40392157435417175 0.3921568691730499 0.364705890417099
0.14581280946731567 0.5518711805343628 0.007509881630539894 0.572549045085907 0.5529412031173706 0.43921568989753723
0.3529556691646576 0.4882362186908722 0.24268774688243866 0.10588235408067703 0.10588235408067703 0.10588235408067703
0.3655172288417816 0.5111321806907654 0.9905138611793518 0.4156862795352936 0.40392157435417175 0.3686274588108063
0.28719210624694824 0.442918062210083 0.007509881630539894 0.5098039507865906 0.5137255191802979 0.4431372582912445
0.23965516686439514 0.42981210350990295 0.0071146246045827866 0.5137255191802979 0.5215686559677124 0.47058823704719543
0.1864532083272934 0.551397442817688 0.006719367578625679 0.4901960790157318 0.5215686559677124 0.4313725531101227
0.35394087433815 0.48113059997558594 0.1972332000732422 0.11764705926179886 0.125490203499794 0.12156862765550613
0.2903940975666046 0.44954997301101685 0.9897233247756958 0.40784314274787903 0.4000000059604645 0.3529411852359772
0.3532019555568695 0.5256592631340027 0.9909090995788574 0.3686274588108063 0.35686275362968445 0.3294117748737335
0.16970443725585938 0.4969208836555481 0.007509881630539894 0.6117647290229797 0.6196078658103943 0.5333333611488342
0.1625615805387497 0.5198168158531189 0.0071146246045827866 0.6196078658103943 0.6352941393852234 0.5372549295425415
0.3298029601573944 0.4257066249847412 0.007509881630539894 0.6784313917160034 0.6745098233222961 0.5921568870544434
0.19113300740718842 0.45855045318603516 0.007509881630539894 0.6039215922355652 0.6117647290229797 0.529411792755127
0.2738916277885437 0.5026053786277771 0.0071146246045827866 0.5254902243614197 0.5215686559677124 0.43921568989753723
0.21133005619049072 0.470551073551178 0.9901185631752014 0.40784314274787903 0.3960784375667572 0.3686274588108063
0.20541872084140778 0.4913942813873291 0.0071146246045827866 0.5215686559677124 0.5254902243614197 0.4627451002597809
0.22044335305690765 0.5139744281768799 0.9901185631752014 0.4000000059604645 0.38823530077934265 0.3529411852359772
0.20467980206012726 0.49549975991249084 0.9901185631752014 0.42352941632270813 0.4117647111415863 0.3764705955982208
0.2184729129076004 0.4277593493461609 0.9897233247756958 0.4274509847164154 0.4156862795352936 0.3960784375667572
0.2780788242816925 0.4536554515361786 0.9897233247756958 0.4000000059604645 0.3921568691730499 0.3450980484485626
0.15270936489105225 0.5218695998191833 0.007509881630539894 0.5490196347236633 0.5686274766921997 0.4901960790157318
0.2219211757183075 0.4830254316329956 0.9901185631752014 0.4431372582912445 0.42352941632270813 0.4000000059604645
0.35443350672721863 0.45491868257522583 0.9901185631752014 0.42352941632270813 0.4117647111415863 0.3764705955982208
0.21157635748386383 0.4544449746608734 0.9897233247756958 0.4156862795352936 0.40392157435417175 0.3843137323856354
0.16724137961864471 0.45523449778556824 0.9901185631752014 0.40392157435417175 0.3921568691730499 0.35686275362968445
0.3578817844390869 0.42381179332733154 0.007905138656497002 0.22745098173618317 0.24705882370471954 0.21960784494876862
0.28349754214286804 0.48381492495536804 0.9901185631752014 0.41960784792900085 0.4117647111415863 0.364705890417099
0.14359605312347412 0.4171798527240753 0.9901185631752014 0.364705890417099 0.3529411852359772 0.3176470696926117
0.27955666184425354 0.43297016620635986 0.0071146246045827866 0.5333333611488342 0.5411764979362488 0.4588235318660736
0.185960590839386 0.5163429379463196 0.0071146246045827866 0.5490196347236633 0.5411764979362488 0.4901960790157318
0.3608374297618866 0.4560239911079407 0.14466403424739838 0.24705882370471954 0.250980406999588 0.22745098173618317
0.18448275327682495 0.5507658123970032 0.006719367578625679 0.572549045085907 0.6235294342041016 0.5215686559677124
0.3450738787651062 0.44054949283599854 0.00830039568245411 0.6117647290229797 0.6000000238418579 0.5254902243614197
0.17167487740516663 0.4763934910297394 0.007509881630539894 0.6352941393852234 0.6352941393852234 0.5254902243614197
0.23152709007263184 0.46155059337615967 0.9897233247756958 0.40392157435417175 0.3921568691730499 0.364705890417099
0.3522167503833771 0.4767093062400818 0.3221343755722046 0.21568627655506134 0.239215686917305 0.23137255012989044
0.3694581389427185 0.43233853578567505 0.9897233247756958 0.40392157435417175 0.3921568691730499 0.35686275362968445
0.2891625761985779 0.44970786571502686 0.9897233247756958 0.40784314274787903 0.4000000059604645 0.3529411852359772
0.35566502809524536 0.3958629369735718 0.9885375499725342 0.4000000059604645 0.3921568691730499 0.3450980484485626
0.30689653754234314 0.40060004591941833 0.0071146246045827866 0.7254902124404907 0.7215686440467834 0.6392157077789307
0.13177339732646942 0.45002368092536926 0.9901185631752014 0.4000000059604645 0.38823530077934265 0.3529411852359772
0.3450738787651062 0.5078161954879761 0.00909090880304575 0.2862745225429535 0.2862745225429535 0.24705882370471954
0.26724138855934143 0.5476077795028687 0.0071146246045827866 0.48627451062202454 0.49803921580314636 0.4156862795352936
0.14039409160614014 0.4590241611003876 0.9901185631752014 0.3843137323856354 0.38823530077934265 0.3333333432674408
0.3689655065536499 0.4304437041282654 0.00830039568245411 0.5372549295425415 0.545098066329956 0.4588235318660736
0.35812807083129883 0.4402337074279785 0.21739129722118378 0.14509804546833038 0.15294118225574493 0.14901961386203766
0.3527093529701233 0.4574451148509979 0.21778656542301178 0.12941177189350128 0.12941177189350128 0.12941177189350128
0.35566502809524536 0.5005526542663574 0.05059288442134857 0.29411765933036804 0.29019609093666077 0.2705882489681244
0.253201961517334 0.4083372950553894 0.9897233247756958 0.3843137323856354 0.3843137323856354 0.3450980484485626
0.3490147888660431 0.5258171558380127 0.9909090995788574 0.43529412150382996 0.42352941632270813 0.38823530077934265
0.35467979311943054 0.45839256048202515 0.2031620591878891 0.12941177189350128 0.13725490868091583 0.13333334028720856
0.16551724076271057 0.3964945375919342 0.0071146246045827866 0.6745098233222961 0.6784313917160034 0.615686297416687
0.346059113740921 0.43786513805389404 0.9897233247756958 0.3960784375667572 0.40392157435417175 0.3529411852359772
0.31477832794189453 0.4167061448097229 0.007509881630539894 0.6000000238418579 0.6000000238418579 0.49803921580314636
0.13004925847053528 0.46123480796813965 0.9901185631752014 0.3843137323856354 0.3764705955982208 0.3294117748737335
0.1899014711380005 0.535133421421051 0.9901185631752014 0.3764705955982208 0.3686274588108063 0.32156863808631897
0.17758621275424957 0.40312647819519043 0.0071146246045827866 0.5254902243614197 0.5254902243614197 0.48627451062202454
0.1307881772518158 0.4801831543445587 0.007905138656497002 0.5647059082984924 0.5607843399047852 0.48235294222831726
0.21502463519573212 0.5026053786277771 0.006719367578625679 0.6745098233222961 0.6549019813537598 0.5686274766921997
0.17980295419692993 0.46107688546180725 0.9901185631752014 0.4156862795352936 0.40392157435417175 0.3686274588108063
0.3499999940395355 0.5008684396743774 0.9905138611793518 0.38823530077934265 0.3764705955982208 0.34117648005485535
0.2975369393825531 0.47797253727912903 0.9901185631752014 0.41960784792900085 0.4117647111415863 0.364705890417099
0.13669951260089874 0.464866578578949 0.007509881630539894 0.5058823823928833 0.5137255191802979 0.4627451002597809
0.1899014711380005 0.41828516125679016 0.9897233247756958 0.40392157435417175 0.3921568691730499 0.37254902720451355
0.24729064106941223 0.551555335521698 0.006719367578625679 0.5058823823928833 0.49803921580314636 0.40784314274787903
0.24064038693904877 0.4002842307090759 0.9897233247756958 0.3921568691730499 0.3921568691730499 0.3607843220233917
0.3453201949596405 0.4662877023220062 0.2707509994506836 0.09019608050584793 0.09019608050584793 0.09019608050584793
0.2539408802986145 0.5373440980911255 0.9905138611793518 0.40784314274787903 0.3960784375667572 0.3607843220233917
0.16724137961864471 0.43770724534988403 0.0071146246045827866 0.545098066329956 0.5529412031173706 0.49803921580314636
0.3534482717514038 0.5022895932197571 0.9905138611793518 0.3764705955982208 0.3764705955982208 0.33725491166114807
0.3568965494632721 0.4662877023220062 0.15375493466854095 0.30588236451148987 0.30588236451148987 0.27450981736183167
0.3288177251815796 0.45539239048957825 0.9901185631752014 0.4000000059604645 0.38823530077934265 0.3529411852359772
0.26379311084747314 0.4419706165790558 0.9897233247756958 0.4117647111415863 0.4000000059604645 0.37254902720451355
0.3615763485431671 0.42649611830711365 0.06442687660455704 0.11764705926179886 0.10588235408067703 0.08627451211214066
0.1628078818321228 0.4547607898712158 0.9901185631752014 0.40784314274787903 0.3960784375667572 0.3607843220233917
0.1551724076271057 0.5043423175811768 0.9901185631752014 0.37254902720451355 0.3607843220233917 0.32549020648002625
0.17586207389831543 0.43028581142425537 0.9901185631752014 0.3333333432674408 0.32156863808631897 0.29411765933036804
0.3167487680912018 0.40407389402389526 0.0071146246045827866 0.572549045085907 0.5607843399047852 0.48627451062202454
0.19655172526836395 0.5251855254173279 0.006719367578625679 0.5372549295425415 0.5529412031173706 0.4941176474094391
0.2746305465698242 0.5302384495735168 0.9905138611793518 0.3960784375667572 0.38823530077934265 0.34117648005485535
0.13349753618240356 0.4517606198787689 0.9901185631752014 0.3843137323856354 0.3686274588108063 0.32549020648002625
0.1788177341222763 0.507342517375946 0.0071146246045827866 0.5411764979362488 0.5803921818733215 0.48235294222831726
0.19975370168685913 0.5495026111602783 0.006719367578625679 0.5411764979362488 0.529411792755127 0.4941176474094391
0.35467979311943054 0.4277593493461609 0.007905138656497002 0.501960813999176 0.501960813999176 0.45490196347236633
0.3529556691646576 0.46439287066459656 0.20000000298023224 0.11764705926179886 0.125490203499794 0.12156862765550613
0.3458127975463867 0.46076110005378723 0.9901185631752014 0.41960784792900085 0.40784314274787903 0.37254902720451355
0.13349753618240356 0.4517606198787689 0.9901185631752014 0.3843137323856354 0.3686274588108063 0.32549020648002625
0.36354678869247437 0.4279172718524933 0.9893280863761902 0.4274509847164154 0.4156862795352936 0.3803921639919281
0.34433498978614807 0.46944576501846313 0.2920948565006256 0.09019608050584793 0.09019608050584793 0.08235294371843338
0.3571428656578064 0.4339175820350647 0.26798418164253235 0.12156862765550613 0.12156862765550613 0.11372549086809158
0.20172414183616638 0.5417653322219849 0.9905138611793518 0.364705890417099 0.364705890417099 0.3176470696926117
0.3655172288417816 0.5487130880355835 0.9909090995788574 0.3764705955982208 0.3803921639919281 0.3490196168422699
0.29482758045196533 0.5225011706352234 0.9905138611793518 0.41960784792900085 0.40392157435417175 0.3607843220233917
0.13349753618240356 0.5430285930633545 0.9905138611793518 0.3686274588108063 0.35686275362968445 0.32156863808631897
0.2706896662712097 0.5204484462738037 0.9905138611793518 0.4274509847164154 0.41960784792900085 0.37254902720451355
0.34704434871673584 0.4476551413536072 0.00830039568245411 0.572549045085907 0.5764706134796143 0.5058823823928833
0.1662561595439911 0.43218064308166504 0.0071146246045827866 0.6039215922355652 0.5921568870544434 0.5176470875740051
0.31133005023002625 0.5270803570747375 0.9905138611793518 0.40784314274787903 0.4000000059604645 0.3529411852359772
0.285221666097641 0.4029685854911804 0.9893280863761902 0.40392157435417175 0.3921568691730499 0.35686275362968445
0.14088669419288635 0.402494877576828 0.9901185631752014 0.3921568691730499 0.3803921639919281 0.3450980484485626
0.26822659373283386 0.46960365772247314 0.9901185631752014 0.41960784792900085 0.40392157435417175 0.3607843220233917
0.35960590839385986 0.40912678837776184 0.007905138656497002 0.4627451002597809 0.4627451002597809 0.3607843220233917
0.1869458109140396 0.5052897334098816 0.9901185631752014 0.40392157435417175 0.3960784375667572 0.3490196168422699
0.2694581151008606 0.4547607898712158 0.9897233247756958 0.4117647111415863 0.40392157435417175 0.35686275362968445
0.2775862216949463 0.4855518639087677 0.007509881630539894 0.49803921580314636 0.501960813999176 0.4313725531101227
0.2019704431295395 0.4793936610221863 0.9901185631752014 0.4274509847164154 0.4117647111415863 0.3764705955982208
0.1822660118341446 0.545870840549469 0.9905138611793518 0.3764705955982208 0.3764705955982208 0.3450980484485626
0.14482758939266205 0.5071845650672913 0.007905138656497002 0.48627451062202454 0.501960813999176 0.43529412150382996
0.35098522901535034 0.5324490666389465 0.18023715913295746 0.2078431397676468 0.21568627655506134 0.20392157137393951
0.23891626298427582 0.48744669556617737 0.9901185631752014 0.38823530077934265 0.3764705955982208 0.34117648005485535
0.3088670074939728 0.5119217038154602 0.9905138611793518 0.4000000059604645 0.3921568691730499 0.3450980484485626
0.23522166907787323 0.529448926448822 0.006719367578625679 0.4588235318660736 0.47058823704719543 0.3960784375667572
0.2337438464164734 0.518237829208374 0.006719367578625679 0.5568627715110779 0.5529412031173706 0.4431372582912445
0.3248768448829651 0.5270803570747375 0.00830039568245411 0.47058823704719543 0.4588235318660736 0.3843137323856354
0.18793103098869324 0.4659718871116638 0.007509881630539894 0.6627451181411743 0.658823549747467 0.5803921818733215
0.3019704520702362 0.48965734243392944 0.9901185631752014 0.3960784375667572 0.3843137323856354 0.3490196168422699
0.27487683296203613 0.40407389402389526 0.006719367578625679 0.7607843279838562 0.772549033164978 0.6980392336845398
0.18448275327682495 0.4774988293647766 0.007509881630539894 0.545098066329956 0.5490196347236633 0.47843137383461
0.3524630665779114 0.5472919344902039 0.19446639716625214 0.07058823853731155 0.08627451211214066 0.08235294371843338
0.3051724135875702 0.5269224643707275 0.007905138656497002 0.47058823704719543 0.4627451002597809 0.40392157435417175
0.19950738549232483 0.5441339015960693 0.9905138611793518 0.32549020648002625 0.32549020648002625 0.27843138575553894
0.2137930989265442 0.4369177222251892 0.9897233247756958 0.4000000059604645 0.38823530077934265 0.3607843220233917
0.3302955627441406 0.470551073551178 0.9901185631752014 0.40784314274787903 0.4000000059604645 0.3529411852359772
0.24137930572032928 0.476077675819397 0.9901185631752014 0.41960784792900085 0.40784314274787903 0.37254902720451355
0.24827586114406586 0.41481131315231323 0.006719367578625679 0.6823529601097107 0.686274528503418 0.6235294342041016
0.26773399114608765 0.5016579627990723 0.9901185631752014 0.40784314274787903 0.3921568691730499 0.35686275362968445
0.1746305376291275 0.4689720571041107 0.007509881630539894 0.6039215922355652 0.6117647290229797 0.5254902243614197
0.34802955389022827 0.5165008902549744 0.9905138611793518 0.37254902720451355 0.3607843220233917 0.32549020648002625
0.3534482717514038 0.54018634557724 0.2335968315601349 0.125490203499794 0.125490203499794 0.11764705926179886
0.3224138021469116 0.4590241611003876 0.00830039568245411 0.49803921580314636 0.49803921580314636 0.45098039507865906
0.2623152732849121 0.5059213638305664 0.0071146246045827866 0.572549045085907 0.5686274766921997 0.49803921580314636
0.2568965554237366 0.5037107467651367 0.9901185631752014 0.4156862795352936 0.40784314274787903 0.3607843220233917
0.23596058785915375 0.41560080647468567 0.9897233247756958 0.3764705955982208 0.364705890417099 0.33725491166114807
0.21625615656375885 0.5195010304450989 0.006719367578625679 0.5568627715110779 0.5607843399047852 0.4901960790157318
0.2384236454963684 0.4451286792755127 0.0071146246045827866 0.5058823823928833 0.5098039507865906 0.45490196347236633
0.34778323769569397 0.44733932614326477 0.27826085686683655 0.10588235408067703 0.10588235408067703 0.10588235408067703
0.2376847267150879 0.4225485622882843 0.0071146246045827866 0.48627451062202454 0.4901960790157318 0.4274509847164154
0.3536945879459381 0.5376598834991455 0.1881422996520996 0.11764705926179886 0.13333334028720856 0.12941177189350128
0.33201971650123596 0.5092373490333557 0.9905138611793518 0.4000000059604645 0.4000000059604645 0.3529411852359772
0.15221674740314484 0.4023369550704956 0.0071146246045827866 0.4745098054409027 0.48235294222831726 0.43921568989753723
0.20000000298023224 0.5067108869552612 0.0071146246045827866 0.6274510025978088 0.6431372761726379 0.5529412031173706
0.3615763485431671 0.5226590633392334 0.17470355331897736 0.21176470816135406 0.22745098173618317 0.23137255012989044
0.34014779329299927 0.4023369550704956 0.9889327883720398 0.40392157435417175 0.38823530077934265 0.3529411852359772
0.35073891282081604 0.4763934910297394 0.32450592517852783 0.22745098173618317 0.24705882370471954 0.25882354378700256
0.1588670015335083 0.5011842846870422 0.007509881630539894 0.6078431606292725 0.6078431606292725 0.5137255191802979
0.25591132044792175 0.4394441843032837 0.9897233247756958 0.4117647111415863 0.4000000059604645 0.364705890417099
0.34729063510894775 0.4688141345977783 0.25138339400291443 0.10196078568696976 0.10196078568696976 0.0941176488995552
0.3645320236682892 0.523764431476593 0.15770751237869263 0.062745101749897 0.062745101749897 0.062745101749897
0.18546797335147858 0.5168166756629944 0.9901185631752014 0.40784314274787903 0.4000000059604645 0.3529411852359772
0.35147783160209656 0.4058108329772949 0.9889327883720398 0.4000000059604645 0.38823530077934265 0.3529411852359772
0.29211822152137756 0.5243960022926331 0.9905138611793518 0.4117647111415863 0.3960784375667572 0.3607843220233917
0.3448275923728943 0.4427601397037506 0.9897233247756958 0.32549020648002625 0.3137255012989044 0.27843138575553894
0.26354679465293884 0.4083372950553894 0.9897233247756958 0.38823530077934265 0.3764705955982208 0.34117648005485535
0.33177340030670166 0.4332859516143799 0.007905138656497002 0.5098039507865906 0.5137255191802979 0.4431372582912445
0.2182265967130661 0.523922324180603 0.9901185631752014 0.40392157435417175 0.3921568691730499 0.35686275362968445
0.26009851694107056 0.4160745441913605 0.006719367578625679 0.5960784554481506 0.6000000238418579 0.5372549295425415
0.25960591435432434 0.43533870577812195 0.0071146246045827866 0.615686297416687 0.6117647290229797 0.5411764979362488
0.2657635509967804 0.46644559502601624 0.007509881630539894 0.5490196347236633 0.5529412031173706 0.4901960790157318
0.34778323769569397 0.4171798527240753 0.007905138656497002 0.5490196347236633 0.545098066329956 0.4627451002597809
0.2901477813720703 0.54081791639328 0.0071146246045827866 0.5333333611488342 0.5411764979362488 0.4588235318660736
0.3571428656578064 0.4517606198787689 0.19525691866874695 0.13333334028720856 0.1411764770746231 0.13725490868091583
0.19285714626312256 0.46060317754745483 0.007509881630539894 0.5529412031173706 0.5490196347236633 0.47058823704719543
0.36206895112991333 0.39507341384887695 0.9885375499725342 0.3686274588108063 0.3607843220233917 0.30980393290519714
0.314039409160614 0.45855045318603516 0.00830039568245411 0.501960813999176 0.5137255191802979 0.4470588266849518
0.23226600885391235 0.4389704763889313 0.9897233247756958 0.3960784375667572 0.38823530077934265 0.34117648005485535
0.3098522126674652 0.43281224370002747 0.9897233247756958 0.3921568691730499 0.3803921639919281 0.3450980484485626
0.35517242550849915 0.4910784661769867 0.21146245300769806 0.12941177189350128 0.13725490868091583 0.13333334028720856
0.13620689511299133 0.5504500269889832 0.9905138611793518 0.34117648005485535 0.3333333432674408 0.2862745225429535
0.33497536182403564 0.5308700203895569 0.9909090995788574 0.3607843220233917 0.3607843220233917 0.3294117748737335
0.18177339434623718 0.42965418100357056 0.0071146246045827866 0.5764706134796143 0.5607843399047852 0.5176470875740051
0.222660094499588 0.46060317754745483 0.9897233247756958 0.4117647111415863 0.3921568691730499 0.3686274588108063
0.27142858505249023 0.4163903295993805 0.0071146246045827866 0.5843137502670288 0.5803921818733215 0.5098039507865906
0.21157635748386383 0.5114479660987854 0.006719367578625679 0.5882353186607361 0.5529412031173706 0.48627451062202454
0.18768472969532013 0.534975528717041 0.9901185631752014 0.37254902720451355 0.35686275362968445 0.30980393290519714
0.22019705176353455 0.5431864857673645 0.9905138611793518 0.40392157435417175 0.3960784375667572 0.3490196168422699
0.29556649923324585 0.4402337074279785 0.007509881630539894 0.6705882549285889 0.6627451181411743 0.6039215922355652
0.1866995096206665 0.4621822237968445 0.9901185631752014 0.40392157435417175 0.3921568691730499 0.35686275362968445
0.3618226647377014 0.5007105469703674 0.15770751237869263 0.2823529541492462 0.29019609093666077 0.24705882370471954
0.17931035161018372 0.5368703603744507 0.9901185631752014 0.38823530077934265 0.3764705955982208 0.34117648005485535
0.3049260973930359 0.4546028673648834 0.9901185631752014 0.3764705955982208 0.364705890417099 0.3294117748737335
0.2066502422094345 0.43849676847457886 0.0071146246045827866 0.6117647290229797 0.6039215922355652 0.5529412031173706
0.16009852290153503 0.5149218440055847 0.007509881630539894 0.5960784554481506 0.6274510025978088 0.5372549295425415
0.17684729397296906 0.47023528814315796 0.007509881630539894 0.5568627715110779 0.5490196347236633 0.46666666865348816
0.1583743840456009 0.46060317754745483 0.007509881630539894 0.6509804129600525 0.6627451181411743 0.5960784554481506
0.3529556691646576 0.4964471757411957 0.27272728085517883 0.10588235408067703 0.10588235408067703 0.10588235408067703
0.338177353143692 0.48713091015815735 0.9905138611793518 0.4117647111415863 0.3960784375667572 0.3529411852359772
0.1546798050403595 0.45302385091781616 0.007509881630539894 0.545098066329956 0.5568627715110779 0.4901960790157318
0.15147782862186432 0.5054476261138916 0.007509881630539894 0.5215686559677124 0.5764706134796143 0.4745098054409027
0.36748769879341125 0.443233847618103 0.1304347813129425 0.3686274588108063 0.37254902720451355 0.3490196168422699
0.34236451983451843 0.5305542349815369 0.9909090995788574 0.40392157435417175 0.3921568691730499 0.364705890417099
0.2854679822921753 0.4885520339012146 0.007905138656497002 0.5882353186607361 0.5803921818733215 0.49803921580314636
0.16576354205608368 0.4392862915992737 0.007509881630539894 0.5960784554481506 0.6000000238418579 0.529411792755127
0.35566502809524536 0.4399178922176361 0.23794466257095337 0.13333334028720856 0.1411764770746231 0.13725490868091583
0.3578817844390869 0.5267645716667175 0.18142291903495789 0.14901961386203766 0.1568627506494522 0.14509804546833038
0.36379310488700867 0.5482394099235535 0.9909090995788574 0.3764705955982208 0.3764705955982208 0.3450980484485626
0.2568965554237366 0.4456023871898651 0.0071146246045827866 0.4745098054409027 0.47843137383461 0.40784314274787903
0.21699507534503937 0.44907626509666443 0.9897233247756958 0.3960784375667572 0.3921568691730499 0.37254902720451355
0.2701970338821411 0.40912678837776184 0.006719367578625679 0.6705882549285889 0.6745098233222961 0.6117647290229797
0.20369458198547363 0.5000789761543274 0.0071146246045827866 0.6078431606292725 0.5921568870544434 0.47843137383461
0.1512315273284912 0.5153955221176147 0.007509881630539894 0.6666666865348816 0.686274528503418 0.6078431606292725
0.32266008853912354 0.529448926448822 0.00830039568245411 0.6352941393852234 0.6470588445663452 0.572549045085907
0.31995072960853577 0.49597346782684326 0.9905138611793518 0.4274509847164154 0.41960784792900085 0.3686274588108063
0.35911330580711365 0.4564976990222931 0.008695651777088642 0.5960784554481506 0.5843137502670288 0.5254902243614197
0.2064039409160614 0.535449206829071 0.9905138611793518 0.3921568691730499 0.3803921639919281 0.3450980484485626
0.20886699855327606 0.5521869659423828 0.9905138611793518 0.364705890417099 0.364705890417099 0.3176470696926117
0.26403939723968506 0.47023528814315796 0.007509881630539894 0.501960813999176 0.49803921580314636 0.41960784792900085
0.17758621275424957 0.46676141023635864 0.007509881630539894 0.5686274766921997 0.5647059082984924 0.4941176474094391
0.13571429252624512 0.41860097646713257 0.9901185631752014 0.3921568691730499 0.3843137323856354 0.33725491166114807
0.2736453115940094 0.4708668887615204 0.007509881630539894 0.47843137383461 0.4588235318660736 0.3843137323856354
0.3458127975463867 0.4345491826534271 0.32055336236953735 0.2666666805744171 0.29019609093666077 0.29019609093666077
0.1512315273284912 0.4996052384376526 0.9901185631752014 0.3960784375667572 0.3803921639919281 0.3333333432674408
0.1662561595439911 0.5060792565345764 0.007509881630539894 0.7058823704719543 0.7019608020782471 0.6196078658103943
0.3165024518966675 0.5139744281768799 0.9905138611793518 0.41960784792900085 0.4117647111415863 0.364705890417099
0.30024629831314087 0.47544607520103455 0.9901185631752014 0.4000000059604645 0.38823530077934265 0.3529411852359772
0.20000000298023224 0.46707722544670105 0.9901185631752014 0.3764705955982208 0.364705890417099 0.33725491166114807
0.34236451983451843 0.45933997631073 0.28379446268081665 0.09803921729326248 0.09803921729326248 0.09803921729326248
0.3007389307022095 0.40928471088409424 0.9893280863761902 0.3764705955982208 0.3764705955982208 0.3450980484485626
0.1352216750383377 0.4514448046684265 0.9901185631752014 0.38823530077934265 0.3607843220233917 0.32156863808631897
0.15270936489105225 0.4331280589103699 0.0071146246045827866 0.5137255191802979 0.5176470875740051 0.4627451002597809
0.34236451983451843 0.44733932614326477 0.9897233247756958 0.4313725531101227 0.41960784792900085 0.3921568691730499
0.3660098612308502 0.40154746174812317 0.9889327883720398 0.42352941632270813 0.4117647111415863 0.3764705955982208
0.34679803252220154 0.5477656722068787 0.27984189987182617 0.09803921729326248 0.09803921729326248 0.09019608050584793
0.16798029839992523 0.42618033289909363 0.0071146246045827866 0.6627451181411743 0.6745098233222961 0.6078431606292725
0.3566502332687378 0.46376124024391174 0.15533596277236938 0.2549019753932953 0.25882354378700256 0.23529411852359772
0.3529556691646576 0.47244590520858765 0.3225296437740326 0.22745098173618317 0.250980406999588 0.24313725531101227
0.24778325855731964 0.4116532504558563 0.9897233247756958 0.38823530077934265 0.3764705955982208 0.35686275362968445
0.23201970756053925 0.5390809774398804 0.006719367578625679 0.5647059082984924 0.5490196347236633 0.45098039507865906
0.3487684726715088 0.5435022711753845 0.18023715913295746 0.2078431397676468 0.2235294133424759 0.21960784494876862
0.1948275864124298 0.4546028673648834 0.9901185631752014 0.42352941632270813 0.4117647111415863 0.3843137323856354
0.17660097777843475 0.4201800227165222 0.9901185631752014 0.40392157435417175 0.3921568691730499 0.364705890417099
0.36330050230026245 0.45270803570747375 0.31067192554473877 0.1921568661928177 0.2078431397676468 0.21960784494876862
0.2418719232082367 0.4002842307090759 0.9897233247756958 0.4000000059604645 0.38823530077934265 0.3607843220233917
0.34753695130348206 0.5217116475105286 0.00909090880304575 0.18039216101169586 0.16862745583057404 0.14901961386203766
0.2743842303752899 0.4020211696624756 0.9897233247756958 0.4000000059604645 0.3921568691730499 0.3450980484485626
0.222660094499588 0.4334438741207123 0.9897233247756958 0.3843137323856354 0.3843137323856354 0.3450980484485626
0.23891626298427582 0.5108163356781006 0.9901185631752014 0.3764705955982208 0.364705890417099 0.3294117748737335
0.1315270960330963 0.5018158555030823 0.9901185631752014 0.40392157435417175 0.3921568691730499 0.3333333432674408
0.13374383747577667 0.402652770280838 0.9901185631752014 0.3843137323856354 0.37254902720451355 0.33725491166114807
0.21699507534503937 0.4459182024002075 0.9897233247756958 0.40784314274787903 0.3960784375667572 0.3764705955982208
0.31083744764328003 0.5477656722068787 0.9909090995788574 0.3921568691730499 0.3803921639919281 0.3529411852359772
0.18866994976997375 0.48665720224380493 0.007509881630539894 0.5529412031173706 0.529411792755127 0.46666666865348816
0.21600985527038574 0.5141323208808899 0.006719367578625679 0.5490196347236633 0.545098066329956 0.4745098054409027
0.35517242550849915 0.49834200739860535 0.19565217196941376 0.16078431904315948 0.1568627506494522 0.1411764770746231
0.3295566439628601 0.42996999621391296 0.9897233247756958 0.4156862795352936 0.40392157435417175 0.3686274588108063
0.19507388770580292 0.4688141345977783 0.9901185631752014 0.41960784792900085 0.40784314274787903 0.37254902720451355
0.1312807947397232 0.40896889567375183 0.0071146246045827866 0.5607843399047852 0.5568627715110779 0.48627451062202454
0.33940887451171875 0.443075954914093 0.00830039568245411 0.4627451002597809 0.4588235318660736 0.38823530077934265
0.2061576396226883 0.518711507320404 0.9901185631752014 0.4156862795352936 0.4156862795352936 0.3686274588108063
0.35591134428977966 0.535291314125061 0.23675888776779175 0.12156862765550613 0.12156862765550613 0.11372549086809158
0.1709359586238861 0.5303963422775269 0.9901185631752014 0.38823530077934265 0.3803921639919281 0.3333333432674408
0.20049260556697845 0.41812726855278015 0.9897233247756958 0.3960784375667572 0.3843137323856354 0.364705890417099
0.3566502332687378 0.4546028673648834 0.008695651777088642 0.529411792755127 0.5215686559677124 0.4627451002597809
0.3165024518966675 0.42096951603889465 0.9893280863761902 0.42352941632270813 0.4156862795352936 0.35686275362968445
0.15000000596046448 0.5131849050521851 0.9901185631752014 0.3921568691730499 0.3843137323856354 0.33725491166114807
0.34359607100486755 0.4628138244152069 0.2806324064731598 0.0941176488995552 0.0941176488995552 0.0941176488995552
0.22019705176353455 0.5067108869552612 0.9901185631752014 0.42352941632270813 0.4117647111415863 0.3764705955982208
0.1394088715314865 0.45776093006134033 0.007509881630539894 0.6196078658103943 0.6352941393852234 0.529411792755127
0.2935960590839386 0.5504500269889832 0.0071146246045827866 0.47843137383461 0.47058823704719543 0.4117647111415863
0.12463054060935974 0.5365545749664307 0.007509881630539894 0.529411792755127 0.5215686559677124 0.4313725531101227
0.2746305465698242 0.4509710967540741 0.007509881630539894 0.545098066329956 0.5490196347236633 0.47843137383461
0.12561576068401337 0.5146060585975647 0.007905138656497002 0.6431372761726379 0.6196078658103943 0.572549045085907
0.3332512378692627 0.5120795965194702 0.008695651777088642 0.47843137383461 0.48235294222831726 0.45098039507865906
0.24039408564567566 0.4230222702026367 0.0071146246045827866 0.5764706134796143 0.5803921818733215 0.5098039507865906
0.2743842303752899 0.5161850452423096 0.0071146246045827866 0.47058823704719543 0.47843137383461 0.3921568691730499
0.19926108419895172 0.44133901596069336 0.9897233247756958 0.3137255012989044 0.3019607961177826 0.27450981736183167
0.3499999940395355 0.546344518661499 0.30513834953308105 0.16862745583057404 0.1921568661928177 0.1921568661928177
0.14088669419288635 0.5177640914916992 0.007509881630539894 0.686274528503418 0.6941176652908325 0.6117647290229797
0.18571428954601288 0.534817636013031 0.006719367578625679 0.5647059082984924 0.5607843399047852 0.4901960790157318
0.24926108121871948 0.46170851588249207 0.9897233247756958 0.4117647111415863 0.40392157435417175 0.35686275362968445
0.22955664992332458 0.4366019368171692 0.9897233247756958 0.40392157435417175 0.3921568691730499 0.35686275362968445
0.3571428656578064 0.4887099266052246 0.3122529685497284 0.18039216101169586 0.18431372940540314 0.1921568661928177
0.18374384939670563 0.54066002368927 0.9905138611793518 0.37254902720451355 0.3803921639919281 0.32549020648002625
0.2610837519168854 0.4996052384376526 0.9901185631752014 0.4274509847164154 0.4156862795352936 0.3803921639919281
0.3657635450363159 0.46676141023635864 0.30474308133125305 0.18039216101169586 0.20000000298023224 0.21176470816135406
0.2098522186279297 0.4743407666683197 0.007509881630539894 0.5176470875740051 0.5215686559677124 0.46666666865348816
0.3564039468765259 0.46423494815826416 0.16007904708385468 0.239215686917305 0.23529411852359772 0.21960784494876862
0.3334975242614746 0.46423494815826416 0.9901185631752014 0.40784314274787903 0.3960784375667572 0.3686274588108063
0.20172414183616638 0.507342517375946 0.9901185631752014 0.4117647111415863 0.40392157435417175 0.35686275362968445
0.35812807083129883 0.43865466117858887 0.21976284682750702 0.14509804546833038 0.15294118225574493 0.14901961386203766
0.22758620977401733 0.5158692598342896 0.9901185631752014 0.3686274588108063 0.35686275362968445 0.32156863808631897
0.346059113740921 0.43786513805389404 0.9897233247756958 0.3960784375667572 0.40392157435417175 0.3529411852359772
0.36305418610572815 0.4853939712047577 0.30395257472991943 0.16862745583057404 0.1725490242242813 0.18039216101169586
0.3603448271751404 0.4860255718231201 0.9905138611793518 0.34117648005485535 0.32549020648002625 0.29019609093666077
0.35443350672721863 0.4967629909515381 0.2553359568119049 0.10588235408067703 0.11372549086809158 0.10980392247438431
0.2184729129076004 0.5338702201843262 0.9905138611793518 0.3803921639919281 0.3803921639919281 0.34117648005485535
0.24088670313358307 0.5079740881919861 0.0071146246045827866 0.6549019813537598 0.6627451181411743 0.5803921818733215
0.16724137961864471 0.4912363886833191 0.9901185631752014 0.40784314274787903 0.3960784375667572 0.3607843220233917
0.2652709484100342 0.4138638973236084 0.006719367578625679 0.5098039507865906 0.5137255191802979 0.4431372582912445
0.286699503660202 0.534817636013031 0.0071146246045827866 0.6470588445663452 0.6196078658103943 0.5568627715110779
0.35394087433815 0.4770251214504242 0.1774703562259674 0.11372549086809158 0.11764705926179886 0.125490203499794
0.1746305376291275 0.5411337614059448 0.006719367578625679 0.5411764979362488 0.5529412031173706 0.48627451062202454
0.2665024697780609 0.5436601638793945 0.9905138611793518 0.4156862795352936 0.4156862795352936 0.3686274588108063
0.36206895112991333 0.4948681592941284 0.20158103108406067 0.13333334028720856 0.1411764770746231 0.13725490868091583
0.13768473267555237 0.3991788923740387 0.0071146246045827866 0.5176470875740051 0.5176470875740051 0.47058823704719543
0.2145320177078247 0.43218064308166504 0.0071146246045827866 0.5686274766921997 0.5764706134796143 0.5254902243614197
0.27931034564971924 0.5485551953315735 0.9909090995788574 0.4000000059604645 0.4000000059604645 0.3607843220233917
0.33916255831718445 0.46723511815071106 0.9901185631752014 0.40392157435417175 0.3921568691730499 0.364705890417099
0.24729064106941223 0.5493447184562683 0.9905138611793518 0.3686274588108063 0.3686274588108063 0.33725491166114807
0.23546798527240753 0.40138953924179077 0.9897233247756958 0.40392157435417175 0.3921568691730499 0.364705890417099
0.341379314661026 0.43486499786376953 0.3181818127632141 0.054901961237192154 0.07058823853731155 0.06666667014360428
0.30763545632362366 0.46660351753234863 0.9901185631752014 0.41960784792900085 0.4117647111415863 0.364705890417099
0.3541871905326843 0.4804989695549011 0.186956524848938 0.11764705926179886 0.125490203499794 0.12156862765550613
0.21527093648910522 0.4369177222251892 0.9897233247756958 0.3960784375667572 0.3843137323856354 0.35686275362968445
0.3224138021469116 0.4255487024784088 0.007509881630539894 0.5647059082984924 0.5568627715110779 0.4745098054409027
0.30418717861175537 0.5131849050521851 0.007905138656497002 0.5176470875740051 0.5215686559677124 0.45098039507865906
0.3482758700847626 0.5207642316818237 0.15691699087619781 0.062745101749897 0.054901961237192154 0.05882352963089943
0.13793103396892548 0.42681193351745605 0.0071146246045827866 0.5098039507865906 0.501960813999176 0.4431372582912445
0.3613300621509552 0.5370282530784607 0.14901185035705566 0.05882352963089943 0.05882352963089943 0.05882352963089943
0.2298029512166977 0.47576189041137695 0.0071146246045827866 0.5529412031173706 0.545098066329956 0.4941176474094391
0.36305418610572815 0.4827096164226532 0.30513834953308105 0.16862745583057404 0.18431372940540314 0.1882352977991104
0.18916256725788116 0.5466603636741638 0.9905138611793518 0.3960784375667572 0.3960784375667572 0.35686275362968445
0.17931035161018372 0.5056055784225464 0.9901185631752014 0.40392157435417175 0.3960784375667572 0.3450980484485626
0.32438424229621887 0.45539239048957825 0.9901185631752014 0.38823530077934265 0.3803921639919281 0.3333333432674408
0.21600985527038574 0.41291648149490356 0.0071146246045827866 0.6509804129600525 0.6431372761726379 0.5960784554481506
0.1827586144208908 0.5356071591377258 0.9901185631752014 0.35686275362968445 0.3490196168422699 0.2980392277240753
0.3566502332687378 0.4309174120426178 0.2814229130744934 0.10980392247438431 0.10980392247438431 0.10980392247438431
0.36206895112991333 0.42981210350990295 0.1723320186138153 0.11764705926179886 0.11764705926179886 0.125490203499794
0.19605910778045654 0.4940786361694336 0.0071146246045827866 0.6117647290229797 0.6196078658103943 0.5372549295425415
0.31108373403549194 0.4511290192604065 0.9901185631752014 0.40784314274787903 0.40784314274787903 0.3686274588108063
0.1391625553369522 0.4252329170703888 0.0071146246045827866 0.501960813999176 0.5058823823928833 0.45098039507865906
0.12512315809726715 0.40707406401634216 0.007509881630539894 0.501960813999176 0.5137255191802979 0.4470588266849518
0.1827586144208908 0.5169745683670044 0.0071146246045827866 0.529411792755127 0.5254902243614197 0.45490196347236633
0.3206896483898163 0.534659743309021 0.00830039568245411 0.5411764979362488 0.5333333611488342 0.4431372582912445
0.35541871190071106 0.4110216200351715 0.9889327883720398 0.40784314274787903 0.4000000059604645 0.3529411852359772
0.14532019197940826 0.4538133442401886 0.007509881630539894 0.545098066329956 0.5568627715110779 0.4901960790157318
0.33177340030670166 0.397126168012619 0.007509881630539894 0.5215686559677124 0.5176470875740051 0.4470588266849518
0.3499999940395355 0.49249961972236633 0.9905138611793518 0.3803921639919281 0.3686274588108063 0.3333333432674408
0.3086206912994385 0.4566556215286255 0.9901185631752014 0.40392157435417175 0.40392157435417175 0.37254902720451355
0.17758621275424957 0.4855518639087677 0.007509881630539894 0.6117647290229797 0.6078431606292725 0.5372549295425415
0.21576355397701263 0.5427127480506897 0.006719367578625679 0.4274509847164154 0.43921568989753723 0.364705890417099
0.3660098612308502 0.534659743309021 0.00830039568245411 0.3960784375667572 0.38823530077934265 0.30588236451148987
0.3541871905326843 0.54050213098526 0.00830039568245411 0.5411764979362488 0.5411764979362488 0.4313725531101227
0.20049260556697845 0.4511290192604065 0.0071146246045827866 0.6705882549285889 0.6509804129600525 0.5764706134796143
0.27093595266342163 0.523764431476593 0.0071146246045827866 0.48627451062202454 0.4941176474094391 0.4000000059604645
0.31502464413642883 0.443075954914093 0.007905138656497002 0.6000000238418579 0.6039215922355652 0.5490196347236633
0.2967980206012726 0.41181114315986633 0.0071146246045827866 0.5843137502670288 0.5921568870544434 0.5372549295425415
0.27635467052459717 0.4602873921394348 0.007509881630539894 0.48627451062202454 0.48235294222831726 0.4117647111415863
0.14482758939266205 0.48144638538360596 0.007905138656497002 0.5607843399047852 0.5607843399047852 0.46666666865348816
0.2827586233615875 0.551555335521698 0.9909090995788574 0.4000000059604645 0.38823530077934265 0.3529411852359772
0.3421182334423065 0.5086057186126709 0.9905138611793518 0.40784314274787903 0.3960784375667572 0.3607843220233917
0.1349753737449646 0.4572872221469879 0.9901185631752014 0.3803921639919281 0.3803921639919281 0.3333333432674408
0.3485221564769745 0.4877625107765198 0.2968379557132721 0.08627451211214066 0.08627451211214066 0.08627451211214066
0.36650246381759644 0.4828675091266632 0.00909090880304575 0.43529412150382996 0.4313725531101227 0.3607843220233917
0.3605911433696747 0.4601294696331024 0.31422924995422363 0.19607843458652496 0.21568627655506134 0.22745098173618317
0.277339905500412 0.5141323208808899 0.0071146246045827866 0.6039215922355652 0.6039215922355652 0.5098039507865906
0.24458128213882446 0.5076583027839661 0.0071146246045827866 0.5215686559677124 0.5686274766921997 0.4745098054409027
0.31083744764328003 0.5444496870040894 0.9909090995788574 0.3960784375667572 0.3960784375667572 0.35686275362968445
0.18866994976997375 0.5333964824676514 0.9901185631752014 0.364705890417099 0.3529411852359772 0.32549020648002625
0.27561575174331665 0.443233847618103 0.0071146246045827866 0.5764706134796143 0.572549045085907 0.501960813999176
0.35985222458839417 0.5321332812309265 0.18853755295276642 0.08235294371843338 0.08235294371843338 0.08235294371843338
0.23497536778450012 0.4950260519981384 0.9901185631752014 0.40392157435417175 0.3921568691730499 0.35686275362968445
0.24802955985069275 0.46076110005378723 0.0071146246045827866 0.6392157077789307 0.6470588445663452 0.5921568870544434
0.3660098612308502 0.5221853852272034 0.16956521570682526 0.5843137502670288 0.6039215922355652 0.5882353186607361
0.15935960412025452 0.5501342415809631 0.0071146246045827866 0.5254902243614197 0.545098066329956 0.46666666865348816
0.34655171632766724 0.5436601638793945 0.3067193627357483 0.3490196168422699 0.3843137323856354 0.37254902720451355
0.2497536987066269 0.49628928303718567 0.9901185631752014 0.4274509847164154 0.41960784792900085 0.37254902720451355
0.3453201949596405 0.5449234247207642 0.28972330689430237 0.09019608050584793 0.09019608050584793 0.08235294371843338
0.2731527090072632 0.49249961972236633 0.0071146246045827866 0.529411792755127 0.5215686559677124 0.43921568989753723
0.16871921718120575 0.5412916541099548 0.0071146246045827866 0.5529412031173706 0.5607843399047852 0.46666666865348816
0.18546797335147858 0.418916791677475 0.9897233247756958 0.3294117748737335 0.3176470696926117 0.2980392277240753
0.3573891520500183 0.5333964824676514 0.14703556895256042 0.05882352963089943 0.05882352963089943 0.05098039284348488
0.17266009747982025 0.39807358384132385 0.9897233247756958 0.3960784375667572 0.3764705955982208 0.3529411852359772
0.24778325855731964 0.4994473457336426 0.9901185631752014 0.41960784792900085 0.4117647111415863 0.364705890417099
0.2945812940597534 0.4227064549922943 0.0071146246045827866 0.6509804129600525 0.658823549747467 0.572549045085907
0.3088670074939728 0.42444339394569397 0.9897233247756958 0.4117647111415863 0.4000000059604645 0.364705890417099
0.3608374297618866 0.42918047308921814 0.30948618054389954 0.29411765933036804 0.3176470696926117 0.3176470696926117
0.3578817844390869 0.5397126078605652 0.19367589056491852 0.11764705926179886 0.125490203499794 0.12156862765550613
0.20320196449756622 0.4546028673648834 0.9901185631752014 0.4156862795352936 0.40392157435417175 0.3764705955982208
0.22561576962471008 0.4047055244445801 0.006719367578625679 0.6509804129600525 0.6470588445663452 0.5764706134796143
0.3337438404560089 0.4367598295211792 0.007905138656497002 0.6784313917160034 0.686274528503418 0.6000000238418579
0.16748768091201782 0.47560396790504456 0.9901185631752014 0.4117647111415863 0.4000000059604645 0.364705890417099
0.21576355397701263 0.4803410768508911 0.9901185631752014 0.42352941632270813 0.40784314274787903 0.364705890417099
0.36231526732444763 0.4277593493461609 0.07075098901987076 0.11764705926179886 0.10196078568696976 0.09019608050584793
0.12906403839588165 0.5316595435142517 0.9901185631752014 0.3176470696926117 0.32156863808631897 0.2666666805744171
0.23990148305892944 0.4288646876811981 0.9897233247756958 0.3960784375667572 0.3843137323856354 0.3490196168422699
0.33571428060531616 0.48949944972991943 0.00909090880304575 0.5686274766921997 0.545098066329956 0.4901960790157318
0.21551723778247833 0.48744669556617737 0.9901185631752014 0.4156862795352936 0.40392157435417175 0.3843137323856354
0.34704434871673584 0.40928471088409424 0.9889327883720398 0.4000000059604645 0.3921568691730499 0.3450980484485626
0.16428571939468384 0.518237829208374 0.9901185631752014 0.40392157435417175 0.3960784375667572 0.3450980484485626
0.3618226647377014 0.45555028319358826 0.313043475151062 0.18431372940540314 0.20392157137393951 0.21568627655506134
0.25172412395477295 0.5165008902549744 0.9901185631752014 0.41960784792900085 0.40784314274787903 0.37254902720451355
0.3532019555568695 0.4200221002101898 0.9893280863761902 0.4156862795352936 0.40392157435417175 0.3686274588108063
0.3246305286884308 0.5253434181213379 0.00830039568245411 0.6666666865348816 0.6470588445663452 0.572549045085907
0.3455665111541748 0.5466603636741638 0.2865612506866455 0.0941176488995552 0.0941176488995552 0.08627451211214066
0.3100985288619995 0.4452866017818451 0.9897233247756958 0.40784314274787903 0.3921568691730499 0.35686275362968445
0.20738916099071503 0.5010263919830322 0.0071146246045827866 0.47843137383461 0.4745098054409027 0.3960784375667572
0.3497537076473236 0.546186625957489 0.007905138656497002 0.5215686559677124 0.5176470875740051 0.4470588266849518
0.27931034564971924 0.5485551953315735 0.9909090995788574 0.4000000059604645 0.4000000059604645 0.3607843220233917
0.1987684667110443 0.39475762844085693 0.006719367578625679 0.5921568870544434 0.5803921818733215 0.5529412031173706
0.24433498084545135 0.4017053544521332 0.006719367578625679 0.6196078658103943 0.6117647290229797 0.529411792755127
0.23497536778450012 0.5070266723632812 0.006719367578625679 0.6352941393852234 0.6235294342041016 0.5568627715110779
0.3655172288417816 0.5111321806907654 0.9905138611793518 0.4156862795352936 0.40392157435417175 0.3686274588108063
0.17783251404762268 0.4792357385158539 0.9901185631752014 0.40784314274787903 0.3921568691730499 0.3490196168422699
0.35147783160209656 0.47007736563682556 0.1972332000732422 0.12941177189350128 0.13333334028720856 0.1411764770746231
0.29137930274009705 0.5119217038154602 0.007509881630539894 0.5960784554481506 0.6000000238418579 0.5372549295425415
0.35073891282081604 0.5499762892723083 0.15177865326404572 0.10980392247438431 0.10980392247438431 0.10196078568696976
0.31995072960853577 0.41844308376312256 0.9893280863761902 0.3960784375667572 0.38823530077934265 0.33725491166114807
0.2184729129076004 0.40975841879844666 0.0071146246045827866 0.6431372761726379 0.6274510025978088 0.5843137502670288
0.23645320534706116 0.4103900194168091 0.006719367578625679 0.7098039388656616 0.7137255072593689 0.6509804129600525
0.19187192618846893 0.551239550113678 0.006719367578625679 0.5686274766921997 0.5843137502670288 0.5254902243614197
