0.9694581031799316 0.7585662603378296 0.321739137172699 0.4000000059604645 0.3843137323856354 0.33725491166114807
0.942364513874054 0.7857255935668945 0.9893280863761902 0.4313725531101227 0.40392157435417175 0.3803921639919281
0.984236478805542 0.8422548770904541 0.8889328241348267 0.4941176474094391 0.46666666865348816 0.40392157435417175
0.982758641242981 0.7759355902671814 0.18853755295276642 0.7529411911964417 0.7450980544090271 0.6941176652908325
0.8679803013801575 0.7261961102485657 0.005928853526711464 0.572549045085907 0.5529412031173706 0.4745098054409027
0.8886699676513672 0.8229906558990479 0.9881423115730286 0.364705890417099 0.3490196168422699 0.30588236451148987
0.9859606027603149 0.8127269744873047 0.7083004117012024 0.7215686440467834 0.7176470756530762 0.6352941393852234
0.898522138595581 0.816358745098114 0.006719367578625679 0.43529412150382996 0.43529412150382996 0.38823530077934265
0.982758641242981 0.7228801250457764 0.2023715376853943 0.7098039388656616 0.7176470756530762 0.6627451181411743
0.9689655303955078 0.7685141563415527 0.05415019765496254 0.10196078568696976 0.13333334028720856 0.4156862795352936
0.9061576128005981 0.7372493147850037 0.005928853526711464 0.4941176474094391 0.5098039507865906 0.4117647111415863
0.9293103218078613 0.8589925765991211 0.0063241105526685715 0.43921568989753723 0.45490196347236633 0.38823530077934265
0.9778324961662292 0.7423022389411926 0.49802371859550476 0.7215686440467834 0.7529411911964417 0.7607843279838562
0.8758620619773865 0.7483025193214417 0.005928853526711464 0.3803921639919281 0.38823530077934265 0.3019607961177826
0.9783251285552979 0.7831991314888 0.5094861388206482 0.7333333492279053 0.7529411911964417 0.7686274647712708
0.9770935773849487 0.751618504524231 0.3695652186870575 0.16470588743686676 0.16470588743686676 0.1568627506494522
0.9778324961662292 0.7168798446655273 0.5648221373558044 0.7058823704719543 0.7254902124404907 0.7372549176216125
0.9706896543502808 0.7209852933883667 0.31897231936454773 0.4901960790157318 0.501960813999176 0.46666666865348816
0.9854679703712463 0.7607768774032593 0.0830039530992508 0.6078431606292725 0.6235294342041016 0.6352941393852234
0.864039421081543 0.8332543969154358 0.006719367578625679 0.364705890417099 0.364705890417099 0.3333333432674408
0.9844827651977539 0.740723192691803 0.1039525717496872 0.21960784494876862 0.22745098173618317 0.1764705926179886
0.9780788421630859 0.724301278591156 0.4169960618019104 0.7098039388656616 0.729411780834198 0.7450980544090271
0.9418719410896301 0.7667772173881531 0.9893280863761902 0.4431372582912445 0.4156862795352936 0.3764705955982208
0.9199507236480713 0.7808305621147156 0.9885375499725342 0.4431372582912445 0.4274509847164154 0.3843137323856354
0.9482758641242981 0.7792515158653259 0.012648221105337143 0.16470588743686676 0.1764705926179886 0.45490196347236633
0.8852216601371765 0.7217748165130615 0.005928853526711464 0.4745098054409027 0.4941176474094391 0.3764705955982208
0.9849753975868225 0.7159324288368225 0.8770750761032104 0.5647059082984924 0.5568627715110779 0.4745098054409027
0.9834975600242615 0.7904626727104187 0.1403162032365799 0.7686274647712708 0.7568627595901489 0.6823529601097107
0.8857142925262451 0.7631454467773438 0.0063241105526685715 0.4470588266849518 0.43921568989753723 0.3490196168422699
0.9800492525100708 0.7825675010681152 0.40909090638160706 0.7254902124404907 0.7333333492279053 0.7803921699523926
0.9780788421630859 0.7704089879989624 0.4067193567752838 0.1411764770746231 0.14509804546833038 0.16470588743686676
0.9839901328086853 0.821411669254303 0.6375494003295898 0.7529411911964417 0.729411780834198 0.6666666865348816
0.9416255950927734 0.7415127158164978 0.9893280863761902 0.4470588266849518 0.41960784792900085 0.3803921639919281
0.9780788421630859 0.7478288412094116 0.5466403365135193 0.7176470756530762 0.729411780834198 0.7490196228027344
0.9753694534301758 0.7677246332168579 0.3494071066379547 0.529411792755127 0.5411764979362488 0.5607843399047852
0.8975369334220886 0.7277751564979553 0.9889327883720398 0.4745098054409027 0.4470588266849518 0.4156862795352936
0.8834975361824036 0.7446707487106323 0.005928853526711464 0.501960813999176 0.501960813999176 0.40784314274787903
0.8724138140678406 0.7205116152763367 0.9889327883720398 0.43921568989753723 0.4313725531101227 0.3803921639919281
0.9837438464164734 0.8310437202453613 0.805138349533081 0.34117648005485535 0.3490196168422699 0.33725491166114807
0.9788177609443665 0.7659876942634583 0.6000000238418579 0.6901960968971252 0.7019608020782471 0.7215686440467834
0.9780788421630859 0.7208274006843567 0.3648221492767334 0.6784313917160034 0.7176470756530762 0.7215686440467834
0.9854679703712463 0.810832142829895 0.5260869860649109 0.800000011920929 0.8274509906768799 0.7647058963775635
0.8689655065536499 0.7396178841590881 0.9889327883720398 0.45490196347236633 0.4470588266849518 0.4000000059604645
0.9834975600242615 0.8204642534255981 0.45652174949645996 0.7764706015586853 0.7529411911964417 0.7058823704719543
0.9837438464164734 0.8417811393737793 0.9731225371360779 0.40784314274787903 0.3803921639919281 0.3176470696926117
0.9152709245681763 0.7816200852394104 0.0063241105526685715 0.4470588266849518 0.3764705955982208 0.3686274588108063
0.9778324961662292 0.7923575043678284 0.12411066889762878 0.062745101749897 0.0470588244497776 0.03529411926865578
0.9817733764648438 0.8248855471611023 0.3011857569217682 0.658823549747467 0.6509804129600525 0.6000000238418579
0.9726601243019104 0.7639349699020386 0.015810277312994003 0.5372549295425415 0.4941176474094391 0.4156862795352936
0.9844827651977539 0.7486183643341064 0.053359683603048325 0.6666666865348816 0.6705882549285889 0.6392157077789307
0.9822660088539124 0.7891994118690491 0.687747061252594 0.658823549747467 0.658823549747467 0.6509804129600525
0.9805418848991394 0.83799147605896 0.47114625573158264 0.19607843458652496 0.18039216101169586 0.16862745583057404
0.9231526851654053 0.7432496547698975 0.9889327883720398 0.45098039507865906 0.43529412150382996 0.4000000059604645
0.9820197224617004 0.713405966758728 0.2865612506866455 0.6078431606292725 0.6196078658103943 0.5058823823928833
0.9869458079338074 0.8086215257644653 0.7517786622047424 0.6745098233222961 0.6549019813537598 0.5803921818733215
0.9830049276351929 0.8264645338058472 0.625296413898468 0.7176470756530762 0.7176470756530762 0.7098039388656616
0.9834975600242615 0.821569561958313 0.4636363685131073 0.772549033164978 0.7490196228027344 0.6941176652908325
0.9820197224617004 0.7579346299171448 0.8126482367515564 0.6274510025978088 0.6078431606292725 0.529411792755127
0.9822660088539124 0.7257224321365356 0.269565224647522 0.7019608020782471 0.7176470756530762 0.6627451181411743
0.9849753975868225 0.7988315224647522 0.32450592517852783 0.7411764860153198 0.7333333492279053 0.6745098233222961
0.9859606027603149 0.729827880859375 0.9316205382347107 0.4941176474094391 0.46666666865348816 0.40392157435417175
0.9933497309684753 0.8417811393737793 0.048221342265605927 0.054901961237192154 0.062745101749897 0.05098039284348488
0.982758641242981 0.826938271522522 0.6083003878593445 0.21960784494876862 0.21960784494876862 0.21176470816135406
0.9790640473365784 0.7558819055557251 0.6545454263687134 0.6705882549285889 0.6823529601097107 0.7098039388656616
0.9857142567634583 0.8188852071762085 0.7972332239151001 0.529411792755127 0.5098039507865906 0.4313725531101227
0.9815270900726318 0.8319911360740662 0.477865606546402 0.22745098173618317 0.20392157137393951 0.250980406999588
0.9413793087005615 0.8030949234962463 0.09683794528245926 0.11764705926179886 0.1764705926179886 0.8078431487083435
0.9812808036804199 0.8187273144721985 0.2699604630470276 0.7215686440467834 0.7098039388656616 0.6431372761726379
0.8832512497901917 0.7858834862709045 0.0063241105526685715 0.45098039507865906 0.4470588266849518 0.3764705955982208
0.9805418848991394 0.8375177383422852 0.3944664001464844 0.16470588743686676 0.16078431904315948 0.15294118225574493
0.982758641242981 0.7693036198616028 0.20395256578922272 0.7529411911964417 0.7450980544090271 0.6941176652908325
0.9839901328086853 0.7980419993400574 0.46521738171577454 0.7411764860153198 0.7333333492279053 0.686274528503418
0.9955664873123169 0.8420969247817993 0.40909090638160706 0.15294118225574493 0.13333334028720856 0.10980392247438431
0.9837438464164734 0.7543028593063354 0.11897233128547668 0.2549019753932953 0.24705882370471954 0.19607843458652496
0.9571428298950195 0.7670930027961731 0.011067193932831287 0.4901960790157318 0.47843137383461 0.40392157435417175
0.9633004665374756 0.7991473078727722 0.9897233247756958 0.4274509847164154 0.4000000059604645 0.3686274588108063
0.9800492525100708 0.7612506151199341 0.7806324362754822 0.6431372761726379 0.6470588445663452 0.6627451181411743
0.9926108121871948 0.849360466003418 0.8383399248123169 0.11764705926179886 0.12156862765550613 0.09803921729326248
0.9837438464164734 0.8354650139808655 0.8063241243362427 0.3607843220233917 0.364705890417099 0.37254902720451355
0.9192118048667908 0.7201957702636719 0.005928853526711464 0.5215686559677124 0.501960813999176 0.4156862795352936
0.9800492525100708 0.7640928626060486 0.768774688243866 0.6352941393852234 0.6470588445663452 0.6745098233222961
0.9435960650444031 0.8030949234962463 0.10355731099843979 0.0941176488995552 0.1882352977991104 0.7686274647712708
0.9108374118804932 0.8597820997238159 0.0063241105526685715 0.615686297416687 0.6235294342041016 0.5686274766921997
0.8849753737449646 0.8319911360740662 0.006719367578625679 0.38823530077934265 0.3843137323856354 0.364705890417099
0.9032019972801208 0.7915679812431335 0.9885375499725342 0.4117647111415863 0.3921568691730499 0.3686274588108063
0.9852216839790344 0.7538291215896606 0.06086956337094307 0.6078431606292725 0.6235294342041016 0.6274510025978088
0.9817733764648438 0.7400915622711182 0.8023715615272522 0.7215686440467834 0.7450980544090271 0.7372549176216125
0.9763546586036682 0.7252486944198608 0.3474308252334595 0.772549033164978 0.8039215803146362 0.8156862854957581
0.9837438464164734 0.793936550617218 0.6750988364219666 0.6941176652908325 0.686274528503418 0.6352941393852234
0.979556679725647 0.7255644798278809 0.7557312250137329 0.6078431606292725 0.6313725709915161 0.6313725709915161
0.8684729337692261 0.729512095451355 0.9889327883720398 0.45098039507865906 0.45098039507865906 0.40392157435417175
0.9852216839790344 0.7596715688705444 0.9122529625892639 0.5215686559677124 0.49803921580314636 0.43529412150382996
0.9152709245681763 0.7727774977684021 0.0063241105526685715 0.5411764979362488 0.529411792755127 0.4627451002597809
0.9830049276351929 0.7550923824310303 0.1407114565372467 0.7215686440467834 0.7176470756530762 0.6470588445663452
0.9822660088539124 0.7933049201965332 0.186956524848938 0.7529411911964417 0.7568627595901489 0.686274528503418
0.9812808036804199 0.826780378818512 0.2134387344121933 0.5843137502670288 0.5843137502670288 0.545098066329956
0.979556679725647 0.7805147767066956 0.4059288501739502 0.09019608050584793 0.09803921729326248 0.0941176488995552
0.979556679725647 0.7380388379096985 0.731225311756134 0.6039215922355652 0.6274510025978088 0.6274510025978088
0.9724137783050537 0.7975683212280273 0.08972331881523132 0.03529411926865578 0.0470588244497776 0.06666667014360428
0.9780788421630859 0.7366177439689636 0.5557312369346619 0.7098039388656616 0.729411780834198 0.7411764860153198
0.9859606027603149 0.8119374513626099 0.664426863193512 0.729411780834198 0.7176470756530762 0.6509804129600525
0.9775862097740173 0.7680404186248779 0.395256906747818 0.16862745583057404 0.12941177189350128 0.1725490242242813
0.984236478805542 0.7269856333732605 0.8379446864128113 0.615686297416687 0.5921568870544434 0.5372549295425415
0.9834975600242615 0.7380388379096985 0.12055335938930511 0.24705882370471954 0.23529411852359772 0.1764705926179886
0.9817733764648438 0.8057792782783508 0.20000000298023224 0.7333333492279053 0.7372549176216125 0.6666666865348816
0.984236478805542 0.8362545371055603 0.7509881258010864 0.24313725531101227 0.250980406999588 0.24705882370471954
0.9790640473365784 0.7726196050643921 0.6177865862846375 0.6941176652908325 0.7058823704719543 0.7333333492279053
0.995320200920105 0.8417811393737793 0.44426876306533813 0.16078431904315948 0.13333334028720856 0.10196078568696976
0.9859606027603149 0.746407687664032 0.9474308490753174 0.4745098054409027 0.4431372582912445 0.4000000059604645
0.9830049276351929 0.7738828063011169 0.1355731189250946 0.7333333492279053 0.7372549176216125 0.6823529601097107
0.9857142567634583 0.7328280210494995 0.9154150485992432 0.529411792755127 0.501960813999176 0.4274509847164154
0.9847290515899658 0.8634138703346252 0.8830039501190186 0.48627451062202454 0.4588235318660736 0.38823530077934265
0.9780788421630859 0.7495657801628113 0.4268774688243866 0.7372549176216125 0.7490196228027344 0.7686274647712708
0.9098522067070007 0.8522027730941772 0.0063241105526685715 0.41960784792900085 0.41960784792900085 0.37254902720451355
0.9790640473365784 0.7276172637939453 0.6754940748214722 0.800000011920929 0.8196078538894653 0.8352941274642944
0.984236478805542 0.746091902256012 0.8450592756271362 0.5960784554481506 0.5843137502670288 0.5176470875740051
0.9859606027603149 0.7901468276977539 0.9482213258743286 0.46666666865348816 0.4431372582912445 0.3960784375667572
0.8977832794189453 0.7591978311538696 0.005928853526711464 0.45098039507865906 0.4431372582912445 0.3607843220233917
0.9716748595237732 0.8083056807518005 0.10197628289461136 0.0470588244497776 0.05098039284348488 0.05882352963089943
0.8950738906860352 0.7213011384010315 0.005928853526711464 0.43529412150382996 0.4313725531101227 0.32156863808631897
0.9529556632041931 0.7737249135971069 0.06640316545963287 0.13725490868091583 0.16862745583057404 0.5568627715110779
0.9785714149475098 0.75746089220047 0.5881422758102417 0.7098039388656616 0.7137255072593689 0.7333333492279053
0.9182265996932983 0.7661455869674683 0.9889327883720398 0.4431372582912445 0.4274509847164154 0.3843137323856354
0.9857142567634583 0.8146218061447144 0.7098814249038696 0.7372549176216125 0.7254902124404907 0.6509804129600525
0.9780788421630859 0.7563555836677551 0.47549405694007874 0.7254902124404907 0.7450980544090271 0.7607843279838562
0.9300492405891418 0.7844623327255249 0.0063241105526685715 0.48627451062202454 0.4627451002597809 0.3686274588108063
0.9778324961662292 0.7664613723754883 0.39920949935913086 0.13333334028720856 0.10588235408067703 0.06666667014360428
0.9857142567634583 0.7963050603866577 0.752964437007904 0.6627451181411743 0.6392157077789307 0.5764706134796143
0.9502463340759277 0.7273014187812805 0.9897233247756958 0.40392157435417175 0.38823530077934265 0.3450980484485626
0.9844827651977539 0.8332543969154358 0.9019762873649597 0.5058823823928833 0.47843137383461 0.40784314274787903
0.9864531755447388 0.7961471676826477 0.8861660361289978 0.545098066329956 0.529411792755127 0.48235294222831726
0.9859606027603149 0.810990035533905 0.6359683871269226 0.7372549176216125 0.7215686440467834 0.6745098233222961
0.9793103337287903 0.7784620523452759 0.6521739363670349 0.6980392336845398 0.6941176652908325 0.7176470756530762
0.9849753975868225 0.8667298555374146 0.9426877498626709 0.45098039507865906 0.4156862795352936 0.3490196168422699
0.9857142567634583 0.8035686016082764 0.5553359389305115 0.5882353186607361 0.6705882549285889 0.8392156958580017
0.8770936131477356 0.8406758308410645 0.9881423115730286 0.29411765933036804 0.27450981736183167 0.250980406999588
0.9817733764648438 0.8283593654632568 0.4067193567752838 0.7921568751335144 0.7450980544090271 0.6901960968971252
0.9778324961662292 0.7236696481704712 0.5537549257278442 0.7215686440467834 0.7372549176216125 0.7490196228027344
0.9783251285552979 0.7729353904724121 0.4276679754257202 0.772549033164978 0.7686274647712708 0.7882353067398071
0.9051724076271057 0.7874624729156494 0.9885375499725342 0.43529412150382996 0.41960784792900085 0.3764705955982208
0.9825122952461243 0.8024632930755615 0.18379446864128113 0.7411764860153198 0.7450980544090271 0.6745098233222961
0.9844827651977539 0.7610926628112793 0.053359683603048325 0.5058823823928833 0.529411792755127 0.5764706134796143
0.9864531755447388 0.8038843870162964 0.5885375738143921 0.7843137383460999 0.7921568751335144 0.772549033164978
0.9783251285552979 0.7569872140884399 0.4166007936000824 0.7686274647712708 0.7843137383460999 0.7960784435272217
0.979556679725647 0.7107216119766235 0.7537549138069153 0.615686297416687 0.6313725709915161 0.6274510025978088
0.8677340149879456 0.7740407586097717 0.9885375499725342 0.45098039507865906 0.43529412150382996 0.38823530077934265
0.9165024757385254 0.7787778377532959 0.9885375499725342 0.4313725531101227 0.4156862795352936 0.37254902720451355
0.9812808036804199 0.8348333835601807 0.5675889253616333 0.16862745583057404 0.16862745583057404 0.16862745583057404
0.9825122952461243 0.729669988155365 0.23596838116645813 0.7215686440467834 0.729411780834198 0.6745098233222961
0.9862068891525269 0.7884098887443542 0.9130434989929199 0.5333333611488342 0.501960813999176 0.45098039507865906
0.8775861859321594 0.7820938229560852 0.9881423115730286 0.4117647111415863 0.4156862795352936 0.3607843220233917
0.8770936131477356 0.7411969304084778 0.9885375499725342 0.4470588266849518 0.45098039507865906 0.3960784375667572
0.8953201770782471 0.7775145769119263 0.9881423115730286 0.4313725531101227 0.40784314274787903 0.3607843220233917
0.982758641242981 0.8203063607215881 0.3964426815509796 0.772549033164978 0.7490196228027344 0.7019608020782471
0.9798029661178589 0.7427759170532227 0.7592885494232178 0.6196078658103943 0.6352941393852234 0.6392157077789307
0.9825122952461243 0.7801989316940308 0.1932806372642517 0.7529411911964417 0.7450980544090271 0.6941176652908325
0.9839901328086853 0.7448287010192871 0.1146245077252388 0.1882352977991104 0.16078431904315948 0.12941177189350128
0.9849753975868225 0.8499920964241028 0.939130425453186 0.47058823704719543 0.43529412150382996 0.3764705955982208
0.8778325319290161 0.7369335293769836 0.9885375499725342 0.43921568989753723 0.4313725531101227 0.3803921639919281
0.9458128213882446 0.7596715688705444 0.9893280863761902 0.43529412150382996 0.40784314274787903 0.3686274588108063
0.982758641242981 0.7279330492019653 0.1711462438106537 0.7098039388656616 0.7215686440467834 0.6549019813537598
0.8842364549636841 0.8473077416419983 0.0063241105526685715 0.33725491166114807 0.34117648005485535 0.3176470696926117
0.9857142567634583 0.8002526164054871 0.9007905125617981 0.5372549295425415 0.5137255191802979 0.4588235318660736
0.9822660088539124 0.7181430459022522 0.26877471804618835 0.6941176652908325 0.7215686440467834 0.658823549747467
0.9834975600242615 0.7178272604942322 0.12292490154504776 0.7254902124404907 0.7215686440467834 0.6509804129600525
0.9834975600242615 0.8242539167404175 0.679051399230957 0.572549045085907 0.5568627715110779 0.5098039507865906
0.9825122952461243 0.8259908556938171 0.4541501998901367 0.7803921699523926 0.7529411911964417 0.6901960968971252
0.9096059203147888 0.7427759170532227 0.005928853526711464 0.4117647111415863 0.3960784375667572 0.2823529541492462
0.9724137783050537 0.8285173177719116 0.08379446715116501 0.1921568661928177 0.1921568661928177 0.239215686917305
0.9793103337287903 0.7159324288368225 0.7403162121772766 0.615686297416687 0.6392157077789307 0.6313725709915161
0.9059113264083862 0.7623559236526489 0.005928853526711464 0.48627451062202454 0.47843137383461 0.3960784375667572
0.9852216839790344 0.8548871278762817 0.9450592994689941 0.4470588266849518 0.41960784792900085 0.35686275362968445
0.982758641242981 0.826938271522522 0.6083003878593445 0.21960784494876862 0.21960784494876862 0.21176470816135406
0.9278324842453003 0.8236222863197327 0.9889327883720398 0.3960784375667572 0.3686274588108063 0.33725491166114807
0.9637930989265442 0.724617063999176 0.007905138656497002 0.4117647111415863 0.4000000059604645 0.34117648005485535
0.8980295658111572 0.8068845868110657 0.9881423115730286 0.42352941632270813 0.3960784375667572 0.35686275362968445
0.9822660088539124 0.7675667405128479 0.27747035026550293 0.7058823704719543 0.6980392336845398 0.6078431606292725
0.979556679725647 0.7429338097572327 0.7205533385276794 0.615686297416687 0.6313725709915161 0.6352941393852234
0.9596059322357178 0.7896731495857239 0.9893280863761902 0.4117647111415863 0.3843137323856354 0.3450980484485626
0.9783251285552979 0.7778304219245911 0.5351778864860535 0.7215686440467834 0.7333333492279053 0.7529411911964417
0.9849753975868225 0.8520448207855225 0.939920961856842 0.4627451002597809 0.4274509847164154 0.3686274588108063
0.893842339515686 0.7214590311050415 0.9889327883720398 0.4156862795352936 0.4000000059604645 0.364705890417099
0.9783251285552979 0.7803568840026855 0.47667983174324036 0.7333333492279053 0.7529411911964417 0.7686274647712708
0.8815270662307739 0.7123006582260132 0.005928853526711464 0.43529412150382996 0.4470588266849518 0.34117648005485535
0.9529556632041931 0.7768830060958862 0.011067193932831287 0.16862745583057404 0.16862745583057404 0.21568627655506134
0.9790640473365784 0.7948839664459229 0.12924900650978088 0.2078431397676468 0.2235294133424759 0.32156863808631897
0.9849753975868225 0.7617242932319641 0.9075098633766174 0.529411792755127 0.5058823823928833 0.4431372582912445
0.9115763306617737 0.7315648198127747 0.005928853526711464 0.43921568989753723 0.43529412150382996 0.32549020648002625
0.984236478805542 0.8244118094444275 0.8924900889396667 0.5176470875740051 0.4901960790157318 0.41960784792900085
0.9780788421630859 0.7309331893920898 0.5671936869621277 0.7058823704719543 0.7176470756530762 0.7372549176216125
0.9852216839790344 0.8147796988487244 0.6256917119026184 0.7411764860153198 0.7254902124404907 0.6823529601097107
0.987438440322876 0.7985157370567322 0.843478262424469 0.5333333611488342 0.5254902243614197 0.46666666865348816
0.9810344576835632 0.8174640536308289 0.25691699981689453 0.7176470756530762 0.7254902124404907 0.6431372761726379
0.9832512140274048 0.8263066411018372 0.6881422996520996 0.5372549295425415 0.5137255191802979 0.46666666865348816
0.8837438225746155 0.8057792782783508 0.0063241105526685715 0.4470588266849518 0.45490196347236633 0.40392157435417175
0.9411330223083496 0.8057792782783508 0.0988142266869545 0.20000000298023224 0.26274511218070984 0.8078431487083435
0.9852216839790344 0.8157271146774292 0.6600790619850159 0.7333333492279053 0.7215686440467834 0.6549019813537598
0.9857142567634583 0.7394599914550781 0.9276679754257202 0.5058823823928833 0.47843137383461 0.4156862795352936
0.993596076965332 0.843675971031189 0.5241106748580933 0.6352941393852234 0.6235294342041016 0.5882353186607361
0.9817733764648438 0.799936830997467 0.20948617160320282 0.7686274647712708 0.772549033164978 0.7019608020782471
0.949999988079071 0.810516357421875 0.9893280863761902 0.4431372582912445 0.40784314274787903 0.3803921639919281
0.9822660088539124 0.8452550172805786 0.005533596966415644 0.42352941632270813 0.43529412150382996 0.4000000059604645
0.9854679703712463 0.8683088421821594 0.9656126499176025 0.41960784792900085 0.3764705955982208 0.30588236451148987
0.9783251285552979 0.7800410389900208 0.49130433797836304 0.729411780834198 0.7411764860153198 0.7607843279838562
0.9884236454963684 0.8398863077163696 0.34545454382896423 0.09803921729326248 0.08235294371843338 0.0784313753247261
0.9780788421630859 0.7921996116638184 0.124901182949543 0.03529411926865578 0.062745101749897 0.13333334028720856
0.8972906470298767 0.7893573641777039 0.9881423115730286 0.4627451002597809 0.43529412150382996 0.3960784375667572
0.9830049276351929 0.7700931429862976 0.16916996240615845 0.7529411911964417 0.7450980544090271 0.6941176652908325
0.9879310131072998 0.804989755153656 0.8098814487457275 0.5686274766921997 0.5607843399047852 0.47843137383461
0.9152709245681763 0.7866730093955994 0.9885375499725342 0.43529412150382996 0.41960784792900085 0.3843137323856354
0.9822660088539124 0.7366177439689636 0.25335967540740967 0.7254902124404907 0.729411780834198 0.6745098233222961
0.9869458079338074 0.8395705223083496 0.3529644310474396 0.10196078568696976 0.08627451211214066 0.08235294371843338
0.8817734122276306 0.7756197452545166 0.0063241105526685715 0.5254902243614197 0.5215686559677124 0.4117647111415863
0.9783251285552979 0.7205116152763367 0.4019762873649597 0.7176470756530762 0.7372549176216125 0.7490196228027344
0.9736453294754028 0.7467235326766968 0.31383398175239563 0.545098066329956 0.545098066329956 0.49803921580314636
0.9844827651977539 0.8575714230537415 0.865217387676239 0.10980392247438431 0.0941176488995552 0.08235294371843338
0.9366995096206665 0.8643612861633301 0.005928853526711464 0.6039215922355652 0.6078431606292725 0.5372549295425415
0.9854679703712463 0.7456181645393372 0.9707509875297546 0.43529412150382996 0.40392157435417175 0.3529411852359772
0.9849753975868225 0.83783358335495 0.9359683990478516 0.47058823704719543 0.43529412150382996 0.3686274588108063
0.9738916158676147 0.7513027191162109 0.01462450623512268 0.4470588266849518 0.40784314274787903 0.3607843220233917
0.982758641242981 0.7955155372619629 0.5577074885368347 0.7450980544090271 0.729411780834198 0.6823529601097107
0.9778324961662292 0.7383546233177185 0.4335968494415283 0.729411780834198 0.7411764860153198 0.7607843279838562
0.9847290515899658 0.7565134763717651 0.8790513873100281 0.5764706134796143 0.5490196347236633 0.47843137383461
0.9790640473365784 0.7816200852394104 0.4525691568851471 0.7372549176216125 0.7529411911964417 0.7960784435272217
0.9844827651977539 0.7509868741035461 0.10316205769777298 0.2705882489681244 0.2549019753932953 0.21176470816135406
0.9859606027603149 0.7833570241928101 0.8837944865226746 0.5607843399047852 0.5333333611488342 0.47058823704719543
0.9115763306617737 0.8660982251167297 0.9885375499725342 0.4156862795352936 0.3843137323856354 0.3333333432674408
0.9825122952461243 0.8259908556938171 0.4541501998901367 0.7803921699523926 0.7529411911964417 0.6901960968971252
0.9943349957466125 0.8424127697944641 0.7339920997619629 0.06666667014360428 0.06666667014360428 0.10588235408067703
0.9844827651977539 0.8210958242416382 0.8596838116645813 0.5411764979362488 0.5176470875740051 0.4313725531101227
0.9783251285552979 0.7269856333732605 0.5893280506134033 0.7058823704719543 0.7098039388656616 0.729411780834198
0.9785714149475098 0.7757776975631714 0.5454545617103577 0.7176470756530762 0.729411780834198 0.7490196228027344
0.9866995215415955 0.7928311824798584 0.8889328241348267 0.5529412031173706 0.529411792755127 0.4745098054409027
0.9862068891525269 0.8059371709823608 0.5035573244094849 0.8039215803146362 0.8078431487083435 0.8156862854957581
0.9810344576835632 0.8304121494293213 0.2664031684398651 0.6745098233222961 0.6666666865348816 0.6196078658103943
0.9536945819854736 0.7760934829711914 0.9893280863761902 0.41960784792900085 0.3921568691730499 0.3529411852359772
0.9901477694511414 0.8390967845916748 0.647826075553894 0.07450980693101883 0.07450980693101883 0.07450980693101883
0.9817733764648438 0.8346754908561707 0.08102767169475555 0.0784313753247261 0.08235294371843338 0.062745101749897
0.9435960650444031 0.8100426197052002 0.08458498120307922 0.21568627655506134 0.22745098173618317 0.2549019753932953
0.9933497309684753 0.8405179381370544 0.6525691747665405 0.09019608050584793 0.09019608050584793 0.09019608050584793
0.9460591077804565 0.7753039598464966 0.09130434691905975 0.13333334028720856 0.1882352977991104 0.6666666865348816
0.9628078937530518 0.7762513756752014 0.03241106867790222 0.07450980693101883 0.13333334028720856 0.4588235318660736
0.8918719291687012 0.8150955438613892 0.9881423115730286 0.41960784792900085 0.3921568691730499 0.3607843220233917
0.9859606027603149 0.7557240128517151 0.07707510143518448 0.6352941393852234 0.6431372761726379 0.6392157077789307
0.9847290515899658 0.7247750163078308 0.0778656154870987 0.7176470756530762 0.7098039388656616 0.6509804129600525
0.982758641242981 0.7178272604942322 0.17509882152080536 0.7098039388656616 0.7215686440467834 0.6549019813537598
0.9802955389022827 0.7869887948036194 0.6071146130561829 0.7098039388656616 0.7254902124404907 0.7372549176216125
0.9830049276351929 0.735196590423584 0.9743083119392395 0.38823530077934265 0.35686275362968445 0.30588236451148987
0.9881773591041565 0.8030949234962463 0.7747035622596741 0.6627451181411743 0.6509804129600525 0.5843137502670288
0.9859606027603149 0.804989755153656 0.8656126260757446 0.5529412031173706 0.5411764979362488 0.4745098054409027
0.9857142567634583 0.751776397228241 0.9383399486541748 0.48627451062202454 0.45490196347236633 0.4117647111415863
0.9822660088539124 0.7926732897758484 0.1711462438106537 0.7647058963775635 0.7607843279838562 0.6823529601097107
0.9820197224617004 0.7658298015594482 0.28853756189346313 0.6549019813537598 0.6352941393852234 0.5490196347236633
0.9807881712913513 0.7852518558502197 0.3968379497528076 0.7254902124404907 0.7372549176216125 0.8039215803146362
0.9817733764648438 0.8318332433700562 0.4731225371360779 0.24313725531101227 0.21960784494876862 0.25882354378700256
0.9822660088539124 0.7675667405128479 0.24861660599708557 0.7372549176216125 0.7372549176216125 0.6901960968971252
0.928078830242157 0.8484130501747131 0.9889327883720398 0.364705890417099 0.3333333432674408 0.29019609093666077
0.9830049276351929 0.8247275948524475 0.5901185870170593 0.7607843279838562 0.7529411911964417 0.7019608020782471
0.984236478805542 0.8559924364089966 0.8754940629005432 0.48627451062202454 0.4588235318660736 0.3843137323856354
0.9854679703712463 0.8367282748222351 0.2754940688610077 0.0941176488995552 0.0941176488995552 0.0941176488995552
0.9448275566101074 0.7604610919952393 0.9893280863761902 0.43529412150382996 0.40784314274787903 0.3686274588108063
0.8958128094673157 0.75730299949646 0.005928853526711464 0.4117647111415863 0.40392157435417175 0.3137255012989044
0.9160098433494568 0.860255777835846 0.9889327883720398 0.41960784792900085 0.38823530077934265 0.33725491166114807
0.9837438464164734 0.8229906558990479 0.6545454263687134 0.7411764860153198 0.7176470756530762 0.6627451181411743
0.9844827651977539 0.8149376511573792 0.1608695685863495 0.7686274647712708 0.7803921699523926 0.6980392336845398
0.9665024876594543 0.8173061609268188 0.11264821887016296 0.12941177189350128 0.13333334028720856 0.20392157137393951
0.9137930870056152 0.7467235326766968 0.9889327883720398 0.4431372582912445 0.4313725531101227 0.3960784375667572
0.982758641242981 0.7183009386062622 0.14505928754806519 0.7176470756530762 0.7215686440467834 0.6509804129600525
0.9822660088539124 0.7321964502334595 0.27391305565834045 0.6941176652908325 0.7215686440467834 0.658823549747467
0.9970443248748779 0.843675971031189 0.05375494062900543 0.06666667014360428 0.07450980693101883 0.07058823853731155
0.9160098433494568 0.826780378818512 0.9889327883720398 0.4627451002597809 0.4274509847164154 0.3921568691730499
0.9825122952461243 0.7146691679954529 0.2079051434993744 0.7254902124404907 0.7372549176216125 0.6705882549285889
0.9408866763114929 0.8446233868598938 0.9893280863761902 0.42352941632270813 0.38823530077934265 0.3529411852359772
0.9857142567634583 0.7841465473175049 0.9150197505950928 0.5254902243614197 0.49803921580314636 0.43529412150382996
0.9852216839790344 0.8201484084129333 0.9430829882621765 0.47058823704719543 0.4431372582912445 0.3803921639919281
0.9844827651977539 0.7670930027961731 0.8735178112983704 0.5882353186607361 0.5686274766921997 0.4941176474094391
0.9783251285552979 0.7265118956565857 0.3743082880973816 0.7176470756530762 0.7372549176216125 0.7490196228027344
0.9549261331558228 0.8559924364089966 0.9893280863761902 0.4156862795352936 0.38823530077934265 0.32549020648002625
0.9847290515899658 0.8196747303009033 0.9098814129829407 0.5098039507865906 0.48235294222831726 0.41960784792900085
0.9433497786521912 0.8067266941070557 0.027272727340459824 0.1882352977991104 0.20392157137393951 0.21568627655506134
0.9322659969329834 0.8195168375968933 0.0063241105526685715 0.4431372582912445 0.47843137383461 0.4745098054409027
0.9822660088539124 0.7170377373695374 0.2818181812763214 0.615686297416687 0.6470588445663452 0.5529412031173706
0.9455664753913879 0.7798831462860107 0.03478260710835457 0.12941177189350128 0.18431372940540314 0.7058823704719543
0.9847290515899658 0.8263066411018372 0.9094861745834351 0.5098039507865906 0.48235294222831726 0.4117647111415863
0.931034505367279 0.816358745098114 0.0063241105526685715 0.47058823704719543 0.4470588266849518 0.4000000059604645
0.9847290515899658 0.768356204032898 0.9719367623329163 0.42352941632270813 0.3921568691730499 0.34117648005485535
0.9832512140274048 0.8234643936157227 0.5667984485626221 0.7764706015586853 0.772549033164978 0.7529411911964417
0.9701970219612122 0.7582504153251648 0.32015809416770935 0.4313725531101227 0.4156862795352936 0.3686274588108063
0.9817733764648438 0.7786199450492859 0.2806324064731598 0.7098039388656616 0.6980392336845398 0.6235294342041016
0.9435960650444031 0.8280435800552368 0.0063241105526685715 0.3921568691730499 0.4117647111415863 0.38823530077934265
0.8773398995399475 0.8203063607215881 0.006719367578625679 0.35686275362968445 0.364705890417099 0.32156863808631897
0.9662561416625977 0.8362545371055603 0.005928853526711464 0.4156862795352936 0.4431372582912445 0.4156862795352936
0.9844827651977539 0.7625138163566589 0.8687747120857239 0.5921568870544434 0.572549045085907 0.48627451062202454
0.9862068891525269 0.7443549633026123 0.9541501998901367 0.4627451002597809 0.4313725531101227 0.38823530077934265
0.9852216839790344 0.8300963044166565 0.9521738886833191 0.4588235318660736 0.42352941632270813 0.364705890417099
0.9591132998466492 0.7727774977684021 0.041897233575582504 0.11764705926179886 0.16470588743686676 0.4941176474094391
0.9665024876594543 0.7168798446655273 0.007905138656497002 0.5176470875740051 0.49803921580314636 0.42352941632270813
0.9790640473365784 0.7775145769119263 0.6162055134773254 0.7058823704719543 0.7176470756530762 0.7372549176216125
0.9790640473365784 0.7471972107887268 0.6415019631385803 0.7137255072593689 0.7176470756530762 0.7333333492279053
0.9847290515899658 0.7719879746437073 0.8596838116645813 0.5607843399047852 0.5372549295425415 0.4901960790157318
0.9854679703712463 0.8370440602302551 0.05296442657709122 0.062745101749897 0.08235294371843338 0.10588235408067703
0.9504926204681396 0.8608874082565308 0.005928853526711464 0.4313725531101227 0.4588235318660736 0.3960784375667572
0.9091132879257202 0.8473077416419983 0.9885375499725342 0.38823530077934265 0.3529411852359772 0.3176470696926117
0.9182265996932983 0.8542554974555969 0.9889327883720398 0.4274509847164154 0.3921568691730499 0.35686275362968445
0.9514778256416321 0.7650402784347534 0.00909090880304575 0.5058823823928833 0.501960813999176 0.4313725531101227
0.9837438464164734 0.8368861675262451 0.8561264872550964 0.2862745225429535 0.29019609093666077 0.30588236451148987
0.9839901328086853 0.7123006582260132 0.11501976102590561 0.729411780834198 0.7176470756530762 0.658823549747467
0.9790640473365784 0.7181430459022522 0.6830039620399475 0.7960784435272217 0.8196078538894653 0.8117647171020508
0.9849753975868225 0.7388283610343933 0.0573122538626194 0.7019608020782471 0.7058823704719543 0.6431372761726379
0.9793103337287903 0.7767251133918762 0.6426877379417419 0.6980392336845398 0.6980392336845398 0.729411780834198
0.9290640354156494 0.805463433265686 0.9889327883720398 0.4274509847164154 0.4000000059604645 0.3607843220233917
0.984236478805542 0.7453023791313171 0.843478262424469 0.6039215922355652 0.6000000238418579 0.529411792755127
0.8884236216545105 0.7936207056045532 0.0063241105526685715 0.42352941632270813 0.4274509847164154 0.35686275362968445
0.9832512140274048 0.7765671610832214 0.12766797840595245 0.7333333492279053 0.7176470756530762 0.7137255072593689
0.9834975600242615 0.8059371709823608 0.14861659705638885 0.7803921699523926 0.7960784435272217 0.6980392336845398
0.8869457840919495 0.7713564038276672 0.0063241105526685715 0.5411764979362488 0.5372549295425415 0.46666666865348816
0.9623152613639832 0.7762513756752014 0.03478260710835457 0.11372549086809158 0.1725490242242813 0.49803921580314636
0.9830049276351929 0.7876204252243042 0.3019762933254242 0.6313725709915161 0.6274510025978088 0.5098039507865906
0.8741379380226135 0.7320385575294495 0.9885375499725342 0.45098039507865906 0.4431372582912445 0.3921568691730499
0.9852216839790344 0.8228327631950378 0.8177865743637085 0.529411792755127 0.5058823823928833 0.4431372582912445
0.9933497309684753 0.8416232466697693 0.0675889328122139 0.09803921729326248 0.09019608050584793 0.0941176488995552
0.8918719291687012 0.730143666267395 0.9889327883720398 0.4431372582912445 0.43529412150382996 0.3843137323856354
0.9839901328086853 0.8471498489379883 0.8675889372825623 0.43921568989753723 0.42352941632270813 0.3803921639919281
0.8837438225746155 0.8198326230049133 0.9881423115730286 0.3960784375667572 0.3686274588108063 0.3294117748737335
0.9788177609443665 0.7708826661109924 0.5972331762313843 0.6980392336845398 0.7058823704719543 0.7529411911964417
0.9768472909927368 0.832622766494751 0.038735177367925644 0.4431372582912445 0.4745098054409027 0.48627451062202454
0.9586206674575806 0.735196590423584 0.9897233247756958 0.4274509847164154 0.4117647111415863 0.3764705955982208
0.9805418848991394 0.7171956300735474 0.7873517870903015 0.6078431606292725 0.6235294342041016 0.6196078658103943
0.9682266116142273 0.7934628129005432 0.08735177665948868 0.10980392247438431 0.12156862765550613 0.18039216101169586
0.9857142567634583 0.8089373111724854 0.507905125617981 0.772549033164978 0.7803921699523926 0.7686274647712708
0.9068965315818787 0.7175114750862122 0.005928853526711464 0.5333333611488342 0.5176470875740051 0.4117647111415863
0.9793103337287903 0.7411969304084778 0.6932806372642517 0.6431372761726379 0.658823549747467 0.6705882549285889
0.9847290515899658 0.810832142829895 0.19130434095859528 0.7137255072593689 0.7176470756530762 0.6470588445663452
0.9837438464164734 0.816516637802124 0.41976284980773926 0.772549033164978 0.7568627595901489 0.7137255072593689
0.9593595862388611 0.7148271203041077 0.005533596966415644 0.46666666865348816 0.47058823704719543 0.4000000059604645
0.9862068891525269 0.7363018989562988 0.9537549614906311 0.4745098054409027 0.4431372582912445 0.4000000059604645
0.9854679703712463 0.7700931429862976 0.9403162002563477 0.4627451002597809 0.4313725531101227 0.38823530077934265
0.8790640234947205 0.7675667405128479 0.0063241105526685715 0.4941176474094391 0.4901960790157318 0.41960784792900085
0.984236478805542 0.8537817597389221 0.8553359508514404 0.1411764770746231 0.1411764770746231 0.14901961386203766
0.9709359407424927 0.8233065009117126 0.9897233247756958 0.4117647111415863 0.3803921639919281 0.3294117748737335
0.8926108479499817 0.7606189846992493 0.0063241105526685715 0.4313725531101227 0.42352941632270813 0.32549020648002625
0.9197044372558594 0.7175114750862122 0.9893280863761902 0.4431372582912445 0.4274509847164154 0.3843137323856354
0.9822660088539124 0.740565299987793 0.26916995644569397 0.729411780834198 0.729411780834198 0.6901960968971252
0.9773399233818054 0.7167219519615173 0.5150197744369507 0.7254902124404907 0.7490196228027344 0.7490196228027344
0.9778324961662292 0.7470393180847168 0.4422924816608429 0.729411780834198 0.7411764860153198 0.7607843279838562
0.9852216839790344 0.8182535767555237 0.20474308729171753 0.6627451181411743 0.6666666865348816 0.5960784554481506
0.9657635688781738 0.8010421395301819 0.9897233247756958 0.40392157435417175 0.3686274588108063 0.34117648005485535
0.940640389919281 0.7806726694107056 0.01976284570991993 0.18039216101169586 0.22745098173618317 0.5176470875740051
0.9783251285552979 0.7727774977684021 0.5237154364585876 0.7254902124404907 0.7372549176216125 0.7568627595901489
0.8960590958595276 0.827411949634552 0.006719367578625679 0.2823529541492462 0.27843138575553894 0.25882354378700256
0.9847290515899658 0.7631454467773438 0.09683794528245926 0.6549019813537598 0.658823549747467 0.6666666865348816
0.982758641242981 0.8338859677314758 0.7426877617835999 0.239215686917305 0.2549019753932953 0.25882354378700256
0.9822660088539124 0.8286752104759216 0.5426877737045288 0.6666666865348816 0.6666666865348816 0.5647059082984924
0.9514778256416321 0.7650402784347534 0.00909090880304575 0.5058823823928833 0.501960813999176 0.4313725531101227
0.9756157398223877 0.7513027191162109 0.35098814964294434 0.6901960968971252 0.7137255072593689 0.7058823704719543
0.9852216839790344 0.8149376511573792 0.8596838116645813 0.5490196347236633 0.529411792755127 0.45098039507865906
0.9704433679580688 0.7663034796714783 0.32608696818351746 0.4431372582912445 0.43529412150382996 0.38823530077934265
0.9815270900726318 0.832938551902771 0.5660079121589661 0.16862745583057404 0.1764705926179886 0.1725490242242813
0.9800492525100708 0.7795673608779907 0.7343873381614685 0.6666666865348816 0.6705882549285889 0.686274528503418
0.9864531755447388 0.8147796988487244 0.7972332239151001 0.5411764979362488 0.5215686559677124 0.4470588266849518
0.9960591197013855 0.8424127697944641 0.39328062534332275 0.062745101749897 0.062745101749897 0.054901961237192154
0.984236478805542 0.8283593654632568 0.8786561489105225 0.5176470875740051 0.4901960790157318 0.4156862795352936
0.9305418729782104 0.8544133901596069 0.9889327883720398 0.42352941632270813 0.3921568691730499 0.3490196168422699
0.8839901685714722 0.7214590311050415 0.9889327883720398 0.4156862795352936 0.40392157435417175 0.3686274588108063
0.9802955389022827 0.8315174579620361 0.1766798347234726 0.658823549747467 0.658823549747467 0.6274510025978088
0.9871920943260193 0.8406758308410645 0.005533596966415644 0.3450980484485626 0.35686275362968445 0.3764705955982208
0.9810344576835632 0.8222011923789978 0.2509881556034088 0.6980392336845398 0.7019608020782471 0.6392157077789307
0.8805418610572815 0.8168324828147888 0.006719367578625679 0.3686274588108063 0.37254902720451355 0.3490196168422699
0.9839901328086853 0.8439918160438538 0.8636363744735718 0.19607843458652496 0.1921568661928177 0.18431372940540314
0.9822660088539124 0.7438812851905823 0.28379446268081665 0.6549019813537598 0.6627451181411743 0.5686274766921997
0.9869458079338074 0.805147647857666 0.5869565010070801 0.6705882549285889 0.6745098233222961 0.6509804129600525
0.9418719410896301 0.7963050603866577 0.04940711334347725 0.18039216101169586 0.21960784494876862 0.6000000238418579
0.9783251285552979 0.7565134763717651 0.41818180680274963 0.7411764860153198 0.7529411911964417 0.772549033164978
0.9785714149475098 0.741038978099823 0.6146245002746582 0.6784313917160034 0.6980392336845398 0.7215686440467834
0.9847290515899658 0.8067266941070557 0.3754940629005432 0.7568627595901489 0.7450980544090271 0.7098039388656616
0.9283251166343689 0.7833570241928101 0.9889327883720398 0.4274509847164154 0.4117647111415863 0.3686274588108063
0.9864531755447388 0.7149850130081177 0.9501976370811462 0.47058823704719543 0.4470588266849518 0.4000000059604645
0.9830049276351929 0.7936207056045532 0.4312252998352051 0.7411764860153198 0.7215686440467834 0.6980392336845398
0.9815270900726318 0.7663034796714783 0.8063241243362427 0.6431372761726379 0.6509804129600525 0.6078431606292725
0.9152709245681763 0.8133586049079895 0.9885375499725342 0.4313725531101227 0.40784314274787903 0.3607843220233917
0.9852216839790344 0.7899889349937439 0.14743083715438843 0.7686274647712708 0.7647058963775635 0.6823529601097107
0.9869458079338074 0.8043581247329712 0.8391304612159729 0.5686274766921997 0.5568627715110779 0.48235294222831726
0.8773398995399475 0.7715142965316772 0.0063241105526685715 0.4588235318660736 0.4627451002597809 0.3921568691730499
0.9817733764648438 0.826780378818512 0.35770750045776367 0.7137255072593689 0.6901960968971252 0.6431372761726379
0.9945812821388245 0.8416232466697693 0.6086956262588501 0.07058823853731155 0.07450980693101883 0.054901961237192154
0.9128078818321228 0.8567819595336914 0.0063241105526685715 0.3686274588108063 0.37254902720451355 0.30980393290519714
0.9857142567634583 0.8199905157089233 0.8185770511627197 0.529411792755127 0.5058823823928833 0.4431372582912445
0.9783251285552979 0.7696194648742676 0.4324110746383667 0.7411764860153198 0.772549033164978 0.7803921699523926
0.9832512140274048 0.7400915622711182 0.8233201503753662 0.6235294342041016 0.615686297416687 0.5568627715110779
0.9096059203147888 0.7716721892356873 0.9885375499725342 0.43529412150382996 0.4274509847164154 0.3803921639919281
0.984236478805542 0.724459171295166 0.844268798828125 0.6000000238418579 0.5960784554481506 0.5254902243614197
0.9736453294754028 0.7486183643341064 0.9893280863761902 0.3450980484485626 0.33725491166114807 0.2862745225429535
0.8990147709846497 0.7723038196563721 0.0063241105526685715 0.5058823823928833 0.49803921580314636 0.40784314274787903
0.920197069644928 0.822043240070343 0.9889327883720398 0.4470588266849518 0.41960784792900085 0.38823530077934265
0.8800492882728577 0.8417811393737793 0.006719367578625679 0.3803921639919281 0.3843137323856354 0.3529411852359772
0.8714285492897034 0.7827253937721252 0.9885375499725342 0.4431372582912445 0.4274509847164154 0.3803921639919281
0.9862068891525269 0.7986736297607422 0.7193675637245178 0.6666666865348816 0.6549019813537598 0.5882353186607361
0.9307881593704224 0.735354483127594 0.9893280863761902 0.42352941632270813 0.40784314274787903 0.3607843220233917
0.9852216839790344 0.8561503291130066 0.843478262424469 0.05882352963089943 0.04313725605607033 0.03921568766236305
0.9933497309684753 0.8416232466697693 0.2023715376853943 0.1764705926179886 0.1725490242242813 0.15294118225574493
0.9256157875061035 0.8638875484466553 0.005928853526711464 0.5607843399047852 0.5568627715110779 0.48627451062202454
0.9788177609443665 0.7233538627624512 0.6675889492034912 0.7843137383460999 0.8039215803146362 0.8156862854957581
0.9839901328086853 0.7937785983085632 0.6924901008605957 0.686274528503418 0.6745098233222961 0.615686297416687
0.9854679703712463 0.7533554434776306 0.9233201742172241 0.501960813999176 0.47843137383461 0.42352941632270813
0.9869458079338074 0.8556765913963318 0.8422924876213074 0.0313725508749485 0.0313725508749485 0.0313725508749485
0.979556679725647 0.7849360704421997 0.6118577122688293 0.7137255072593689 0.729411780834198 0.7411764860153198
0.9830049276351929 0.75714510679245 0.14822134375572205 0.7254902124404907 0.7176470756530762 0.658823549747467
0.984236478805542 0.7978841066360474 0.41857707500457764 0.7450980544090271 0.7333333492279053 0.7058823704719543
0.9105911254882812 0.8244118094444275 0.006719367578625679 0.3960784375667572 0.40784314274787903 0.37254902720451355
0.8948276042938232 0.8416232466697693 0.9885375499725342 0.32549020648002625 0.3019607961177826 0.2549019753932953
0.9778324961662292 0.7345649600028992 0.5367588996887207 0.7254902124404907 0.7490196228027344 0.7411764860153198
0.9854679703712463 0.7437233328819275 0.08181817829608917 0.7058823704719543 0.7098039388656616 0.6549019813537598
0.9857142567634583 0.8032528162002563 0.4213438630104065 0.772549033164978 0.7607843279838562 0.7333333492279053
0.9822660088539124 0.7342491745948792 0.28260868787765503 0.6470588445663452 0.6627451181411743 0.5647059082984924
