0.19655172526836395 0.9987367987632751 0.7209486365318298 0.6431372761726379 0.6392157077789307 0.5607843399047852
0.07660098373889923 0.9985788464546204 0.8411067128181458 0.5137255191802979 0.4901960790157318 0.4274509847164154
0.008128078654408455 0.9799463152885437 0.8154150247573853 0.47058823704719543 0.4431372582912445 0.40392157435417175
0.21551723778247833 0.9982630610466003 0.5901185870170593 0.6745098233222961 0.6784313917160034 0.615686297416687
0.007635468151420355 0.8845728635787964 0.908695638179779 0.4313725531101227 0.41960784792900085 0.3450980484485626
0.010591132566332817 0.9346281290054321 0.19051383435726166 0.11764705926179886 0.11764705926179886 0.125490203499794
0.19211822748184204 0.9981051683425903 0.9766798615455627 0.40392157435417175 0.3843137323856354 0.30980393290519714
0.016502462327480316 0.9963682293891907 0.4743083119392395 0.6784313917160034 0.6705882549285889 0.6117647290229797
0.041133005172014236 0.9984209537506104 0.7584980130195618 0.5215686559677124 0.5058823823928833 0.4588235318660736
0.22783251106739044 0.9969998598098755 0.3391304314136505 0.24705882370471954 0.23529411852359772 0.21568627655506134
0.02068965509533882 0.8758882284164429 0.208695650100708 0.24313725531101227 0.250980406999588 0.24705882370471954
0.014285714365541935 0.9270488023757935 0.02490118518471718 0.05098039284348488 0.05098039284348488 0.04313725605607033
0.009359605610370636 0.9851571321487427 0.5960474014282227 0.5921568870544434 0.5803921818733215 0.5215686559677124
0.03940886631608009 0.8793620467185974 0.18102766573429108 0.07058823853731155 0.07450980693101883 0.08235294371843338
0.008128078654408455 0.9938417673110962 0.7640316486358643 0.48235294222831726 0.47058823704719543 0.4117647111415863
0.009605911560356617 0.9624190926551819 0.06561265140771866 0.4627451002597809 0.4431372582912445 0.364705890417099
0.1583743840456009 0.9047844409942627 0.08379446715116501 0.13333334028720856 0.13725490868091583 0.11372549086809158
0.021921182051301003 0.9407863616943359 0.9893280863761902 0.35686275362968445 0.34117648005485535 0.30588236451148987
0.1273398995399475 0.91899573802948 0.33992093801498413 0.16470588743686676 0.16862745583057404 0.14901961386203766
0.1302955597639084 0.8893099427223206 0.011857707053422928 0.5568627715110779 0.5529412031173706 0.4745098054409027
0.038669951260089874 0.9287857413291931 0.9889327883720398 0.35686275362968445 0.34117648005485535 0.30588236451148987
0.16354680061340332 0.9019421935081482 0.0573122538626194 0.2666666805744171 0.26274511218070984 0.24313725531101227
0.20566502213478088 0.9283120036125183 0.3640316128730774 0.42352941632270813 0.43921568989753723 0.4431372582912445
0.10566502809524536 0.9977893829345703 0.5071146488189697 0.6745098233222961 0.686274528503418 0.6196078658103943
0.08940886706113815 0.9557871222496033 0.9893280863761902 0.3843137323856354 0.3686274588108063 0.32156863808631897
0.00911330059170723 0.8976788520812988 0.48616600036621094 0.6509804129600525 0.658823549747467 0.615686297416687
0.05467980355024338 0.8689404726028442 0.008695651777088642 0.21568627655506134 0.21568627655506134 0.18431372940540314
0.15541872382164001 0.9988946914672852 0.8075098991394043 0.5843137502670288 0.5764706134796143 0.48627451062202454
0.16724137961864471 0.9021000862121582 0.07865612953901291 0.3803921639919281 0.3803921639919281 0.3333333432674408
0.014778325334191322 0.9103110432624817 0.18537549674510956 0.4156862795352936 0.41960784792900085 0.3490196168422699
0.14926108717918396 0.9204168915748596 0.9897233247756958 0.43921568989753723 0.4313725531101227 0.37254902720451355
0.008620689623057842 0.9392073154449463 0.5984189510345459 0.6000000238418579 0.5882353186607361 0.5607843399047852
0.09975369274616241 0.9052581787109375 0.3584980368614197 0.22745098173618317 0.23137255012989044 0.24705882370471954
0.1544335037469864 0.9981051683425903 0.5438734889030457 0.658823549747467 0.6705882549285889 0.5960784554481506
0.158620685338974 0.9178904294967651 0.3640316128730774 0.27450981736183167 0.2862745225429535 0.3137255012989044
0.24113300442695618 0.9448918104171753 0.3596837818622589 0.32549020648002625 0.34117648005485535 0.3450980484485626
0.1667487621307373 0.9728406667709351 0.9889327883720398 0.4431372582912445 0.4313725531101227 0.37254902720451355
0.19729064404964447 0.9966840147972107 0.09209486097097397 0.6941176652908325 0.7137255072593689 0.6352941393852234
0.16945812106132507 0.9602084159851074 0.2865612506866455 0.16078431904315948 0.16078431904315948 0.15294118225574493
0.00911330059170723 0.8782567381858826 0.40909090638160706 0.6705882549285889 0.6705882549285889 0.6235294342041016
0.015024630352854729 0.9788410067558289 0.3695652186870575 0.7372549176216125 0.7529411911964417 0.7490196228027344
0.08645319938659668 0.9985788464546204 0.8861660361289978 0.48235294222831726 0.4745098054409027 0.3921568691730499
0.01206896547228098 0.9313122034072876 0.33003953099250793 0.11764705926179886 0.125490203499794 0.12156862765550613
0.14778324961662292 0.8733617663383484 0.9897233247756958 0.40784314274787903 0.40392157435417175 0.3333333432674408
0.05123152583837509 0.9145744442939758 0.9889327883720398 0.35686275362968445 0.3450980484485626 0.30980393290519714
0.22463053464889526 0.9930522441864014 0.3395256996154785 0.239215686917305 0.22745098173618317 0.2078431397676468
0.23916256427764893 0.9987367987632751 0.874703586101532 0.5333333611488342 0.5137255191802979 0.4000000059604645
0.24039408564567566 0.9616295695304871 0.9889327883720398 0.4588235318660736 0.45098039507865906 0.4000000059604645
0.06527093797922134 0.9984209537506104 0.8992094993591309 0.45490196347236633 0.4313725531101227 0.3686274588108063
0.11847290396690369 0.9982630610466003 0.5980237126350403 0.6666666865348816 0.6784313917160034 0.5960784554481506
0.008620689623057842 0.9527869820594788 0.5988142490386963 0.5921568870544434 0.5921568870544434 0.545098066329956
0.007881773635745049 0.9103110432624817 0.8968379497528076 0.43529412150382996 0.41960784792900085 0.3764705955982208
0.111330047249794 0.9021000862121582 0.03162055462598801 0.0470588244497776 0.054901961237192154 0.05098039284348488
0.011576354503631592 0.9472603797912598 0.40869563817977905 0.6941176652908325 0.6901960968971252 0.6705882549285889
0.22019705176353455 0.978209376335144 0.008695651777088642 0.3960784375667572 0.3960784375667572 0.3019607961177826
0.1551724076271057 0.9120479822158813 0.07549407333135605 0.2823529541492462 0.2980392277240753 0.29411765933036804
0.00911330059170723 0.897205114364624 0.4573122560977936 0.6745098233222961 0.6745098233222961 0.6352941393852234
0.045812807977199554 0.9984209537506104 0.7822134494781494 0.5137255191802979 0.5058823823928833 0.45490196347236633
0.09605911374092102 0.91883784532547 0.29169961810112 0.14509804546833038 0.15294118225574493 0.14901961386203766
0.11945813149213791 0.9958944916725159 0.0936758890748024 0.4431372582912445 0.4470588266849518 0.3921568691730499
0.237931028008461 0.9969998598098755 0.22727273404598236 0.5647059082984924 0.572549045085907 0.5215686559677124
0.15295566618442535 0.8912047743797302 0.9897233247756958 0.40392157435417175 0.38823530077934265 0.34117648005485535
0.14137931168079376 0.9984209537506104 0.6304348111152649 0.6470588445663452 0.6431372761726379 0.5647059082984924
0.03374384343624115 0.9363650679588318 0.010276679880917072 0.24705882370471954 0.24313725531101227 0.23529411852359772
0.07684729248285294 0.8976788520812988 0.9889327883720398 0.41960784792900085 0.40784314274787903 0.37254902720451355
0.21724137663841248 0.9971577525138855 0.38181817531585693 0.8078431487083435 0.8235294222831726 0.7647058963775635
0.008128078654408455 0.9491552114486694 0.7501976490020752 0.5137255191802979 0.49803921580314636 0.4627451002597809
0.2305418699979782 0.9966840147972107 0.056521739810705185 0.6666666865348816 0.6784313917160034 0.572549045085907
0.008620689623057842 0.9928943514823914 0.6826087236404419 0.5176470875740051 0.5215686559677124 0.4588235318660736
0.09310344606637955 0.9442602396011353 0.07114624232053757 0.21960784494876862 0.2235294133424759 0.20000000298023224
0.1788177341222763 0.9420495629310608 0.037154149264097214 0.09019608050584793 0.08627451211214066 0.07058823853731155
0.019704433158040047 0.9982630610466003 0.6901185512542725 0.5490196347236633 0.5333333611488342 0.48627451062202454
0.10960590839385986 0.913784921169281 0.0731225311756134 0.18039216101169586 0.1882352977991104 0.1764705926179886
0.18448275327682495 0.91867995262146 0.32450592517852783 0.16862745583057404 0.16862745583057404 0.16078431904315948
0.1667487621307373 0.9478920102119446 0.28972330689430237 0.05882352963089943 0.06666667014360428 0.062745101749897
0.008374384604394436 0.8809410929679871 0.6166008114814758 0.6235294342041016 0.6235294342041016 0.5843137502670288
0.2376847267150879 0.9456813335418701 0.00909090880304575 0.5607843399047852 0.5490196347236633 0.48235294222831726
0.011330049484968185 0.91899573802948 0.34545454382896423 0.16470588743686676 0.16078431904315948 0.15294118225574493
0.07906404137611389 0.9955787062644958 0.08893280476331711 0.08235294371843338 0.0784313753247261 0.062745101749897
0.008620689623057842 0.8785725831985474 0.5071146488189697 0.6509804129600525 0.6549019813537598 0.6235294342041016
0.0911330059170723 0.9011526703834534 0.040316205471754074 0.09019608050584793 0.09019608050584793 0.09019608050584793
0.16970443725585938 0.9987367987632751 0.699999988079071 0.6352941393852234 0.6392157077789307 0.5686274766921997
0.010837438516318798 0.8874151110649109 0.040316205471754074 0.07450980693101883 0.07450980693101883 0.07450980693101883
0.009605911560356617 0.9632086157798767 0.18142291903495789 0.3176470696926117 0.3176470696926117 0.2705882489681244
0.012807881459593773 0.9306805729866028 0.18339921534061432 0.40392157435417175 0.40784314274787903 0.3843137323856354
0.041133005172014236 0.9062055945396423 0.9889327883720398 0.3529411852359772 0.34117648005485535 0.30588236451148987
0.010837438516318798 0.9793146848678589 0.16047431528568268 0.29411765933036804 0.2823529541492462 0.24705882370471954
0.011330049484968185 0.9952629208564758 0.7162055373191833 0.5137255191802979 0.5058823823928833 0.45490196347236633
0.2184729129076004 0.9799463152885437 0.34584981203079224 0.19607843458652496 0.1921568661928177 0.18431372940540314
0.14975368976593018 0.9316279888153076 0.3683794438838959 0.2980392277240753 0.32156863808631897 0.32156863808631897
0.18349753320217133 0.9174166917800903 0.36679843068122864 0.47843137383461 0.4941176474094391 0.4901960790157318
0.21305418014526367 0.9275224804878235 0.009486165829002857 0.5803921818733215 0.5568627715110779 0.4941176474094391
0.08842364698648453 0.869572103023529 0.18616600334644318 0.08627451211214066 0.09019608050584793 0.09803921729326248
0.1741379350423813 0.9927364587783813 0.008695651777088642 0.16470588743686676 0.16078431904315948 0.15294118225574493
0.1785714328289032 0.9649454951286316 0.9889327883720398 0.47058823704719543 0.4588235318660736 0.3843137323856354
0.22487685084342957 0.9291015267372131 0.343873530626297 0.18039216101169586 0.18039216101169586 0.1725490242242813
0.1541871875524521 0.9960524439811707 0.35731226205825806 0.5843137502670288 0.6078431606292725 0.5529412031173706
0.20935960114002228 0.9006789922714233 0.9901185631752014 0.42352941632270813 0.4156862795352936 0.3686274588108063
0.20566502213478088 0.9969998598098755 0.28418973088264465 0.37254902720451355 0.3607843220233917 0.2862745225429535
0.2064039409160614 0.9373124837875366 0.365612655878067 0.37254902720451355 0.37254902720451355 0.3803921639919281
0.09334975481033325 0.9142586588859558 0.3237154185771942 0.3607843220233917 0.3607843220233917 0.3137255012989044
0.1830049306154251 0.9960524439811707 0.1252964437007904 0.12156862765550613 0.11764705926179886 0.09803921729326248
0.021921182051301003 0.9981051683425903 0.9474308490753174 0.3607843220233917 0.33725491166114807 0.2823529541492462
0.16059114038944244 0.9613137245178223 0.3762845993041992 0.26274511218070984 0.2705882489681244 0.2666666805744171
0.013054187409579754 0.9963682293891907 0.747035562992096 0.501960813999176 0.4941176474094391 0.4470588266849518
0.18128079175949097 0.9433128237724304 0.36719366908073425 0.27450981736183167 0.2862745225429535 0.30588236451148987
0.11256157606840134 0.913469135761261 0.01660079136490822 0.054901961237192154 0.062745101749897 0.05882352963089943
0.009852216579020023 0.9553134441375732 0.022134387865662575 0.10980392247438431 0.09019608050584793 0.0784313753247261
0.16970443725585938 0.8874151110649109 0.011067193932831287 0.529411792755127 0.5215686559677124 0.43921568989753723
0.08300492912530899 0.9976314306259155 0.5031620264053345 0.686274528503418 0.6901960968971252 0.6352941393852234
0.009359605610370636 0.8732038736343384 0.33003953099250793 0.7333333492279053 0.7372549176216125 0.6823529601097107
0.060098521411418915 0.9976314306259155 0.5256916880607605 0.6627451181411743 0.6745098233222961 0.6000000238418579
0.21133005619049072 0.9985788464546204 0.7276679873466492 0.6431372761726379 0.6392157077789307 0.5686274766921997
0.17955665290355682 0.9561029672622681 0.050197627395391464 0.09019608050584793 0.09019608050584793 0.09803921729326248
0.06453201919794083 0.9441023468971252 0.03913043439388275 0.07450980693101883 0.07058823853731155 0.062745101749897
0.017241379246115685 0.8719406127929688 0.19881422817707062 0.3019607961177826 0.29019609093666077 0.26274511218070984
0.050246305763721466 0.994315505027771 0.2964426875114441 0.13333334028720856 0.12941177189350128 0.10980392247438431
0.15788176655769348 0.9095215797424316 0.2920948565006256 0.29019609093666077 0.32549020648002625 0.3137255012989044
0.23645320534706116 0.9969998598098755 0.2181818187236786 0.572549045085907 0.5803921818733215 0.5254902243614197
0.18768472969532013 0.9733144044876099 0.00830039568245411 0.38823530077934265 0.3764705955982208 0.3019607961177826
0.1391625553369522 0.9968419671058655 0.12766797840595245 0.4470588266849518 0.45098039507865906 0.41960784792900085
0.00911330059170723 0.9171009063720703 0.4426877498626709 0.6784313917160034 0.6705882549285889 0.6235294342041016
0.14581280946731567 0.9987367987632751 0.7652173638343811 0.6000000238418579 0.5921568870544434 0.501960813999176
0.07266009598970413 0.9692088961601257 0.9893280863761902 0.4117647111415863 0.3960784375667572 0.3490196168422699
0.008128078654408455 0.989420473575592 0.7205533385276794 0.5098039507865906 0.49803921580314636 0.4313725531101227
0.1628078818321228 0.9812095165252686 0.2509881556034088 0.125490203499794 0.11372549086809158 0.0941176488995552
0.008128078654408455 0.903047502040863 0.7640316486358643 0.5254902243614197 0.5137255191802979 0.43921568989753723
0.11576354503631592 0.9982630610466003 0.6110671758651733 0.6549019813537598 0.658823549747467 0.5882353186607361
0.04088670015335083 0.929733157157898 0.9889327883720398 0.4000000059604645 0.38823530077934265 0.3529411852359772
0.10665024816989899 0.9966840147972107 0.12806324660778046 0.3490196168422699 0.3450980484485626 0.32549020648002625
0.017980296164751053 0.8984683156013489 0.01304347813129425 0.08627451211214066 0.08627451211214066 0.08627451211214066
0.02980295568704605 0.9973156452178955 0.5517786741256714 0.6313725709915161 0.6274510025978088 0.545098066329956
0.12192118167877197 0.9974735379219055 0.41857707500457764 0.6470588445663452 0.6470588445663452 0.5529412031173706
0.016502462327480316 0.8886783719062805 0.291304349899292 0.15294118225574493 0.1568627506494522 0.1725490242242813
0.18940886855125427 0.9930522441864014 0.9889327883720398 0.3686274588108063 0.35686275362968445 0.2823529541492462
0.17536945641040802 0.9985788464546204 0.9454545378684998 0.45490196347236633 0.4274509847164154 0.3529411852359772
0.15960590541362762 0.9055739641189575 0.34664031863212585 0.1764705926179886 0.1921568661928177 0.20392157137393951
0.21231527626514435 0.9616295695304871 0.3683794438838959 0.42352941632270813 0.4313725531101227 0.41960784792900085
0.23152709007263184 0.930364727973938 0.009486165829002857 0.5372549295425415 0.5098039507865906 0.43529412150382996
0.12980295717716217 0.9854729175567627 0.07233201712369919 0.18039216101169586 0.18431372940540314 0.16470588743686676
0.1389162540435791 0.9055739641189575 0.012252964079380035 0.3607843220233917 0.3764705955982208 0.32156863808631897
0.010837438516318798 0.9324175119400024 0.39723318815231323 0.6745098233222961 0.6745098233222961 0.6666666865348816
0.06256157904863358 0.8960998058319092 0.9889327883720398 0.4117647111415863 0.4000000059604645 0.364705890417099
0.21576355397701263 0.908100426197052 0.343873530626297 0.6274510025978088 0.6313725709915161 0.6078431606292725
0.2066502422094345 0.9810516238212585 0.343873530626297 0.15294118225574493 0.15294118225574493 0.14509804546833038
0.007881773635745049 0.891678512096405 0.8047431111335754 0.4941176474094391 0.48235294222831726 0.40784314274787903
0.21527093648910522 0.9987367987632751 0.8205533623695374 0.5921568870544434 0.5764706134796143 0.47843137383461
0.09187192469835281 0.9982630610466003 0.9747035503387451 0.3843137323856354 0.3607843220233917 0.30588236451148987
0.008620689623057842 0.9155218601226807 0.5909090638160706 0.615686297416687 0.6078431606292725 0.5490196347236633
0.008128078654408455 0.869572103023529 0.6656126379966736 0.6196078658103943 0.6078431606292725 0.572549045085907
0.17684729397296906 0.941102147102356 0.26837944984436035 0.09019608050584793 0.09019608050584793 0.09019608050584793
0.008128078654408455 0.9047844409942627 0.7407114505767822 0.5411764979362488 0.529411792755127 0.4627451002597809
0.13201969861984253 0.9984209537506104 0.977470338344574 0.4000000059604645 0.37254902720451355 0.2980392277240753
0.08645319938659668 0.9052581787109375 0.051778655499219894 0.08235294371843338 0.09019608050584793 0.08627451211214066
0.009359605610370636 0.9415758848190308 0.03794466331601143 0.09803921729326248 0.08235294371843338 0.08627451211214066
0.14901477098464966 0.897205114364624 0.9897233247756958 0.4313725531101227 0.42352941632270813 0.3764705955982208
0.07315270602703094 0.9395231604576111 0.04584980383515358 0.0784313753247261 0.0784313753247261 0.07058823853731155
0.15246304869651794 0.9862624406814575 0.31343874335289 0.0470588244497776 0.0470588244497776 0.0470588244497776
0.01206896547228098 0.994473397731781 0.24624505639076233 0.21568627655506134 0.21960784494876862 0.20000000298023224
0.23275862634181976 0.9962103366851807 0.35691699385643005 0.3960784375667572 0.3921568691730499 0.37254902720451355
0.18054187297821045 0.9969998598098755 0.38814228773117065 0.7764706015586853 0.7843137383460999 0.7333333492279053
0.06576354801654816 0.9969998598098755 0.4162055253982544 0.7254902124404907 0.729411780834198 0.6745098233222961
0.00911330059170723 0.9496289491653442 0.19130434095859528 0.3960784375667572 0.3921568691730499 0.32156863808631897
0.14507389068603516 0.9273645877838135 0.07430829852819443 0.3490196168422699 0.3686274588108063 0.3450980484485626
0.02142857201397419 0.886467695236206 0.012252964079380035 0.10196078568696976 0.09803921729326248 0.09019608050584793
0.2263546735048294 0.9985788464546204 0.7316205501556396 0.6392157077789307 0.6313725709915161 0.572549045085907
0.17339901626110077 0.9437865018844604 0.321739137172699 0.1764705926179886 0.1764705926179886 0.16862745583057404
0.010837438516318798 0.9753671288490295 0.16007904708385468 0.3176470696926117 0.3019607961177826 0.25882354378700256
0.09482758492231369 0.9286278486251831 0.9893280863761902 0.4431372582912445 0.4274509847164154 0.3843137323856354
0.009359605610370636 0.9684193730354309 0.2442687749862671 0.239215686917305 0.21960784494876862 0.19607843458652496
0.029556650668382645 0.9039949178695679 0.2399209439754486 0.7411764860153198 0.7450980544090271 0.6901960968971252
0.13793103396892548 0.9988946914672852 0.8395256996154785 0.5529412031173706 0.5372549295425415 0.4313725531101227
0.22339901328086853 0.9821569323539734 0.34664031863212585 0.2078431397676468 0.20392157137393951 0.1882352977991104
0.11034482717514038 0.9985788464546204 0.7114624381065369 0.6117647290229797 0.6039215922355652 0.5137255191802979
0.17216749489307404 0.9974735379219055 0.4359683692455292 0.6941176652908325 0.7019608020782471 0.6509804129600525
0.16970443725585938 0.9823148846626282 0.007509881630539894 0.3490196168422699 0.3529411852359772 0.2980392277240753
0.17733989655971527 0.908258318901062 0.12213438749313354 0.0784313753247261 0.08627451211214066 0.08235294371843338
0.12339901179075241 0.9259434938430786 0.3166007995605469 0.34117648005485535 0.3764705955982208 0.364705890417099
0.12241379171609879 0.9977893829345703 0.49130433797836304 0.6745098233222961 0.6901960968971252 0.6313725709915161
0.0514778308570385 0.9982630610466003 0.13083003461360931 0.43529412150382996 0.42352941632270813 0.364705890417099
0.06896551698446274 0.8828359246253967 0.18418972194194794 0.09019608050584793 0.0941176488995552 0.10196078568696976
0.09704433381557465 0.9984209537506104 0.6616600751876831 0.6274510025978088 0.615686297416687 0.5411764979362488
0.23743842542171478 0.9985788464546204 0.9241106510162354 0.4627451002597809 0.4431372582912445 0.364705890417099
0.11650246381759644 0.9063634872436523 0.291304349899292 0.34117648005485535 0.3764705955982208 0.37254902720451355
0.2108374387025833 0.9966840147972107 0.02648221328854561 0.2862745225429535 0.2705882489681244 0.22745098173618317
0.21600985527038574 0.9055739641189575 0.009486165829002857 0.6117647290229797 0.6000000238418579 0.5254902243614197
0.1312807947397232 0.9035212397575378 0.24308300018310547 0.1882352977991104 0.19607843458652496 0.1921568661928177
0.1985221654176712 0.9985788464546204 0.9537549614906311 0.43921568989753723 0.41960784792900085 0.34117648005485535
0.0832512304186821 0.8757302761077881 0.9889327883720398 0.3803921639919281 0.3686274588108063 0.3333333432674408
0.18078817427158356 0.902889609336853 0.05454545468091965 0.6392157077789307 0.6274510025978088 0.5921568870544434
0.011576354503631592 0.9927364587783813 0.1972332000732422 0.2666666805744171 0.25882354378700256 0.21176470816135406
0.11231526732444763 0.9586294293403625 0.9893280863761902 0.4431372582912445 0.4274509847164154 0.3803921639919281
0.009359605610370636 0.977735698223114 0.5671936869621277 0.5843137502670288 0.5882353186607361 0.5333333611488342
0.04679802805185318 0.9976314306259155 0.5403162240982056 0.6549019813537598 0.6509804129600525 0.572549045085907
0.008620689623057842 0.9617874622344971 0.5881422758102417 0.5882353186607361 0.5921568870544434 0.5372549295425415
0.12832511961460114 0.9963682293891907 0.35691699385643005 0.615686297416687 0.6392157077789307 0.5843137502670288
0.01822660118341446 0.8964155912399292 0.27984189987182617 0.10588235408067703 0.11764705926179886 0.13725490868091583
0.10418719053268433 0.8780988454818726 0.009881422854959965 0.26274511218070984 0.26274511218070984 0.26274511218070984
0.1945812851190567 0.9988946914672852 0.7490118741989136 0.6313725709915161 0.6235294342041016 0.5411764979362488
0.237931028008461 0.913942813873291 0.35098814964294434 0.18039216101169586 0.18039216101169586 0.18039216101169586
0.1862068921327591 0.941260039806366 0.36758893728256226 0.3294117748737335 0.34117648005485535 0.3607843220233917
0.054926108568906784 0.9988946914672852 0.07667984068393707 0.3960784375667572 0.3843137323856354 0.3176470696926117
0.008128078654408455 0.9589452147483826 0.9083003997802734 0.4274509847164154 0.4000000059604645 0.3686274588108063
0.01527093630284071 0.9965261220932007 0.10237154364585876 0.3529411852359772 0.33725491166114807 0.29411765933036804
0.08866994827985764 0.9262592792510986 0.2972331941127777 0.125490203499794 0.125490203499794 0.125490203499794
0.008374384604394436 0.9662087559700012 0.6960474252700806 0.5215686559677124 0.5254902243614197 0.47058823704719543
0.23275862634181976 0.9966840147972107 0.0731225311756134 0.6392157077789307 0.6509804129600525 0.5764706134796143
0.009359605610370636 0.9153639674186707 0.12292490154504776 0.16470588743686676 0.1882352977991104 0.1882352977991104
0.010591132566332817 0.9422074556350708 0.16561265289783478 0.4941176474094391 0.48235294222831726 0.4470588266849518
0.14975368976593018 0.9973156452178955 0.43952569365501404 0.6784313917160034 0.6941176652908325 0.6392157077789307
0.1746305376291275 0.9360492825508118 0.06916996091604233 0.2862745225429535 0.30588236451148987 0.29019609093666077
0.10738915950059891 0.8987841606140137 0.03794466331601143 0.062745101749897 0.062745101749897 0.054901961237192154
0.16576354205608368 0.9974735379219055 0.4537549316883087 0.6549019813537598 0.6627451181411743 0.5803921818733215
0.010591132566332817 0.9829464554786682 0.1920948624610901 0.27450981736183167 0.25882354378700256 0.21568627655506134
0.05911330133676529 0.9759987592697144 0.020948616787791252 0.06666667014360428 0.062745101749897 0.054901961237192154
0.14753694832324982 0.9311542510986328 0.005928853526711464 0.12156862765550613 0.12156862765550613 0.11372549086809158
0.15714286267757416 0.994473397731781 0.13636364042758942 0.4588235318660736 0.45098039507865906 0.40392157435417175
0.007881773635745049 0.9488394260406494 0.8857707381248474 0.45098039507865906 0.4274509847164154 0.3803921639919281
0.008374384604394436 0.9216800928115845 0.6403161883354187 0.5882353186607361 0.5764706134796143 0.5176470875740051
0.008128078654408455 0.9810516238212585 0.6841897368431091 0.529411792755127 0.5176470875740051 0.4588235318660736
0.021182265132665634 0.9969998598098755 0.552173912525177 0.6313725709915161 0.6274510025978088 0.545098066329956
0.04975369572639465 0.9973156452178955 0.5090909004211426 0.6745098233222961 0.6705882549285889 0.6000000238418579
0.008128078654408455 0.9739459753036499 0.8177865743637085 0.46666666865348816 0.4470588266849518 0.4313725531101227
0.17118225991725922 0.988946795463562 0.9889327883720398 0.41960784792900085 0.4156862795352936 0.3450980484485626
0.008128078654408455 0.8908889889717102 0.7233201861381531 0.5607843399047852 0.5568627715110779 0.48627451062202454
0.16453202068805695 0.994315505027771 0.09604743123054504 0.3294117748737335 0.32549020648002625 0.30588236451148987
0.1987684667110443 0.9643139243125916 0.33992093801498413 0.1764705926179886 0.1764705926179886 0.16862745583057404
0.035467978566884995 0.913153350353241 0.36679843068122864 0.364705890417099 0.364705890417099 0.37254902720451355
0.009852216579020023 0.9758408069610596 0.29367589950561523 0.125490203499794 0.10980392247438431 0.10588235408067703
0.11280788481235504 0.9987367987632751 0.8581027388572693 0.5176470875740051 0.5098039507865906 0.4117647111415863
0.17733989655971527 0.9736301898956299 0.06956521421670914 0.10588235408067703 0.11372549086809158 0.10196078568696976
0.011330049484968185 0.9848412871360779 0.4909090995788574 0.6352941393852234 0.6392157077789307 0.5686274766921997
0.04605911299586296 0.9829464554786682 0.012648221105337143 0.05882352963089943 0.05882352963089943 0.05882352963089943
0.008128078654408455 0.9019421935081482 0.7249011993408203 0.5568627715110779 0.545098066329956 0.48627451062202454
0.22832512855529785 0.9985788464546204 0.6521739363670349 0.6549019813537598 0.658823549747467 0.5960784554481506
0.1985221654176712 0.9982630610466003 0.5830039381980896 0.6666666865348816 0.6784313917160034 0.6117647290229797
0.008866994641721249 0.9327332973480225 0.5039525628089905 0.6313725709915161 0.6431372761726379 0.6000000238418579
0.03645320236682892 0.8752565979957581 0.9893280863761902 0.3607843220233917 0.3529411852359772 0.30588236451148987
0.1426108330488205 0.8787304759025574 0.011462450958788395 0.4431372582912445 0.45490196347236633 0.38823530077934265
0.14778324961662292 0.9382598996162415 0.07430829852819443 0.29411765933036804 0.3137255012989044 0.2980392277240753
0.17290639877319336 0.903047502040863 0.3031620681285858 0.0941176488995552 0.10196078568696976 0.09803921729326248
0.03940886631608009 0.9981051683425903 0.6276679635047913 0.6039215922355652 0.5921568870544434 0.5176470875740051
0.22044335305690765 0.9447339177131653 0.3636363744735718 0.40392157435417175 0.4000000059604645 0.41960784792900085
0.12364532053470612 0.9426811933517456 0.9897233247756958 0.43529412150382996 0.41960784792900085 0.37254902720451355
0.15541872382164001 0.9829464554786682 0.007509881630539894 0.18431372940540314 0.1921568661928177 0.1882352977991104
0.11995074152946472 0.9981051683425903 0.22213438153266907 0.2823529541492462 0.26274511218070984 0.24705882370471954
0.16945812106132507 0.9096794724464417 0.02648221328854561 0.08627451211214066 0.08627451211214066 0.08627451211214066
0.008128078654408455 0.9864203333854675 0.7379446625709534 0.5058823823928833 0.48235294222831726 0.43529412150382996
0.025615762919187546 0.9474182724952698 0.9893280863761902 0.3176470696926117 0.3019607961177826 0.25882354378700256
0.11354679614305496 0.9984209537506104 0.9324110746383667 0.45098039507865906 0.4313725531101227 0.35686275362968445
0.15812808275222778 0.8768356442451477 0.9897233247756958 0.3843137323856354 0.37254902720451355 0.30588236451148987
0.10123153030872345 0.9987367987632751 0.8063241243362427 0.5568627715110779 0.5372549295425415 0.4588235318660736
0.01034482754766941 0.935575544834137 0.42450591921806335 0.6823529601097107 0.6784313917160034 0.658823549747467
0.15295566618442535 0.9627348780632019 0.0063241105526685715 0.05882352963089943 0.05882352963089943 0.05098039284348488
0.04852216690778732 0.9362071752548218 0.9889327883720398 0.4117647111415863 0.3960784375667572 0.3529411852359772
0.18349753320217133 0.9448918104171753 0.9893280863761902 0.43529412150382996 0.4274509847164154 0.3686274588108063
0.008128078654408455 0.8905732035636902 0.7158102989196777 0.5607843399047852 0.5529412031173706 0.4941176474094391
0.1633004993200302 0.9979472756385803 0.5197628736495972 0.6823529601097107 0.686274528503418 0.615686297416687
0.1270935982465744 0.9979472756385803 0.5201581120491028 0.658823549747467 0.6745098233222961 0.6078431606292725
0.013546798378229141 0.886467695236206 0.15928854048252106 0.10980392247438431 0.125490203499794 0.12156862765550613
0.06502462923526764 0.994473397731781 0.0679841861128807 0.054901961237192154 0.062745101749897 0.05882352963089943
0.19556650519371033 0.9988946914672852 0.7814229130744934 0.6078431606292725 0.6078431606292725 0.5137255191802979
0.20369458198547363 0.8995736837387085 0.009486165829002857 0.5333333611488342 0.5333333611488342 0.43921568989753723
0.17955665290355682 0.9257855415344238 0.3237154185771942 0.16862745583057404 0.16862745583057404 0.16078431904315948
0.18842364847660065 0.9968419671058655 0.2237154096364975 0.5176470875740051 0.5411764979362488 0.4941176474094391
0.12413793057203293 0.8994157314300537 0.0885375514626503 0.26274511218070984 0.26274511218070984 0.2549019753932953
0.20517241954803467 0.9483656883239746 0.3387351632118225 0.1764705926179886 0.1764705926179886 0.16862745583057404
0.011822660453617573 0.9622611999511719 0.33517786860466003 0.41960784792900085 0.42352941632270813 0.4313725531101227
0.10985221713781357 0.9985788464546204 0.8873517513275146 0.49803921580314636 0.47843137383461 0.4000000059604645
0.08029557019472122 0.994947075843811 0.15810276567935944 0.10980392247438431 0.09803921729326248 0.07058823853731155
0.12512315809726715 0.9049423933029175 0.9897233247756958 0.3843137323856354 0.3764705955982208 0.3294117748737335
0.008620689623057842 0.9177325367927551 0.5865612626075745 0.6196078658103943 0.615686297416687 0.5333333611488342
0.1465517282485962 0.9314700961112976 0.006719367578625679 0.11764705926179886 0.11764705926179886 0.10980392247438431
0.04039409011602402 0.9982630610466003 0.8770750761032104 0.4431372582912445 0.4313725531101227 0.37254902720451355
0.2221674919128418 0.9973156452178955 0.4015810191631317 0.7568627595901489 0.7882353067398071 0.7058823704719543
0.13817733526229858 0.9821569323539734 0.072727270424366 0.18431372940540314 0.1882352977991104 0.16470588743686676
0.1704433560371399 0.9985788464546204 0.9501976370811462 0.45098039507865906 0.42352941632270813 0.3490196168422699
0.007881773635745049 0.8814148306846619 0.7466403245925903 0.5568627715110779 0.5490196347236633 0.49803921580314636
0.07339901477098465 0.9936838746070862 0.0782608687877655 0.054901961237192154 0.062745101749897 0.05882352963089943
0.18029557168483734 0.908416211605072 0.0833992063999176 0.09019608050584793 0.09019608050584793 0.08235294371843338
0.007881773635745049 0.9125217199325562 0.8897233009338379 0.4431372582912445 0.4274509847164154 0.3843137323856354
0.09162561595439911 0.9984209537506104 0.9114624261856079 0.4588235318660736 0.4470588266849518 0.37254902720451355
0.02857142873108387 0.9976314306259155 0.6011857986450195 0.6039215922355652 0.6000000238418579 0.5215686559677124
0.2334975302219391 0.9969998598098755 0.26363635063171387 0.5411764979362488 0.5411764979362488 0.4941176474094391
0.23078817129135132 0.9744197130203247 0.008695651777088642 0.6078431606292725 0.5960784554481506 0.529411792755127
0.008374384604394436 0.8942049741744995 0.6316205263137817 0.615686297416687 0.6039215922355652 0.545098066329956
0.15640394389629364 0.9586294293403625 0.07430829852819443 0.22745098173618317 0.23529411852359772 0.2235294133424759
0.15541872382164001 0.9987367987632751 0.752173900604248 0.615686297416687 0.6078431606292725 0.5254902243614197
0.18940886855125427 0.9982630610466003 0.5565217137336731 0.6745098233222961 0.6784313917160034 0.6078431606292725
0.009359605610370636 0.9014685153961182 0.4098814129829407 0.2235294133424759 0.21960784494876862 0.20000000298023224
0.158620685338974 0.994315505027771 0.13083003461360931 0.46666666865348816 0.45490196347236633 0.41960784792900085
0.1423645317554474 0.9305226802825928 0.00909090880304575 0.11372549086809158 0.10980392247438431 0.0941176488995552
0.04162561520934105 0.9979472756385803 0.10079051554203033 0.45098039507865906 0.43921568989753723 0.37254902720451355
0.03251231461763382 0.9641560316085815 0.9889327883720398 0.3764705955982208 0.3607843220233917 0.3176470696926117
0.24014778435230255 0.9193115234375 0.9897233247756958 0.43529412150382996 0.4274509847164154 0.3803921639919281
0.16108374297618866 0.9475761651992798 0.37667983770370483 0.3333333432674408 0.3490196168422699 0.3450980484485626
0.013793103396892548 0.9698405265808105 0.37747034430503845 0.2823529541492462 0.30588236451148987 0.30588236451148987
0.026354679837822914 0.9981051683425903 0.9569169878959656 0.3490196168422699 0.32549020648002625 0.2705882489681244
0.20394088327884674 0.9979472756385803 0.507905125617981 0.6980392336845398 0.7137255072593689 0.6549019813537598
0.13571429252624512 0.9987367987632751 0.7292490005493164 0.615686297416687 0.6117647290229797 0.529411792755127
0.033497538417577744 0.908100426197052 0.9893280863761902 0.364705890417099 0.3529411852359772 0.3176470696926117
0.2105911374092102 0.9117321968078613 0.3640316128730774 0.38823530077934265 0.40392157435417175 0.40784314274787903
0.008866994641721249 0.9436286091804504 0.09723319858312607 0.48627451062202454 0.4745098054409027 0.4000000059604645
0.007881773635745049 0.9158377051353455 0.9616600871086121 0.3843137323856354 0.3607843220233917 0.30588236451148987
0.008374384604394436 0.9469445943832397 0.20474308729171753 0.4000000059604645 0.3921568691730499 0.3333333432674408
0.15394088625907898 0.9598926305770874 0.0063241105526685715 0.10196078568696976 0.10588235408067703 0.08627451211214066
0.24408866465091705 0.9276804327964783 0.3529644310474396 0.18431372940540314 0.18431372940540314 0.18431372940540314
0.008374384604394436 0.9388915300369263 0.6936758756637573 0.5411764979362488 0.5490196347236633 0.49803921580314636
0.22857142984867096 0.9985788464546204 0.7268774509429932 0.6431372761726379 0.6352941393852234 0.5764706134796143
0.23669950664043427 0.9379441142082214 0.3490118682384491 0.18431372940540314 0.18431372940540314 0.18431372940540314
0.00911330059170723 0.9805779457092285 0.5984189510345459 0.5921568870544434 0.5764706134796143 0.529411792755127
0.008620689623057842 0.907784640789032 0.5675889253616333 0.6313725709915161 0.6235294342041016 0.5764706134796143
0.06871920824050903 0.9418916702270508 0.041897233575582504 0.08235294371843338 0.08235294371843338 0.07450980693101883
0.012315270490944386 0.8716248273849487 0.1608695685863495 0.1411764770746231 0.13725490868091583 0.1568627506494522
0.016502462327480316 0.9981051683425903 0.8549407124519348 0.45098039507865906 0.4274509847164154 0.3803921639919281
0.17931035161018372 0.9291015267372131 0.9897233247756958 0.41960784792900085 0.4117647111415863 0.3529411852359772
0.059359606355428696 0.9988946914672852 0.10671936720609665 0.4000000059604645 0.3764705955982208 0.32156863808631897
0.008128078654408455 0.8793620467185974 0.7134387493133545 0.572549045085907 0.572549045085907 0.5254902243614197
0.008128078654408455 0.9499447345733643 0.968774676322937 0.364705890417099 0.3333333432674408 0.29019609093666077
0.19137930870056152 0.9981051683425903 0.5276679992675781 0.6823529601097107 0.686274528503418 0.6235294342041016
0.16724137961864471 0.9930522441864014 0.15454545617103577 0.4313725531101227 0.41960784792900085 0.3843137323856354
0.027093596756458282 0.9141007661819458 0.34703558683395386 0.1921568661928177 0.1882352977991104 0.18039216101169586
0.17266009747982025 0.9747354984283447 0.07193675637245178 0.23529411852359772 0.24313725531101227 0.23137255012989044
0.037931036204099655 0.9845255017280579 0.9893280863761902 0.3450980484485626 0.32156863808631897 0.27450981736183167
0.12167488038539886 0.9979472756385803 0.5478261113166809 0.6509804129600525 0.6549019813537598 0.5921568870544434
0.1071428582072258 0.9976314306259155 0.4905138313770294 0.6784313917160034 0.686274528503418 0.6313725709915161
0.12364532053470612 0.8795199990272522 0.1873517781496048 0.34117648005485535 0.35686275362968445 0.3607843220233917
0.10788177698850632 0.8867835402488708 0.9893280863761902 0.42352941632270813 0.4117647111415863 0.3764705955982208
0.09482758492231369 0.9704721570014954 0.07075098901987076 0.16862745583057404 0.1725490242242813 0.15294118225574493
0.03768472746014595 0.9627348780632019 0.0063241105526685715 0.16078431904315948 0.14901961386203766 0.12941177189350128
0.014039408415555954 0.9884730577468872 0.41897234320640564 0.6705882549285889 0.6745098233222961 0.6039215922355652
0.23694580793380737 0.9229432940483093 0.009486165829002857 0.6352941393852234 0.6274510025978088 0.545098066329956
0.11157635599374771 0.9979472756385803 0.5525691509246826 0.6549019813537598 0.658823549747467 0.5960784554481506
0.20837438106536865 0.9973156452178955 0.396047443151474 0.7843137383460999 0.7882353067398071 0.7333333492279053
0.1189655140042305 0.9349439740180969 0.9897233247756958 0.4470588266849518 0.4313725531101227 0.38823530077934265
0.023891625925898552 0.9984209537506104 0.747035562992096 0.5137255191802979 0.49803921580314636 0.45490196347236633
0.007881773635745049 0.8926259279251099 0.8735178112983704 0.45098039507865906 0.43921568989753723 0.3803921639919281
0.03522167354822159 0.9974735379219055 0.5577074885368347 0.6352941393852234 0.6313725709915161 0.5607843399047852
0.17216749489307404 0.994315505027771 0.20553359389305115 0.0941176488995552 0.0941176488995552 0.0941176488995552
0.20394088327884674 0.9076266884803772 0.3592885434627533 0.16862745583057404 0.16862745583057404 0.16078431904315948
0.1591133028268814 0.9785251617431641 0.31343874335289 0.09803921729326248 0.10588235408067703 0.10196078568696976
0.16453202068805695 0.9938417673110962 0.12094862014055252 0.4901960790157318 0.47843137383461 0.45098039507865906
0.054926108568906784 0.9968419671058655 0.3968379497528076 0.7490196228027344 0.7411764860153198 0.6901960968971252
0.17315271496772766 0.9210484623908997 0.011462450958788395 0.3529411852359772 0.34117648005485535 0.2823529541492462
0.21157635748386383 0.8777830600738525 0.9905138611793518 0.4156862795352936 0.40784314274787903 0.35686275362968445
0.18399015069007874 0.9966840147972107 0.10474308580160141 0.16862745583057404 0.16862745583057404 0.12941177189350128
0.008128078654408455 0.9510500431060791 0.9130434989929199 0.4274509847164154 0.4000000059604645 0.3686274588108063
0.15147782862186432 0.9984209537506104 0.6375494003295898 0.6470588445663452 0.6431372761726379 0.5647059082984924
0.2302955687046051 0.9976314306259155 0.9581027626991272 0.4274509847164154 0.40784314274787903 0.3333333432674408
0.007881773635745049 0.9306805729866028 0.9185770750045776 0.4156862795352936 0.4000000059604645 0.3529411852359772
0.009359605610370636 0.9054160714149475 0.32134386897087097 0.5843137502670288 0.5921568870544434 0.5882353186607361
0.008620689623057842 0.903047502040863 0.5766798257827759 0.615686297416687 0.6196078658103943 0.5647059082984924
0.008374384604394436 0.9197852611541748 0.6249011754989624 0.6000000238418579 0.5960784554481506 0.5254902243614197
0.010837438516318798 0.9960524439811707 0.07154150307178497 0.4156862795352936 0.38823530077934265 0.3176470696926117
0.1352216750383377 0.9381020069122314 0.9897233247756958 0.43921568989753723 0.4313725531101227 0.3803921639919281
0.10147783160209656 0.9171009063720703 0.07233201712369919 0.1764705926179886 0.18431372940540314 0.1725490242242813
0.16748768091201782 0.9322596192359924 0.29802370071411133 0.15294118225574493 0.16078431904315948 0.14901961386203766
0.039901476353406906 0.9984209537506104 0.6893280744552612 0.5686274766921997 0.5568627715110779 0.49803921580314636
0.20344828069210052 0.9925785660743713 0.00830039568245411 0.42352941632270813 0.41960784792900085 0.30980393290519714
0.14975368976593018 0.9259434938430786 0.007509881630539894 0.12156862765550613 0.12156862765550613 0.11372549086809158
0.22093595564365387 0.9981051683425903 0.5699604749679565 0.6745098233222961 0.686274528503418 0.6196078658103943
0.1312807947397232 0.9976314306259155 0.47233203053474426 0.6784313917160034 0.6901960968971252 0.6235294342041016
0.20467980206012726 0.8814148306846619 0.9901185631752014 0.3960784375667572 0.38823530077934265 0.33725491166114807
0.1704433560371399 0.9578399062156677 0.007905138656497002 0.2823529541492462 0.2705882489681244 0.24313725531101227
0.01034482754766941 0.9821569323539734 0.024110671132802963 0.06666667014360428 0.07058823853731155 0.05098039284348488
0.027586206793785095 0.9977893829345703 0.0988142266869545 0.4627451002597809 0.45098039507865906 0.3921568691730499
0.23300492763519287 0.8978367447853088 0.9901185631752014 0.40784314274787903 0.4000000059604645 0.3529411852359772
0.2068965584039688 0.9436286091804504 0.9893280863761902 0.4313725531101227 0.4274509847164154 0.3490196168422699
0.09778325259685516 0.930048942565918 0.30948618054389954 0.1568627506494522 0.1568627506494522 0.16470588743686676
0.18399015069007874 0.9988946914672852 0.7367588877677917 0.6274510025978088 0.6235294342041016 0.5411764979362488
0.008620689623057842 0.9351018667221069 0.025691699236631393 0.08627451211214066 0.07058823853731155 0.06666667014360428
0.08546797931194305 0.9085741639137268 0.312648206949234 0.09019608050584793 0.09803921729326248 0.0941176488995552
0.008374384604394436 0.9646297097206116 0.9537549614906311 0.3803921639919281 0.35686275362968445 0.30980393290519714
0.01034482754766941 0.9876835346221924 0.02134387381374836 0.07058823853731155 0.06666667014360428 0.05882352963089943
0.19334974884986877 0.9398389458656311 0.33083003759384155 0.1725490242242813 0.1725490242242813 0.16470588743686676
0.00911330059170723 0.9764724373817444 0.5837944746017456 0.6000000238418579 0.5921568870544434 0.545098066329956
0.09458128362894058 0.9977893829345703 0.5300395488739014 0.6470588445663452 0.6509804129600525 0.5882353186607361
0.16945812106132507 0.9032054543495178 0.28893280029296875 0.2235294133424759 0.24705882370471954 0.23137255012989044
0.16847290098667145 0.9985788464546204 0.6505928635597229 0.6509804129600525 0.6627451181411743 0.5882353186607361
0.12635467946529388 0.9463129639625549 0.9893280863761902 0.45098039507865906 0.4431372582912445 0.3921568691730499
0.17167487740516663 0.9957365989685059 0.28972330689430237 0.10196078568696976 0.10196078568696976 0.0941176488995552
0.1467980295419693 0.9385756850242615 0.0063241105526685715 0.10196078568696976 0.10196078568696976 0.10980392247438431
0.2261083722114563 0.8962576985359192 0.9901185631752014 0.4156862795352936 0.40392157435417175 0.3686274588108063
0.1704433560371399 0.988631010055542 0.07154150307178497 0.2078431397676468 0.21568627655506134 0.20392157137393951
0.007881773635745049 0.8960998058319092 0.8952569365501404 0.43921568989753723 0.4274509847164154 0.3686274588108063
0.0435960590839386 0.8995736837387085 0.01067193690687418 0.1725490242242813 0.1568627506494522 0.15294118225574493
0.21945813298225403 0.9902099967002869 0.9877470135688782 0.3921568691730499 0.3803921639919281 0.3137255012989044
0.009359605610370636 0.9565766453742981 0.07944664359092712 0.47058823704719543 0.45098039507865906 0.37254902720451355
0.08103448152542114 0.9603663086891174 0.06996047496795654 0.13725490868091583 0.13725490868091583 0.13725490868091583
0.12118226289749146 0.8987841606140137 0.08893280476331711 0.21176470816135406 0.21960784494876862 0.21568627655506134
0.015763547271490097 0.9111005663871765 0.26166006922721863 0.6509804129600525 0.6549019813537598 0.6235294342041016
0.23128078877925873 0.9600505232810974 0.3640316128730774 0.364705890417099 0.364705890417099 0.364705890417099
0.08300492912530899 0.9033633470535278 0.024110671132802963 0.2823529541492462 0.2666666805744171 0.26274511218070984
0.24310344457626343 0.9516816735267639 0.3604743182659149 0.3333333432674408 0.33725491166114807 0.3137255012989044
0.10000000149011612 0.9579977989196777 0.07114624232053757 0.18039216101169586 0.18431372940540314 0.16470588743686676
0.2224137932062149 0.9313122034072876 0.343082994222641 0.18431372940540314 0.18431372940540314 0.1764705926179886
0.009605911560356617 0.8792041540145874 0.32015809416770935 0.729411780834198 0.7372549176216125 0.6941176652908325
0.1701970398426056 0.902731716632843 0.017786560580134392 0.6627451181411743 0.6901960968971252 0.658823549747467
0.15665024518966675 0.994157612323761 0.15770751237869263 0.4627451002597809 0.4627451002597809 0.4156862795352936
0.04137931019067764 0.9981051683425903 0.6474308371543884 0.5921568870544434 0.5882353186607361 0.5098039507865906
0.1746305376291275 0.9981051683425903 0.5328063368797302 0.6784313917160034 0.6823529601097107 0.6196078658103943
0.014039408415555954 0.9796305298805237 0.4003952443599701 0.6980392336845398 0.6941176652908325 0.6235294342041016
0.24064038693904877 0.9985788464546204 0.6442687511444092 0.6509804129600525 0.6549019813537598 0.6000000238418579
0.07610837370157242 0.9982630610466003 0.6241106986999512 0.6352941393852234 0.6313725709915161 0.5529412031173706
0.24532020092010498 0.9969998598098755 0.15335968136787415 0.6196078658103943 0.6235294342041016 0.5686274766921997
0.22733990848064423 0.9968419671058655 0.11225296556949615 0.6196078658103943 0.6274510025978088 0.572549045085907
0.16798029839992523 0.9969998598098755 0.396047443151474 0.6705882549285889 0.6705882549285889 0.6313725709915161
0.09655172377824783 0.9965261220932007 0.15375493466854095 0.0784313753247261 0.0784313753247261 0.0784313753247261
