0.4958128035068512 0.0746881440281868 0.9897233247756958 0.3921568691730499 0.364705890417099 0.3019607961177826
0.5775862336158752 0.00031580610084347427 0.04743082821369171 0.5803921818733215 0.4470588266849518 0.25882354378700256
0.3972906470298767 0.0004737091367132962 0.7901185750961304 0.49803921580314636 0.40784314274787903 0.2862745225429535
0.5081281065940857 0.11953260749578476 0.005928853526711464 0.5764706134796143 0.6039215922355652 0.5333333611488342
0.4236453175544739 0.001263224403373897 0.20909090340137482 0.6941176652908325 0.529411792755127 0.29411765933036804
0.5805418491363525 0.07989893853664398 0.9893280863761902 0.3764705955982208 0.3529411852359772 0.30588236451148987
0.5522167682647705 0.0 0.7438735365867615 0.545098066329956 0.4470588266849518 0.32549020648002625
0.5701970458030701 0.007737249135971069 0.00830039568245411 0.6627451181411743 0.6509804129600525 0.6235294342041016
0.4157635569572449 0.0007895152666606009 0.3794466257095337 0.7058823704719543 0.5529412031173706 0.3843137323856354
0.4763546884059906 0.07863571494817734 0.005533596966415644 0.729411780834198 0.7254902124404907 0.6549019813537598
0.5108374357223511 0.0006316122016869485 0.3494071066379547 0.6941176652908325 0.5333333611488342 0.27450981736183167
0.5160098671913147 0.0 0.8031620383262634 0.4431372582912445 0.33725491166114807 0.21960784494876862
0.5431034564971924 0.0006316122016869485 0.06086956337094307 0.6470588445663452 0.4901960790157318 0.2862745225429535
0.4236453175544739 0.1468498408794403 0.9897233247756958 0.3490196168422699 0.34117648005485535 0.29411765933036804
0.39827585220336914 0.0014211274683475494 0.09169960767030716 0.45098039507865906 0.3176470696926117 0.1411764770746231
0.5320196747779846 0.0004737091367132962 0.4841897189617157 0.7254902124404907 0.5764706134796143 0.3843137323856354
0.4689655303955078 0.00031580610084347427 0.6470355987548828 0.6823529601097107 0.5803921818733215 0.4745098054409027
0.5832512378692627 0.1436917781829834 0.0063241105526685715 0.7490196228027344 0.7254902124404907 0.6627451181411743
0.5024630427360535 0.0 0.9217391014099121 0.16862745583057404 0.13333334028720856 0.10588235408067703
0.5347290635108948 0.11747986823320389 0.9897233247756958 0.37254902720451355 0.35686275362968445 0.3137255012989044
0.5293103456497192 0.00015790305042173713 0.677470326423645 0.5137255191802979 0.4274509847164154 0.3333333432674408
0.38349753618240356 0.0006316122016869485 0.7181817889213562 0.6431372761726379 0.5803921818733215 0.4470588266849518
0.4214285612106323 0.0009474182734265924 0.2699604630470276 0.7058823704719543 0.5686274766921997 0.3490196168422699
0.4366995096206665 0.0007895152666606009 0.3786561191082001 0.6941176652908325 0.5647059082984924 0.364705890417099
0.5428571701049805 0.0007895152666606009 0.1620553433895111 0.7176470756530762 0.545098066329956 0.2980392277240753
0.3758620619773865 0.0006316122016869485 0.7288537621498108 0.615686297416687 0.5254902243614197 0.4000000059604645
0.37857142090797424 0.08132006973028183 0.007905138656497002 0.6352941393852234 0.6392157077789307 0.5764706134796143
0.4684728980064392 0.1092689111828804 0.005533596966415644 0.6313725709915161 0.6431372761726379 0.5607843399047852
0.5950738787651062 0.0004737091367132962 0.4098814129829407 0.7254902124404907 0.5803921818733215 0.40392157435417175
0.4490147829055786 0.08653087168931961 0.9893280863761902 0.3921568691730499 0.3607843220233917 0.30980393290519714
0.38300493359565735 0.02905416116118431 0.1411067247390747 0.8588235378265381 0.7607843279838562 0.5098039507865906
0.601477861404419 0.00015790305042173713 0.6577075123786926 0.6901960968971252 0.6117647290229797 0.48235294222831726
0.6071428656578064 0.018474657088518143 0.9893280863761902 0.3333333432674408 0.3176470696926117 0.27450981736183167
0.4416256248950958 0.0011053213384002447 0.2130434811115265 0.7098039388656616 0.5568627715110779 0.2862745225429535
0.5280787944793701 0.04421285167336464 0.9897233247756958 0.3921568691730499 0.3686274588108063 0.32156863808631897
0.4433497488498688 0.14211274683475494 0.9897233247756958 0.27843138575553894 0.26274511218070984 0.21960784494876862
0.5270935893058777 0.15742933750152588 0.0063241105526685715 0.7098039388656616 0.7411764860153198 0.658823549747467
0.5465517044067383 0.00015790305042173713 0.6656126379966736 0.6705882549285889 0.5843137502670288 0.42352941632270813
0.5588669776916504 0.0 0.8612648248672485 0.43529412150382996 0.34117648005485535 0.20000000298023224
0.5438423752784729 0.0006316122016869485 0.07035572826862335 0.6196078658103943 0.48235294222831726 0.2549019753932953
0.5852216482162476 0.0006316122016869485 0.3494071066379547 0.658823549747467 0.5254902243614197 0.2862745225429535
0.6064039468765259 0.15585030615329742 0.005928853526711464 0.4901960790157318 0.5058823823928833 0.45098039507865906
0.4083743989467621 0.06489815562963486 0.00830039568245411 0.6274510025978088 0.6274510025978088 0.5803921818733215
0.3975369334220886 0.0039475760422647 0.008695651777088642 0.22745098173618317 0.25882354378700256 0.2705882489681244
0.5056650042533875 0.0006316122016869485 0.23083004355430603 0.7490196228027344 0.5960784554481506 0.3333333432674408
0.4362069070339203 0.00031580610084347427 0.7130434513092041 0.6235294342041016 0.5411764979362488 0.4274509847164154
0.4357142746448517 0.0011053213384002447 0.23241107165813446 0.7137255072593689 0.5490196347236633 0.32156863808631897
0.6051723957061768 0.00015790305042173713 0.717391312122345 0.6274510025978088 0.5686274766921997 0.43921568989753723
0.6044334769248962 0.1465340256690979 0.005928853526711464 0.6509804129600525 0.658823549747467 0.615686297416687
0.6039409041404724 0.0006316122016869485 0.3075098693370819 0.6941176652908325 0.5568627715110779 0.3294117748737335
0.4091132879257202 0.0014211274683475494 0.12450592964887619 0.6901960968971252 0.49803921580314636 0.19607843458652496
0.5600985288619995 0.05321332812309265 0.005533596966415644 0.5372549295425415 0.5490196347236633 0.46666666865348816
0.5889162421226501 0.00015790305042173713 0.016996046528220177 0.501960813999176 0.4745098054409027 0.4431372582912445
0.4364531934261322 0.1176377683877945 0.9897233247756958 0.3921568691730499 0.3686274588108063 0.32156863808631897
0.5214285850524902 0.00015790305042173713 0.6778656244277954 0.5098039507865906 0.4274509847164154 0.32156863808631897
0.49014776945114136 0.0 0.8810276389122009 0.34117648005485535 0.2823529541492462 0.1921568661928177
0.5598522424697876 0.0006316122016869485 0.24347825348377228 0.6980392336845398 0.5490196347236633 0.3019607961177826
0.4795566499233246 0.00031580610084347427 0.6541501879692078 0.6509804129600525 0.5411764979362488 0.4588235318660736
0.5568965673446655 0.0 0.8573122620582581 0.43529412150382996 0.34117648005485535 0.20000000298023224
0.5837438702583313 0.0004737091367132962 0.16521738469600677 0.6901960968971252 0.529411792755127 0.2705882489681244
0.5290640592575073 0.0 0.7885375618934631 0.48235294222831726 0.3686274588108063 0.23529411852359772
0.379802942276001 0.0015790305333212018 0.16482213139533997 0.7254902124404907 0.5764706134796143 0.3294117748737335
0.5881773233413696 0.11684825271368027 0.0063241105526685715 0.6392157077789307 0.6509804129600525 0.5843137502670288
0.5916256308555603 0.10216327011585236 0.005928853526711464 0.615686297416687 0.6039215922355652 0.545098066329956
0.37142857909202576 0.0006316122016869485 0.7288537621498108 0.6117647290229797 0.5215686559677124 0.4000000059604645
0.6088669896125793 0.0 0.9517786502838135 0.239215686917305 0.1725490242242813 0.13333334028720856
0.49384236335754395 0.09805779159069061 0.005138339940458536 0.5803921818733215 0.5921568870544434 0.5176470875740051
0.403940886259079 0.001263224403373897 0.1972332000732422 0.686274528503418 0.5686274766921997 0.35686275362968445
0.5130541920661926 0.00015790305042173713 0.7537549138069153 0.5176470875740051 0.4000000059604645 0.25882354378700256
0.41822659969329834 0.00031580610084347427 0.7798418998718262 0.5607843399047852 0.47058823704719543 0.3450980484485626
0.5369458198547363 0.0 0.7434782385826111 0.5215686559677124 0.4156862795352936 0.3019607961177826
0.43793103098869324 0.0007895152666606009 0.30039525032043457 0.7215686440467834 0.5686274766921997 0.3529411852359772
0.45369458198547363 0.00031580610084347427 0.7498023509979248 0.572549045085907 0.4627451002597809 0.3176470696926117
0.3884236514568329 0.10390020161867142 0.9897233247756958 0.3607843220233917 0.3450980484485626 0.3019607961177826
0.40615764260292053 0.0661613792181015 0.9893280863761902 0.4000000059604645 0.3686274588108063 0.32549020648002625
0.4322659969329834 0.08210958540439606 0.9893280863761902 0.3960784375667572 0.364705890417099 0.3137255012989044
0.39532020688056946 0.05321332812309265 0.1201581060886383 0.8274509906768799 0.7372549176216125 0.5647059082984924
0.4918719232082367 0.07784619927406311 0.005533596966415644 0.615686297416687 0.6313725709915161 0.5647059082984924
0.413300484418869 0.13832306861877441 0.005533596966415644 0.7098039388656616 0.7215686440467834 0.6470588445663452
0.5238916277885437 0.0 0.8470355868339539 0.4470588266849518 0.3529411852359772 0.21176470816135406
0.5044335126876831 0.029685772955417633 0.005928853526711464 0.6549019813537598 0.6509804129600525 0.5686274766921997
0.4886699616909027 0.0 0.8367589116096497 0.3607843220233917 0.30980393290519714 0.24313725531101227
0.39433497190475464 0.013737564906477928 0.12766797840595245 0.5058823823928833 0.3490196168422699 0.14901961386203766
0.5837438702583313 0.00015790305042173713 0.6430829763412476 0.6823529601097107 0.6196078658103943 0.529411792755127
0.39827585220336914 0.14321807026863098 0.9901185631752014 0.35686275362968445 0.3294117748737335 0.29019609093666077
0.41551724076271057 0.001263224403373897 0.12450592964887619 0.6196078658103943 0.4470588266849518 0.15294118225574493
0.5440886616706848 0.0004737091367132962 0.43003952503204346 0.7490196228027344 0.5843137502670288 0.38823530077934265
0.576600968837738 0.0 0.947035551071167 0.3686274588108063 0.2823529541492462 0.1921568661928177
0.5310344696044922 0.0006316122016869485 0.3529644310474396 0.6784313917160034 0.5372549295425415 0.3019607961177826
0.5913792848587036 0.0006316122016869485 0.19960474967956543 0.6941176652908325 0.5529412031173706 0.3176470696926117
0.6088669896125793 0.0748460441827774 0.9893280863761902 0.35686275362968445 0.3333333432674408 0.27843138575553894
0.5460591316223145 0.13169114291667938 0.9901185631752014 0.3764705955982208 0.3607843220233917 0.3176470696926117
0.45418718457221985 0.1468498408794403 0.9893280863761902 0.3450980484485626 0.33725491166114807 0.29019609093666077
0.5778325200080872 0.0 0.9537549614906311 0.35686275362968445 0.2705882489681244 0.1882352977991104
0.41133004426956177 0.00031580610084347427 0.948616623878479 0.27450981736183167 0.20000000298023224 0.1411764770746231
0.5012315511703491 0.09253118932247162 0.9897233247756958 0.3921568691730499 0.3686274588108063 0.3137255012989044
0.37906405329704285 0.06742460280656815 0.0936758890748024 0.21960784494876862 0.20392157137393951 0.16078431904315948
0.4490147829055786 0.15079741179943085 0.9893280863761902 0.34117648005485535 0.32549020648002625 0.2823529541492462
0.5706896781921387 0.0006316122016869485 0.17509882152080536 0.6784313917160034 0.5254902243614197 0.26274511218070984
0.601477861404419 0.0 0.8474308252334595 0.46666666865348816 0.37254902720451355 0.239215686917305
0.6130542159080505 0.0 0.011067193932831287 0.5529412031173706 0.545098066329956 0.48627451062202454
0.4926108419895172 0.0 0.9031620621681213 0.2666666805744171 0.21176470816135406 0.1764705926179886
0.46945813298225403 0.0006316122016869485 0.33517786860466003 0.7019608020782471 0.545098066329956 0.3137255012989044
0.471182256937027 0.0004737091367132962 0.4375494122505188 0.6980392336845398 0.5411764979362488 0.33725491166114807
0.5820196866989136 0.07389862835407257 0.005138339940458536 0.6235294342041016 0.6313725709915161 0.5764706134796143
0.40738916397094727 0.08132006973028183 0.007905138656497002 0.5490196347236633 0.5568627715110779 0.5137255191802979
0.5440886616706848 0.00015790305042173713 0.6822134256362915 0.5568627715110779 0.48627451062202454 0.4000000059604645
0.5024630427360535 0.0007895152666606009 0.046640317887067795 0.4431372582912445 0.3529411852359772 0.23137255012989044
0.39482757449150085 0.013895467855036259 0.14782609045505524 0.6392157077789307 0.5803921818733215 0.45098039507865906
0.5825123190879822 0.0004737091367132962 0.13083003461360931 0.6941176652908325 0.5411764979362488 0.2862745225429535
0.5428571701049805 0.07074056565761566 0.005138339940458536 0.7647058963775635 0.7529411911964417 0.6941176652908325
0.56083744764328 0.09884730726480484 0.005533596966415644 0.6000000238418579 0.6000000238418579 0.5529412031173706
0.41477832198143005 0.0004737091367132962 0.687747061252594 0.6705882549285889 0.6274510025978088 0.501960813999176
0.45467981696128845 0.09126795828342438 0.005533596966415644 0.5960784554481506 0.5921568870544434 0.5215686559677124
0.38669949769973755 0.0006316122016869485 0.6280632615089417 0.6470588445663452 0.545098066329956 0.40784314274787903
0.5896551609039307 0.0004737091367132962 0.5241106748580933 0.7176470756530762 0.5921568870544434 0.3686274588108063
0.3894088566303253 0.0006316122016869485 0.7098814249038696 0.6549019813537598 0.5921568870544434 0.4627451002597809
0.5633004903793335 0.00015790305042173713 0.6944664120674133 0.6901960968971252 0.6313725709915161 0.5176470875740051
0.4834975302219391 0.11953260749578476 0.005928853526711464 0.7176470756530762 0.7215686440467834 0.6509804129600525
0.41428571939468384 0.00031580610084347427 0.8213438987731934 0.4745098054409027 0.3803921639919281 0.24705882370471954
0.4433497488498688 0.023053845390677452 0.00830039568245411 0.21568627655506134 0.23529411852359772 0.250980406999588
0.5381773114204407 0.10847939550876617 0.9897233247756958 0.3686274588108063 0.3529411852359772 0.30588236451148987
0.4596059024333954 0.028580451384186745 0.0071146246045827866 0.2078431397676468 0.22745098173618317 0.239215686917305
0.49039408564567566 0.0007895152666606009 0.208695650100708 0.6901960968971252 0.5411764979362488 0.2980392277240753
0.3729064166545868 0.0004737091367132962 0.8071146011352539 0.49803921580314636 0.4000000059604645 0.2823529541492462
0.5066502690315247 0.0 0.7940711379051208 0.48235294222831726 0.37254902720451355 0.22745098173618317
0.5268473029136658 0.14511290192604065 0.9897233247756958 0.37254902720451355 0.35686275362968445 0.3137255012989044
0.43374383449554443 0.0011053213384002447 0.15256917476654053 0.6549019813537598 0.48627451062202454 0.1764705926179886
0.49482759833335876 0.0007895152666606009 0.041897233575582504 0.5490196347236633 0.4313725531101227 0.2980392277240753
0.5864531993865967 0.0 0.7731225490570068 0.5215686559677124 0.43921568989753723 0.32549020648002625
0.5940886735916138 0.00015790305042173713 0.021739130839705467 0.6392157077789307 0.6274510025978088 0.5921568870544434
0.4125615656375885 0.05495025962591171 0.008695651777088642 0.49803921580314636 0.5098039507865906 0.48235294222831726
0.5113300681114197 0.15063950419425964 0.0063241105526685715 0.6352941393852234 0.6431372761726379 0.5882353186607361
0.38251230120658875 0.0004737091367132962 0.7632411122322083 0.5490196347236633 0.46666666865348816 0.3529411852359772
0.42290639877319336 0.09663666784763336 0.0063241105526685715 0.5490196347236633 0.5529412031173706 0.48235294222831726
0.4716748893260956 0.09568924456834793 0.9893280863761902 0.38823530077934265 0.35686275362968445 0.30588236451148987
0.4160098433494568 0.058739934116601944 0.00830039568245411 0.6627451181411743 0.6549019813537598 0.6039215922355652
0.4913793206214905 0.07074056565761566 0.9897233247756958 0.3960784375667572 0.3686274588108063 0.30588236451148987
0.5162561535835266 0.00015790305042173713 0.6541501879692078 0.6745098233222961 0.545098066329956 0.4156862795352936
0.40197044610977173 0.11305858194828033 0.9897233247756958 0.3176470696926117 0.29411765933036804 0.24705882370471954
0.568965494632721 0.10263697803020477 0.9897233247756958 0.3764705955982208 0.34117648005485535 0.30588236451148987
0.5773398876190186 0.00031580610084347427 0.539130449295044 0.7098039388656616 0.5921568870544434 0.35686275362968445
0.4320197105407715 0.0006316122016869485 0.44980236887931824 0.729411780834198 0.5882353186607361 0.4000000059604645
0.6032019853591919 0.0776882991194725 0.9893280863761902 0.35686275362968445 0.3333333432674408 0.2862745225429535
0.6137930750846863 0.00015790305042173713 0.6415019631385803 0.6705882549285889 0.5686274766921997 0.42352941632270813
0.445320188999176 0.0948997288942337 0.005533596966415644 0.5333333611488342 0.545098066329956 0.4627451002597809
0.3967980444431305 0.013263856060802937 0.008695651777088642 0.239215686917305 0.2666666805744171 0.239215686917305
0.5497536659240723 0.059055738151073456 0.005138339940458536 0.658823549747467 0.6705882549285889 0.6039215922355652
0.5226600766181946 0.14463919401168823 0.0063241105526685715 0.5764706134796143 0.6039215922355652 0.5333333611488342
0.5214285850524902 0.0 0.7885375618934631 0.5176470875740051 0.40784314274787903 0.26274511218070984
0.6056650280952454 0.05037107318639755 0.005928853526711464 0.6313725709915161 0.6313725709915161 0.5921568870544434
0.5396551489830017 0.10768987983465195 0.005928853526711464 0.6274510025978088 0.6313725709915161 0.5686274766921997
0.6034482717514038 0.07547765970230103 0.005533596966415644 0.6549019813537598 0.658823549747467 0.5960784554481506
0.4669950604438782 0.0006316122016869485 0.4335968494415283 0.6980392336845398 0.5529412031173706 0.3490196168422699
0.45467981696128845 0.06805621087551117 0.005928853526711464 0.615686297416687 0.6196078658103943 0.5647059082984924
0.37906405329704285 0.0006316122016869485 0.6996047496795654 0.6313725709915161 0.5568627715110779 0.4313725531101227
0.43128079175949097 0.04531817510724068 0.007905138656497002 0.5333333611488342 0.5254902243614197 0.4745098054409027
0.39039409160614014 0.0006316122016869485 0.6822134256362915 0.615686297416687 0.5372549295425415 0.4431372582912445
0.3896551728248596 0.0004737091367132962 0.8272727131843567 0.46666666865348816 0.3764705955982208 0.250980406999588
0.5206896662712097 0.10784777998924255 0.005533596966415644 0.6352941393852234 0.6509804129600525 0.5960784554481506
0.5492610931396484 0.00031580610084347427 0.612252950668335 0.7019608020782471 0.6039215922355652 0.48235294222831726
0.5300492644309998 0.0 0.9229248762130737 0.3294117748737335 0.26274511218070984 0.18431372940540314
0.38596057891845703 0.0011053213384002447 0.2806324064731598 0.6941176652908325 0.5529412031173706 0.3176470696926117
0.3884236514568329 0.0014211274683475494 0.16363635659217834 0.7215686440467834 0.5686274766921997 0.33725491166114807
0.48275861144065857 0.04973946139216423 0.9897233247756958 0.3686274588108063 0.33725491166114807 0.29411765933036804
0.39605912566185 0.0007895152666606009 0.39841896295547485 0.7176470756530762 0.5686274766921997 0.3843137323856354
0.4408867061138153 0.00015790305042173713 0.8494071364402771 0.4313725531101227 0.34117648005485535 0.2078431397676468
0.5810344815254211 0.11337438970804214 0.0063241105526685715 0.6274510025978088 0.6352941393852234 0.5803921818733215
0.6128078699111938 0.041844308376312256 0.0063241105526685715 0.5647059082984924 0.5568627715110779 0.49803921580314636
0.39605912566185 0.04705510661005974 0.12134387344121933 0.43529412150382996 0.3450980484485626 0.21960784494876862
0.41921183466911316 0.0007895152666606009 0.37114623188972473 0.686274528503418 0.5843137502670288 0.3843137323856354
0.37438422441482544 0.0004737091367132962 0.8458498120307922 0.40392157435417175 0.3137255012989044 0.18039216101169586
0.5940886735916138 0.00015790305042173713 0.032015811651945114 0.4627451002597809 0.37254902720451355 0.250980406999588
0.5837438702583313 0.044370755553245544 0.0063241105526685715 0.5764706134796143 0.5764706134796143 0.5372549295425415
0.4837438464164734 0.00015790305042173713 0.8086956739425659 0.4313725531101227 0.3529411852359772 0.2235294133424759
0.5660098791122437 0.00031580610084347427 0.60513836145401 0.6941176652908325 0.5960784554481506 0.4745098054409027
0.37487685680389404 0.08953102678060532 0.9893280863761902 0.3607843220233917 0.3450980484485626 0.3019607961177826
0.373399019241333 0.06979314982891083 0.11225296556949615 0.8980392217636108 0.8235294222831726 0.6666666865348816
0.43793103098869324 0.07879362255334854 0.9893280863761902 0.3960784375667572 0.364705890417099 0.3137255012989044
0.37536945939064026 0.13879677653312683 0.9901185631752014 0.32549020648002625 0.3137255012989044 0.27843138575553894
0.4926108419895172 0.0 0.8189723491668701 0.3176470696926117 0.250980406999588 0.21176470816135406
0.5399014949798584 0.0007895152666606009 0.20711462199687958 0.7176470756530762 0.5764706134796143 0.34117648005485535
0.5738916397094727 0.006947733927518129 0.008695651777088642 0.6509804129600525 0.6392157077789307 0.6196078658103943
0.5261083841323853 0.00015790305042173713 0.739130437374115 0.5529412031173706 0.4431372582912445 0.2980392277240753
0.41822659969329834 0.0004737091367132962 0.7221344113349915 0.6078431606292725 0.5490196347236633 0.43529412150382996
0.5697044134140015 0.0 0.8525691628456116 0.4588235318660736 0.364705890417099 0.23137255012989044
0.5307881832122803 0.07010895013809204 0.005138339940458536 0.7058823704719543 0.7019608020782471 0.6313725709915161
0.42660099267959595 0.001263224403373897 0.1877470314502716 0.686274528503418 0.529411792755127 0.25882354378700256
0.5389162302017212 0.00031580610084347427 0.5782608985900879 0.7098039388656616 0.5882353186607361 0.4156862795352936
0.5463054180145264 0.1492183804512024 0.9901185631752014 0.3686274588108063 0.3529411852359772 0.30980393290519714
0.5022167563438416 0.053844939917325974 0.005533596966415644 0.5686274766921997 0.572549045085907 0.5098039507865906
0.5386699438095093 0.013579661957919598 0.9897233247756958 0.3764705955982208 0.3607843220233917 0.3176470696926117
0.5982758402824402 0.00031580610084347427 0.5399209260940552 0.7098039388656616 0.5803921818733215 0.37254902720451355
0.610837459564209 0.0004737091367132962 0.47193676233291626 0.6901960968971252 0.5607843399047852 0.3607843220233917
0.5320196747779846 0.0 0.8090909123420715 0.40392157435417175 0.3176470696926117 0.1725490242242813
0.6071428656578064 0.06410863995552063 0.005138339940458536 0.6235294342041016 0.6313725709915161 0.5764706134796143
0.6086207032203674 0.00015790305042173713 0.05059288442134857 0.6431372761726379 0.5254902243614197 0.32156863808631897
0.5391625761985779 0.00015790305042173713 0.6814229488372803 0.572549045085907 0.4941176474094391 0.38823530077934265
0.39113301038742065 0.13942839205265045 0.9901185631752014 0.3607843220233917 0.3450980484485626 0.2980392277240753
0.5275862216949463 0.05037107318639755 0.005533596966415644 0.5568627715110779 0.5647059082984924 0.5137255191802979
0.4908866882324219 0.0007895152666606009 0.11778656393289566 0.6705882549285889 0.5137255191802979 0.32156863808631897
0.41083744168281555 0.13721774518489838 0.9901185631752014 0.3686274588108063 0.3450980484485626 0.2980392277240753
0.6152709126472473 0.024317068979144096 0.007905138656497002 0.6196078658103943 0.6117647290229797 0.5607843399047852
0.4004926085472107 0.0006316122016869485 0.6003952622413635 0.6352941393852234 0.5254902243614197 0.3803921639919281
0.5347290635108948 0.05637138709425926 0.005138339940458536 0.6470588445663452 0.6470588445663452 0.6000000238418579
0.39458128809928894 0.04389704763889313 0.07549407333135605 0.6117647290229797 0.4588235318660736 0.1568627506494522
0.37906405329704285 0.12411179393529892 0.005928853526711464 0.5490196347236633 0.5490196347236633 0.5098039507865906
0.47783252596855164 0.13579662144184113 0.9893280863761902 0.3921568691730499 0.364705890417099 0.32549020648002625
0.601477861404419 0.04847623407840729 0.005928853526711464 0.5647059082984924 0.545098066329956 0.5215686559677124
0.5992611050605774 0.00015790305042173713 0.08260869234800339 0.6705882549285889 0.529411792755127 0.29411765933036804
0.4253694713115692 0.020211590453982353 0.008695651777088642 0.21960784494876862 0.250980406999588 0.25882354378700256
0.4251231551170349 0.08195168524980545 0.9893280863761902 0.40392157435417175 0.37254902720451355 0.32156863808631897
0.5066502690315247 0.06521395593881607 0.005533596966415644 0.6549019813537598 0.6666666865348816 0.5843137502670288
0.49802955985069275 0.028580451384186745 0.005928853526711464 0.5882353186607361 0.5843137502670288 0.5137255191802979
0.5862069129943848 0.019895784556865692 0.007905138656497002 0.5333333611488342 0.5137255191802979 0.4901960790157318
0.4928571283817291 0.00015790305042173713 0.6498023867607117 0.4588235318660736 0.35686275362968445 0.250980406999588
0.3847290575504303 0.00031580610084347427 0.9494071006774902 0.2823529541492462 0.20000000298023224 0.11764705926179886
0.5189655423164368 0.00015790305042173713 0.678260862827301 0.4941176474094391 0.4274509847164154 0.3176470696926117
0.3958128094673157 0.05605558305978775 0.09446640312671661 0.6823529601097107 0.4588235318660736 0.19607843458652496
0.5389162302017212 0.0006316122016869485 0.1197628453373909 0.6823529601097107 0.5215686559677124 0.27843138575553894
0.5354679822921753 0.00015790305042173713 0.7197628617286682 0.5647059082984924 0.4627451002597809 0.32549020648002625
0.48300492763519287 0.0 0.9177865386009216 0.2823529541492462 0.22745098173618317 0.1921568661928177
0.5453202128410339 0.0004737091367132962 0.447826087474823 0.7372549176216125 0.5921568870544434 0.38823530077934265
0.6032019853591919 0.04626559466123581 0.9893280863761902 0.35686275362968445 0.32549020648002625 0.2823529541492462
0.5472906231880188 0.15616612136363983 0.006719367578625679 0.5764706134796143 0.5921568870544434 0.5333333611488342
0.47487685084342957 0.07216168940067291 0.9897233247756958 0.4000000059604645 0.364705890417099 0.30588236451148987
0.46305418014526367 0.0006316122016869485 0.34189721941947937 0.6745098233222961 0.5333333611488342 0.30588236451148987
0.5726600885391235 0.04421285167336464 0.9893280863761902 0.37254902720451355 0.3490196168422699 0.29411765933036804
0.5275862216949463 0.04073898494243622 0.9897233247756958 0.40392157435417175 0.3803921639919281 0.3333333432674408
0.5477832555770874 0.0 0.903557300567627 0.3960784375667572 0.3137255012989044 0.20000000298023224
0.3694581389427185 0.0004737091367132962 0.8600790500640869 0.40784314274787903 0.3137255012989044 0.16470588743686676
0.5083743929862976 0.0 0.9379446506500244 0.27450981736183167 0.21960784494876862 0.1764705926179886
0.5684729218482971 0.00031580610084347427 0.5687747001647949 0.6980392336845398 0.5882353186607361 0.4000000059604645
0.4766009747982025 0.0007895152666606009 0.1711462438106537 0.6901960968971252 0.5333333611488342 0.26274511218070984
0.520443320274353 0.0006316122016869485 0.23517785966396332 0.7529411911964417 0.6039215922355652 0.3607843220233917
0.39605912566185 0.04389704763889313 0.025296442210674286 0.6313725709915161 0.45490196347236633 0.1882352977991104
0.4950738847255707 0.00015790305042173713 0.7237154245376587 0.4588235318660736 0.364705890417099 0.23137255012989044
0.4012315273284912 0.0007895152666606009 0.3944664001464844 0.7372549176216125 0.6039215922355652 0.42352941632270813
0.3997536897659302 0.0014211274683475494 0.059683796018362045 0.4431372582912445 0.3176470696926117 0.16470588743686676
0.4763546884059906 0.00015790305042173713 0.7944663763046265 0.49803921580314636 0.3960784375667572 0.250980406999588
0.4399014711380005 0.07879362255334854 0.9893280863761902 0.4000000059604645 0.3686274588108063 0.3176470696926117
0.4088670015335083 0.0014211274683475494 0.15928854048252106 0.6784313917160034 0.5098039507865906 0.20000000298023224
0.49827587604522705 0.04973946139216423 0.9897233247756958 0.3607843220233917 0.3333333432674408 0.2705882489681244
0.4564039409160614 0.0006316122016869485 0.4486165940761566 0.7215686440467834 0.572549045085907 0.38823530077934265
0.44605910778045654 0.00015790305042173713 0.918181836605072 0.3176470696926117 0.24705882370471954 0.16078431904315948
0.5938423871994019 0.00031580610084347427 0.6181818246841431 0.6941176652908325 0.6039215922355652 0.47058823704719543
0.4167487621307373 0.0011053213384002447 0.2549407184123993 0.7254902124404907 0.572549045085907 0.35686275362968445
0.5783251523971558 0.00031580610084347427 0.5537549257278442 0.6980392336845398 0.5803921818733215 0.3843137323856354
0.559359610080719 0.04910784959793091 0.005928853526711464 0.6274510025978088 0.6313725709915161 0.5607843399047852
0.5834975242614746 0.00015790305042173713 0.6695652008056641 0.6509804129600525 0.5882353186607361 0.4588235318660736
0.5938423871994019 0.045949786901474 0.0063241105526685715 0.6823529601097107 0.6745098233222961 0.6235294342041016
0.5283251404762268 0.00031580610084347427 0.613043487071991 0.6823529601097107 0.5882353186607361 0.47843137383461
0.5901477932929993 0.14037580788135529 0.9905138611793518 0.3490196168422699 0.33725491166114807 0.3176470696926117
0.4928571283817291 0.0007895152666606009 0.0415019765496254 0.5882353186607361 0.4470588266849518 0.3137255012989044
0.3921182155609131 0.018000947311520576 0.04624506086111069 0.5803921818733215 0.37254902720451355 0.16862745583057404
0.615517258644104 0.0004737091367132962 0.20671936869621277 0.6901960968971252 0.5411764979362488 0.29411765933036804
0.43029555678367615 0.0006316122016869485 0.4798418879508972 0.7215686440467834 0.5803921818733215 0.3921568691730499
0.5834975242614746 0.06837201863527298 0.9893280863761902 0.3960784375667572 0.37254902720451355 0.3176470696926117
0.5509852170944214 0.09884730726480484 0.005533596966415644 0.5803921818733215 0.5882353186607361 0.5372549295425415
0.48620688915252686 0.08384651690721512 0.005533596966415644 0.6392157077789307 0.6549019813537598 0.5647059082984924
0.48965516686439514 0.00015790305042173713 0.7735177874565125 0.47843137383461 0.3529411852359772 0.20392157137393951
0.4408867061138153 0.0011053213384002447 0.18418972194194794 0.7176470756530762 0.5490196347236633 0.27843138575553894
0.5268473029136658 0.02558029443025589 0.0063241105526685715 0.5607843399047852 0.5372549295425415 0.45098039507865906
0.4524630606174469 0.08763618767261505 0.005533596966415644 0.6000000238418579 0.6039215922355652 0.5490196347236633
0.4206896424293518 0.06979314982891083 0.9893280863761902 0.40392157435417175 0.364705890417099 0.3176470696926117
0.5403940677642822 0.024317068979144096 0.006719367578625679 0.4901960790157318 0.48235294222831726 0.43529412150382996
0.5344827771186829 0.00015790305042173713 0.6545454263687134 0.6627451181411743 0.5607843399047852 0.4313725531101227
0.4394088685512543 0.0011053213384002447 0.1620553433895111 0.6627451181411743 0.5098039507865906 0.21568627655506134
0.4157635569572449 0.0007895152666606009 0.3794466257095337 0.7058823704719543 0.5529412031173706 0.3843137323856354
0.413300484418869 0.0004737091367132962 0.7683794498443604 0.5411764979362488 0.4588235318660736 0.33725491166114807
0.3972906470298767 0.058739934116601944 0.05849802494049072 0.6980392336845398 0.4901960790157318 0.1921568661928177
0.5820196866989136 0.0006316122016869485 0.30553358793258667 0.7058823704719543 0.5803921818733215 0.34117648005485535
0.4894088804721832 0.14021790027618408 0.0063241105526685715 0.6000000238418579 0.6117647290229797 0.529411792755127
0.55147784948349 0.0006316122016869485 0.2806324064731598 0.7333333492279053 0.5764706134796143 0.33725491166114807
0.3975369334220886 0.06379283219575882 0.07430829852819443 0.7137255072593689 0.5058823823928833 0.23137255012989044
0.5509852170944214 0.0004737091367132962 0.0830039530992508 0.6392157077789307 0.5137255191802979 0.29019609093666077
0.428078830242157 0.0007895152666606009 0.35731226205825806 0.7019608020782471 0.5568627715110779 0.34117648005485535
0.45886698365211487 0.07153008133172989 0.9897233247756958 0.3843137323856354 0.3490196168422699 0.2823529541492462
0.4278325140476227 0.09632086008787155 0.9893280863761902 0.3921568691730499 0.3686274588108063 0.32156863808631897
0.548275887966156 0.10832148790359497 0.9897233247756958 0.3803921639919281 0.364705890417099 0.32156863808631897
0.5098522305488586 0.03221222013235092 0.9897233247756958 0.3843137323856354 0.3607843220233917 0.2980392277240753
0.5408867001533508 0.0006316122016869485 0.09960474073886871 0.6549019813537598 0.48235294222831726 0.23529411852359772
0.5448275804519653 0.00015790305042173713 0.6905138492584229 0.6078431606292725 0.5254902243614197 0.41960784792900085
0.4088670015335083 0.10216327011585236 0.9897233247756958 0.3764705955982208 0.3529411852359772 0.30588236451148987
0.5812807679176331 0.00015790305042173713 0.6976284384727478 0.6823529601097107 0.6392157077789307 0.5607843399047852
0.40295565128326416 0.0007895152666606009 0.47667983174324036 0.6941176652908325 0.5686274766921997 0.3686274588108063
0.5 0.08747828751802444 0.9897233247756958 0.3960784375667572 0.364705890417099 0.3137255012989044
0.6068965792655945 0.14006000757217407 0.9905138611793518 0.29019609093666077 0.27843138575553894 0.25882354378700256
0.4911330044269562 0.10895310342311859 0.005533596966415644 0.6000000238418579 0.615686297416687 0.5568627715110779
0.38768473267555237 0.06347702443599701 0.04743082821369171 0.529411792755127 0.3803921639919281 0.19607843458652496
0.5847290754318237 0.00031580610084347427 0.11343873292207718 0.6784313917160034 0.5215686559677124 0.2823529541492462
0.4886699616909027 0.00015790305042173713 0.7561264634132385 0.4941176474094391 0.40392157435417175 0.239215686917305
0.4995073974132538 0.0006316122016869485 0.2857707440853119 0.7058823704719543 0.5529412031173706 0.3294117748737335
0.6086207032203674 0.0006316122016869485 0.26798418164253235 0.7019608020782471 0.5686274766921997 0.3294117748737335
0.42635467648506165 0.0007895152666606009 0.3320158123970032 0.6509804129600525 0.5058823823928833 0.29019609093666077
0.4330049157142639 0.00031580610084347427 0.8019762635231018 0.5254902243614197 0.4313725531101227 0.2980392277240753
0.39507389068603516 0.03631770238280296 0.016996046528220177 0.6313725709915161 0.4313725531101227 0.18431372940540314
0.39433497190475464 0.007421443238854408 0.14268775284290314 0.40784314274787903 0.2705882489681244 0.10588235408067703
0.3921182155609131 0.01105321291834116 0.06086956337094307 0.5960784554481506 0.3921568691730499 0.16470588743686676
0.5556650161743164 0.052739616483449936 0.005533596966415644 0.6666666865348816 0.6784313917160034 0.6117647290229797
0.5967980027198792 0.0004737091367132962 0.40869563817977905 0.7333333492279053 0.5921568870544434 0.40392157435417175
0.403940886259079 0.02100110612809658 0.9901185631752014 0.3803921639919281 0.3529411852359772 0.3137255012989044
0.5743842124938965 0.11069003492593765 0.005928853526711464 0.6705882549285889 0.6784313917160034 0.6274510025978088
0.39064040780067444 0.007579346187412739 0.015415019355714321 0.43921568989753723 0.4000000059604645 0.26274511218070984
0.5987684726715088 0.10437391698360443 0.9901185631752014 0.3529411852359772 0.33725491166114807 0.3019607961177826
0.5036945939064026 0.07926733046770096 0.9897233247756958 0.3921568691730499 0.364705890417099 0.3019607961177826
0.4472906291484833 0.027948839589953423 0.00830039568245411 0.4627451002597809 0.46666666865348816 0.4470588266849518
0.3889162540435791 0.08100426197052002 0.009881422854959965 0.658823549747467 0.6549019813537598 0.5843137502670288
0.5325123071670532 0.12000631541013718 0.9897233247756958 0.38823530077934265 0.37254902720451355 0.3294117748737335
0.4004926085472107 0.12758566439151764 0.9901185631752014 0.3490196168422699 0.32549020648002625 0.27843138575553894
0.39532020688056946 0.0007895152666606009 0.42924901843070984 0.6980392336845398 0.5568627715110779 0.3686274588108063
0.41551724076271057 0.00031580610084347427 0.9407114386558533 0.2823529541492462 0.21176470816135406 0.125490203499794
0.5554187297821045 0.045791883021593094 0.9897233247756958 0.3686274588108063 0.33725491166114807 0.2862745225429535
0.43866994976997375 0.039475761353969574 0.9897233247756958 0.4000000059604645 0.3686274588108063 0.32549020648002625
0.45418718457221985 0.00031580610084347427 0.7561264634132385 0.5529412031173706 0.4431372582912445 0.2980392277240753
0.45394089818000793 0.0007895152666606009 0.32055336236953735 0.7176470756530762 0.572549045085907 0.3686274588108063
0.5541871786117554 0.0006316122016869485 0.14189723134040833 0.6745098233222961 0.5333333611488342 0.29019609093666077
0.41822659969329834 0.001263224403373897 0.20513834059238434 0.7098039388656616 0.545098066329956 0.3176470696926117
0.3815270960330963 0.0009474182734265924 0.40909090638160706 0.7176470756530762 0.5607843399047852 0.3686274588108063
0.49704432487487793 0.10847939550876617 0.005533596966415644 0.6666666865348816 0.7019608020782471 0.6274510025978088
0.46206897497177124 0.0006316122016869485 0.4229249060153961 0.7450980544090271 0.5960784554481506 0.40392157435417175
0.5862069129943848 0.0004737091367132962 0.469960480928421 0.7137255072593689 0.5843137502670288 0.37254902720451355
0.47783252596855164 0.00031580610084347427 0.6422924995422363 0.6352941393852234 0.529411792755127 0.4470588266849518
0.6115763783454895 0.0004737091367132962 0.3549407124519348 0.6823529601097107 0.5333333611488342 0.2862745225429535
0.40566501021385193 0.05321332812309265 0.00909090880304575 0.6117647290229797 0.5882353186607361 0.4941176474094391
0.6147783398628235 0.0004737091367132962 0.35177865624427795 0.6784313917160034 0.545098066329956 0.30588236451148987
0.39556649327278137 0.044686563313007355 0.11027667671442032 0.5803921818733215 0.37254902720451355 0.16078431904315948
0.4517241418361664 0.0004737091367132962 0.5260869860649109 0.7215686440467834 0.6000000238418579 0.41960784792900085
0.49778324365615845 0.00015790305042173713 0.7213438749313354 0.5607843399047852 0.43529412150382996 0.2862745225429535
0.39507389068603516 0.13105952739715576 0.9901185631752014 0.3764705955982208 0.3490196168422699 0.3176470696926117
0.44236454367637634 0.0007895152666606009 0.3533596694469452 0.6666666865348816 0.529411792755127 0.30980393290519714
0.5842364430427551 0.09963682293891907 0.005928853526711464 0.5411764979362488 0.5333333611488342 0.4745098054409027
0.5512315034866333 0.0007895152666606009 0.17588932812213898 0.7058823704719543 0.5568627715110779 0.3137255012989044
0.37044334411621094 0.0007895152666606009 0.6581027507781982 0.6196078658103943 0.5137255191802979 0.3960784375667572
0.6034482717514038 0.0006316122016869485 0.3533596694469452 0.7019608020782471 0.5607843399047852 0.32549020648002625
0.5266009569168091 0.0007895152666606009 0.18972331285476685 0.7450980544090271 0.5843137502670288 0.34117648005485535
0.6103448271751404 0.00015790305042173713 0.6498023867607117 0.6901960968971252 0.6000000238418579 0.43529412150382996
0.554679811000824 0.05795041844248772 0.9893280863761902 0.3843137323856354 0.3607843220233917 0.3137255012989044
0.3849753737449646 0.010263698175549507 0.9901185631752014 0.10588235408067703 0.08627451211214066 0.062745101749897
0.5832512378692627 0.14211274683475494 0.9905138611793518 0.3529411852359772 0.34117648005485535 0.3137255012989044
0.5985221862792969 0.017685141414403915 0.00830039568245411 0.5882353186607361 0.5490196347236633 0.501960813999176
0.5224137902259827 0.0006316122016869485 0.37667983770370483 0.6784313917160034 0.5372549295425415 0.3333333432674408
0.4793103337287903 0.012790147215127945 0.9901185631752014 0.35686275362968445 0.33725491166114807 0.3137255012989044
0.39408865571022034 0.02242223359644413 0.104347825050354 0.6352941393852234 0.4470588266849518 0.16470588743686676
0.37487685680389404 0.06142428517341614 0.1201581060886383 0.8941176533699036 0.772549033164978 0.5607843399047852
0.43029555678367615 0.00031580610084347427 0.8620553612709045 0.43529412150382996 0.3450980484485626 0.21176470816135406
0.4766009747982025 0.00031580610084347427 0.6007905006408691 0.6784313917160034 0.5803921818733215 0.4588235318660736
0.40738916397094727 0.0004737091367132962 0.8003952503204346 0.49803921580314636 0.4000000059604645 0.27843138575553894
0.40246304869651794 0.00031580610084347427 0.9422925114631653 0.29411765933036804 0.2235294133424759 0.13725490868091583
0.3899014890193939 0.07342492043972015 0.009881422854959965 0.5529412031173706 0.5333333611488342 0.5176470875740051
0.44211822748184204 0.0009474182734265924 0.24110671877861023 0.6901960968971252 0.5333333611488342 0.3019607961177826
0.41502463817596436 0.10816358774900436 0.0063241105526685715 0.529411792755127 0.5568627715110779 0.4941176474094391
0.5748768448829651 0.00031580610084347427 0.06403162330389023 0.6117647290229797 0.47058823704719543 0.24313725531101227
0.511083722114563 0.03237012401223183 0.9897233247756958 0.3843137323856354 0.3607843220233917 0.2980392277240753
0.4485221803188324 0.14511290192604065 0.005928853526711464 0.5960784554481506 0.6039215922355652 0.5098039507865906
0.46600985527038574 0.0009474182734265924 0.09011857956647873 0.6901960968971252 0.529411792755127 0.2705882489681244
0.5731527209281921 0.05716090276837349 0.9893280863761902 0.3960784375667572 0.364705890417099 0.32156863808631897
0.46970441937446594 0.0009474182734265924 0.033596839755773544 0.3607843220233917 0.29411765933036804 0.1921568661928177
0.5445812940597534 0.0004737091367132962 0.5130434632301331 0.6784313917160034 0.5372549295425415 0.3490196168422699
0.47068965435028076 0.03900205343961716 0.005928853526711464 0.7176470756530762 0.6823529601097107 0.6235294342041016
0.49014776945114136 0.0006316122016869485 0.23241107165813446 0.6823529601097107 0.529411792755127 0.25882354378700256
0.41871920228004456 0.0004737091367132962 0.7501976490020752 0.5921568870544434 0.501960813999176 0.3686274588108063
0.56083744764328 0.0372651182115078 0.9897233247756958 0.34117648005485535 0.3294117748737335 0.2705882489681244
0.4051724076271057 0.0007895152666606009 0.48142293095588684 0.686274528503418 0.5568627715110779 0.3490196168422699
0.3965517282485962 0.07926733046770096 0.008695651777088642 0.501960813999176 0.4901960790157318 0.42352941632270813
0.46157634258270264 0.039475761353969574 0.006719367578625679 0.6196078658103943 0.6117647290229797 0.5647059082984924
0.4216748774051666 0.0004737091367132962 0.7106719613075256 0.6666666865348816 0.5921568870544434 0.4627451002597809
0.4761083722114563 0.0007895152666606009 0.2703557312488556 0.7254902124404907 0.5529412031173706 0.2980392277240753
0.40221676230430603 0.12837517261505127 0.005928853526711464 0.7215686440467834 0.7019608020782471 0.6274510025978088
0.5874384045600891 0.080372653901577 0.005533596966415644 0.5921568870544434 0.5921568870544434 0.545098066329956
0.554679811000824 0.013421759009361267 0.007905138656497002 0.6549019813537598 0.6274510025978088 0.5647059082984924
0.5174877047538757 0.00015790305042173713 0.6620553135871887 0.6705882549285889 0.5411764979362488 0.40392157435417175
0.4810344874858856 0.00015790305042173713 0.7557312250137329 0.5176470875740051 0.40784314274787903 0.26274511218070984
0.4926108419895172 0.044686563313007355 0.9897233247756958 0.3843137323856354 0.3607843220233917 0.30588236451148987
0.6029556393623352 0.07642507553100586 0.005533596966415644 0.5568627715110779 0.5607843399047852 0.4901960790157318
0.4763546884059906 0.00015790305042173713 0.8482213616371155 0.4313725531101227 0.3333333432674408 0.21568627655506134
0.4763546884059906 0.12458550184965134 0.005928853526711464 0.5333333611488342 0.5529412031173706 0.4745098054409027
0.5790640115737915 0.15616612136363983 0.0063241105526685715 0.5921568870544434 0.6039215922355652 0.5372549295425415
0.5184729099273682 0.0006316122016869485 0.24150197207927704 0.7098039388656616 0.5607843399047852 0.3176470696926117
0.6137930750846863 0.00015790305042173713 0.6426877379417419 0.6627451181411743 0.5607843399047852 0.4156862795352936
0.5894088745117188 0.0 0.7640316486358643 0.5372549295425415 0.45490196347236633 0.34117648005485535
0.3938423693180084 0.023369651287794113 0.09249012172222137 0.615686297416687 0.4156862795352936 0.1568627506494522
0.4532019793987274 0.002526448806747794 0.011857707053422928 0.6470588445663452 0.6509804129600525 0.5882353186607361
0.49384236335754395 0.00015790305042173713 0.6379446387290955 0.4156862795352936 0.3137255012989044 0.2235294133424759
0.5943349599838257 0.04058108478784561 0.006719367578625679 0.6117647290229797 0.6039215922355652 0.5529412031173706
0.5322660207748413 0.0018948365468531847 0.9636363387107849 0.09019608050584793 0.07058823853731155 0.05882352963089943
0.5842364430427551 0.0487920418381691 0.9893280863761902 0.3490196168422699 0.33725491166114807 0.27843138575553894
0.570443332195282 0.0 0.9015810489654541 0.3921568691730499 0.3137255012989044 0.1764705926179886
0.5182266235351562 0.0006316122016869485 0.030434781685471535 0.3960784375667572 0.3490196168422699 0.2862745225429535
0.40640392899513245 0.04547607898712158 0.9897233247756958 0.3843137323856354 0.35686275362968445 0.3176470696926117
0.5394088625907898 0.04831833392381668 0.005533596966415644 0.5411764979362488 0.5333333611488342 0.48627451062202454
0.460098534822464 0.12221696227788925 0.005928853526711464 0.7098039388656616 0.7137255072593689 0.6431372761726379
0.5359606146812439 0.0006316122016869485 0.26798418164253235 0.6745098233222961 0.5176470875740051 0.27450981736183167
0.45492610335350037 0.12821727991104126 0.005928853526711464 0.501960813999176 0.5215686559677124 0.4431372582912445
0.5211822390556335 0.0006316122016869485 0.3280632495880127 0.7176470756530762 0.5803921818733215 0.3529411852359772
0.41133004426956177 0.10374230146408081 0.006719367578625679 0.6627451181411743 0.6509804129600525 0.5921568870544434
0.41527092456817627 0.00031580610084347427 0.8830039501190186 0.38823530077934265 0.29019609093666077 0.16862745583057404
0.4243842363357544 0.00031580610084347427 0.7861660122871399 0.5372549295425415 0.4313725531101227 0.3176470696926117
0.4485221803188324 0.00015790305042173713 0.9466403126716614 0.2823529541492462 0.21176470816135406 0.1568627506494522
0.47857141494750977 0.0574767105281353 0.9897233247756958 0.3960784375667572 0.37254902720451355 0.30980393290519714
0.4596059024333954 0.00031580610084347427 0.686956524848938 0.5607843399047852 0.48235294222831726 0.38823530077934265
0.5610837340354919 0.07247749716043472 0.9893280863761902 0.3764705955982208 0.3529411852359772 0.30588236451148987
0.5334975123405457 0.0018948365468531847 0.9636363387107849 0.08627451211214066 0.06666667014360428 0.054901961237192154
0.4233990013599396 0.00031580610084347427 0.8620553612709045 0.4156862795352936 0.32156863808631897 0.1882352977991104
0.5596058964729309 0.0 0.908695638179779 0.364705890417099 0.2980392277240753 0.18039216101169586
0.5706896781921387 0.0006316122016869485 0.2442687749862671 0.7254902124404907 0.5882353186607361 0.33725491166114807
0.5615763664245605 0.07926733046770096 0.005138339940458536 0.6352941393852234 0.6274510025978088 0.5803921818733215
0.512561559677124 0.0006316122016869485 0.33083003759384155 0.7921568751335144 0.6509804129600525 0.45490196347236633
0.5862069129943848 0.025106584653258324 0.007905138656497002 0.5411764979362488 0.5333333611488342 0.48627451062202454
