0.9317734241485596 0.9643139243125916 0.4169960618019104 0.6666666865348816 0.4313725531101227 0.1882352977991104
0.9773399233818054 0.9692088961601257 0.3482213318347931 0.6549019813537598 0.4313725531101227 0.21568627655506134
0.9066502451896667 0.9992104768753052 0.738339900970459 0.1568627506494522 0.1411764770746231 0.09803921729326248
0.8662561774253845 0.9987367987632751 0.2505928874015808 0.239215686917305 0.2078431397676468 0.16470588743686676
0.8679803013801575 0.9987367987632751 0.8683794736862183 0.48235294222831726 0.4588235318660736 0.37254902720451355
0.9704433679580688 0.9684193730354309 0.49169960618019104 0.5215686559677124 0.34117648005485535 0.14901961386203766
0.8758620619773865 0.994789183139801 0.011857707053422928 0.09019608050584793 0.08627451211214066 0.0784313753247261
0.8884236216545105 0.9973156452178955 0.02292490191757679 0.05882352963089943 0.054901961237192154 0.0470588244497776
0.9325123429298401 0.9744197130203247 0.9893280863761902 0.3843137323856354 0.3529411852359772 0.2705882489681244
0.8896551728248596 0.9597347378730774 0.49841898679733276 0.5490196347236633 0.3529411852359772 0.26274511218070984
0.9667487740516663 0.9965261220932007 0.47707509994506836 0.2235294133424759 0.20000000298023224 0.14509804546833038
0.956403911113739 0.8815727233886719 0.005928853526711464 0.501960813999176 0.49803921580314636 0.4156862795352936
0.8834975361824036 0.9576819539070129 0.07747035473585129 0.6000000238418579 0.37254902720451355 0.21568627655506134
0.9522167444229126 0.9658929705619812 0.1818181872367859 0.658823549747467 0.43921568989753723 0.2078431397676468
0.9354679584503174 0.9981051683425903 0.9292489886283875 0.42352941632270813 0.3921568691730499 0.30980393290519714
0.9940886497497559 0.9420495629310608 0.005928853526711464 0.4000000059604645 0.38823530077934265 0.3294117748737335
0.9243842363357544 0.9992104768753052 0.5498023629188538 0.1882352977991104 0.15294118225574493 0.11764705926179886
0.9721674919128418 0.8774672150611877 0.9897233247756958 0.3529411852359772 0.32549020648002625 0.250980406999588
0.993842363357544 0.9728406667709351 0.8312252759933472 0.03921568766236305 0.03921568766236305 0.03921568766236305
0.8783251047134399 0.9531027674674988 0.9885375499725342 0.42352941632270813 0.3960784375667572 0.32549020648002625
0.9879310131072998 0.9406284689903259 0.9359683990478516 0.4313725531101227 0.40784314274787903 0.32156863808631897
0.9576354622840881 0.9969998598098755 0.42411068081855774 0.14901961386203766 0.12941177189350128 0.10588235408067703
0.937438428401947 0.9982630610466003 0.11343873292207718 0.26274511218070984 0.24313725531101227 0.16470588743686676
0.8817734122276306 0.9587873220443726 0.4624505937099457 0.6941176652908325 0.46666666865348816 0.27843138575553894
0.8660098314285278 0.9987367987632751 0.34150198101997375 0.2235294133424759 0.20000000298023224 0.15294118225574493
0.8921182155609131 0.9988946914672852 0.24071146547794342 0.1921568661928177 0.16078431904315948 0.10980392247438431
0.9431034326553345 0.9655771255493164 0.5612648129463196 0.5647059082984924 0.3764705955982208 0.19607843458652496
0.8997536897659302 0.9609979391098022 0.5351778864860535 0.6313725709915161 0.4274509847164154 0.239215686917305
0.9179803133010864 0.9622611999511719 0.24189724028110504 0.6823529601097107 0.42352941632270813 0.23529411852359772
0.8928571343421936 0.9009947776794434 0.9893280863761902 0.2980392277240753 0.2705882489681244 0.2078431397676468
0.9357143044471741 0.9981051683425903 0.9288537502288818 0.4313725531101227 0.38823530077934265 0.3176470696926117
0.8815270662307739 0.9578399062156677 0.17984189093112946 0.6392157077789307 0.3764705955982208 0.16862745583057404
0.987438440322876 0.9722090363502502 0.15217390656471252 0.09019608050584793 0.0941176488995552 0.11372549086809158
0.9199507236480713 0.9531027674674988 0.9889327883720398 0.40392157435417175 0.37254902720451355 0.2980392277240753
0.9349753856658936 0.9977893829345703 0.07984189689159393 0.24313725531101227 0.23529411852359772 0.1882352977991104
0.9081280827522278 0.9990525841712952 0.22766798734664917 0.18431372940540314 0.15294118225574493 0.10196078568696976
0.992118239402771 0.9786831140518188 0.4940711557865143 0.08627451211214066 0.08235294371843338 0.06666667014360428
0.9061576128005981 0.9272066950798035 0.0063241105526685715 0.5803921818733215 0.5411764979362488 0.43529412150382996
0.9509851932525635 0.9973156452178955 0.036363635212183 0.03921568766236305 0.03529411926865578 0.01568627543747425
0.993596076965332 0.9742618203163147 0.013438735157251358 0.250980406999588 0.250980406999588 0.21176470816135406
0.9128078818321228 0.9979472756385803 0.9462450742721558 0.4627451002597809 0.4156862795352936 0.32156863808631897
0.8709359765052795 0.9565766453742981 0.1774703562259674 0.6823529601097107 0.4274509847164154 0.21568627655506134
0.9307881593704224 0.9993683695793152 0.5 0.1764705926179886 0.14901961386203766 0.11764705926179886
0.9197044372558594 0.9993683695793152 0.5126482248306274 0.1882352977991104 0.15294118225574493 0.125490203499794
0.9435960650444031 0.9992104768753052 0.5592885613441467 0.23529411852359772 0.21176470816135406 0.14901961386203766
0.8793103694915771 0.929891049861908 0.0063241105526685715 0.5137255191802979 0.47058823704719543 0.3921568691730499
0.943842351436615 0.8766776919364929 0.005928853526711464 0.5647059082984924 0.5647059082984924 0.47058823704719543
0.9445812702178955 0.9657350182533264 0.4434782564640045 0.6431372761726379 0.43921568989753723 0.21176470816135406
0.8881773352622986 0.9992104768753052 0.6889328360557556 0.18431372940540314 0.14901961386203766 0.11372549086809158
0.943842351436615 0.9122059345245361 0.005928853526711464 0.6078431606292725 0.5882353186607361 0.5098039507865906
0.9103448390960693 0.8897836804389954 0.005928853526711464 0.5921568870544434 0.5686274766921997 0.4745098054409027
0.8778325319290161 0.9589452147483826 0.699999988079071 0.5098039507865906 0.34117648005485535 0.2078431397676468
0.8647783398628235 0.9559450745582581 0.21620553731918335 0.6745098233222961 0.41960784792900085 0.2078431397676468
0.9911330342292786 0.9756829142570496 0.17588932812213898 0.11372549086809158 0.11764705926179886 0.08627451211214066
0.9623152613639832 0.9717353582382202 0.8411067128181458 0.2862745225429535 0.19607843458652496 0.13333334028720856
0.9128078818321228 0.9992104768753052 0.5557312369346619 0.1921568661928177 0.1568627506494522 0.12156862765550613
0.8778325319290161 0.9976314306259155 0.05612648278474808 0.05882352963089943 0.0470588244497776 0.019607843831181526
0.8741379380226135 0.9796305298805237 0.9881423115730286 0.4117647111415863 0.3803921639919281 0.2980392277240753
0.9214285612106323 0.9643139243125916 0.812252938747406 0.35686275362968445 0.22745098173618317 0.16078431904315948
0.9699507355690002 0.9688931107521057 0.6972332000732422 0.4470588266849518 0.30980393290519714 0.1921568661928177
0.9258620738983154 0.99984210729599 0.7786561250686646 0.15294118225574493 0.13725490868091583 0.0941176488995552
0.9034482836723328 0.9992104768753052 0.6114624738693237 0.1882352977991104 0.15294118225574493 0.11764705926179886
0.9825122952461243 0.9711037278175354 0.2664031684398651 0.1725490242242813 0.10196078568696976 0.007843137718737125
0.9965517520904541 0.9766303300857544 0.700790524482727 0.1568627506494522 0.14901961386203766 0.15294118225574493
0.878078818321228 0.9575240612030029 0.198023721575737 0.686274528503418 0.4313725531101227 0.21176470816135406
0.8980295658111572 0.9990525841712952 0.33596837520599365 0.1882352977991104 0.15294118225574493 0.11764705926179886
0.8916256427764893 0.9984209537506104 0.8968379497528076 0.46666666865348816 0.43529412150382996 0.3529411852359772
0.9334975481033325 0.9632086157798767 0.05612648278474808 0.6039215922355652 0.3921568691730499 0.14901961386203766
0.889162540435791 0.9990525841712952 0.45573121309280396 0.1725490242242813 0.1568627506494522 0.12156862765550613
0.9381773471832275 0.9641560316085815 0.14782609045505524 0.6705882549285889 0.4313725531101227 0.2078431397676468
0.9187192320823669 0.9995262622833252 0.821739137172699 0.2862745225429535 0.25882354378700256 0.1882352977991104
0.9871920943260193 0.9063634872436523 0.843478262424469 0.10196078568696976 0.09803921729326248 0.08235294371843338
0.8987684845924377 0.9992104768753052 0.5723320245742798 0.19607843458652496 0.16078431904315948 0.125490203499794
0.8886699676513672 0.9352597594261169 0.0063241105526685715 0.5137255191802979 0.48627451062202454 0.3843137323856354
0.9251231551170349 0.9982630610466003 0.9193676114082336 0.4313725531101227 0.4000000059604645 0.3176470696926117
0.9507389068603516 0.9995262622833252 0.8185770511627197 0.239215686917305 0.21568627655506134 0.16078431904315948
0.9630541801452637 0.9483656883239746 0.9897233247756958 0.3921568691730499 0.3607843220233917 0.2862745225429535
0.9270936250686646 0.9993683695793152 0.4581027626991272 0.16470588743686676 0.13725490868091583 0.10588235408067703
0.9876847267150879 0.9737880825996399 0.21027667820453644 0.13333334028720856 0.08235294371843338 0.15294118225574493
0.9788177609443665 0.9936838746070862 0.977470338344574 0.3529411852359772 0.2980392277240753 0.18431372940540314
0.8630542159080505 0.9570503830909729 0.6830039620399475 0.6392157077789307 0.5372549295425415 0.4313725531101227
0.99064040184021 0.9731564521789551 0.04466403275728226 0.062745101749897 0.062745101749897 0.0313725508749485
0.9711822867393494 0.9979472756385803 0.9482213258743286 0.4000000059604645 0.3803921639919281 0.29411765933036804
0.9330049157142639 0.8690983653068542 0.9889327883720398 0.4156862795352936 0.38823530077934265 0.32549020648002625
0.9699507355690002 0.9677878022193909 0.14861659705638885 0.686274528503418 0.47058823704719543 0.21960784494876862
0.9064039587974548 0.9415758848190308 0.9889327883720398 0.3803921639919281 0.3490196168422699 0.27450981736183167
0.882758617401123 0.9587873220443726 0.426086962223053 0.7333333492279053 0.5098039507865906 0.3019607961177826
0.9556650519371033 0.9977893829345703 0.48695650696754456 0.18431372940540314 0.1568627506494522 0.125490203499794
0.9177339673042297 0.9985788464546204 0.1403162032365799 0.12156862765550613 0.10980392247438431 0.07450980693101883
0.9411330223083496 0.9993683695793152 0.5055335760116577 0.21568627655506134 0.18431372940540314 0.13333334028720856
0.9839901328086853 0.9703142046928406 0.03122529573738575 0.3607843220233917 0.22745098173618317 0.12156862765550613
0.8793103694915771 0.9818411469459534 0.012252964079380035 0.08235294371843338 0.0784313753247261 0.07058823853731155
0.9768472909927368 0.9377862215042114 0.0071146246045827866 0.6117647290229797 0.5921568870544434 0.5058823823928833
0.8832512497901917 0.9592610001564026 0.6667984127998352 0.5607843399047852 0.3921568691730499 0.2666666805744171
0.9512315392494202 0.9992104768753052 0.6553359627723694 0.2823529541492462 0.2549019753932953 0.1921568661928177
0.8775861859321594 0.9988946914672852 0.3071146309375763 0.1921568661928177 0.16078431904315948 0.11764705926179886
0.9586206674575806 0.994947075843811 0.17035573720932007 0.21568627655506134 0.1921568661928177 0.13725490868091583
0.9674876928329468 0.9681035876274109 0.36166009306907654 0.6745098233222961 0.45098039507865906 0.23529411852359772
0.9162561297416687 0.8785725831985474 0.005928853526711464 0.5568627715110779 0.5568627715110779 0.45490196347236633
0.9628078937530518 0.9973156452178955 0.5130434632301331 0.14509804546833038 0.14509804546833038 0.10588235408067703
0.8931034207344055 0.9111005663871765 0.005928853526711464 0.5490196347236633 0.5254902243614197 0.43921568989753723
0.9403941035270691 0.9981051683425903 0.09683794528245926 0.33725491166114807 0.30980393290519714 0.24705882370471954
0.9152709245681763 0.9909995198249817 0.9889327883720398 0.3529411852359772 0.3176470696926117 0.19607843458652496
0.8849753737449646 0.9592610001564026 0.5711462497711182 0.6509804129600525 0.4745098054409027 0.3137255012989044
0.8886699676513672 0.9595768451690674 0.46126481890678406 0.7019608020782471 0.4588235318660736 0.23529411852359772
0.9224137663841248 0.8744670748710632 0.9889327883720398 0.40784314274787903 0.37254902720451355 0.3137255012989044
0.9761083722114563 0.9363650679588318 0.006719367578625679 0.49803921580314636 0.4901960790157318 0.4000000059604645
0.8899014592170715 0.9988946914672852 0.3478260934352875 0.19607843458652496 0.16862745583057404 0.12941177189350128
0.9866995215415955 0.9172587990760803 0.85138338804245 0.07450980693101883 0.05882352963089943 0.0470588244497776
0.9943349957466125 0.9761566519737244 0.6936758756637573 0.1764705926179886 0.15294118225574493 0.15294118225574493
0.8660098314285278 0.9455234408378601 0.9885375499725342 0.4627451002597809 0.43529412150382996 0.364705890417099
0.9073891639709473 0.9606821537017822 0.14505928754806519 0.6352941393852234 0.38823530077934265 0.18039216101169586
0.9581280946731567 0.897363007068634 0.005533596966415644 0.529411792755127 0.5215686559677124 0.4313725531101227
0.8788177371025085 0.9988946914672852 0.41343873739242554 0.2078431397676468 0.18431372940540314 0.12941177189350128
0.9332512021064758 0.9644718170166016 0.42450591921806335 0.7215686440467834 0.48627451062202454 0.27450981736183167
0.9302955865859985 0.9628927707672119 0.06956521421670914 0.6117647290229797 0.3803921639919281 0.15294118225574493
0.9495074152946472 0.9515237808227539 0.9893280863761902 0.3803921639919281 0.3607843220233917 0.27450981736183167
0.9600985050201416 0.9973156452178955 0.2600790560245514 0.1882352977991104 0.1568627506494522 0.10588235408067703
0.8933497667312622 0.8744670748710632 0.9889327883720398 0.2862745225429535 0.25882354378700256 0.19607843458652496
0.9852216839790344 0.8698878884315491 0.9525691866874695 0.43921568989753723 0.40784314274787903 0.3333333432674408
0.8773398995399475 0.9504184722900391 0.9885375499725342 0.43921568989753723 0.40392157435417175 0.33725491166114807
0.9302955865859985 0.9414179921150208 0.006719367578625679 0.6352941393852234 0.5882353186607361 0.48627451062202454
0.9032019972801208 0.9524711966514587 0.0071146246045827866 0.4745098054409027 0.45490196347236633 0.33725491166114807
0.8785714507102966 0.9573661684989929 0.12727272510528564 0.6470588445663452 0.37254902720451355 0.18039216101169586
0.9879310131072998 0.9407863616943359 0.9217391014099121 0.46666666865348816 0.43529412150382996 0.3607843220233917
0.9625615477561951 0.9673140645027161 0.2664031684398651 0.7843137383460999 0.5176470875740051 0.26274511218070984
0.9650246500968933 0.9046265482902527 0.005533596966415644 0.5960784554481506 0.5882353186607361 0.5058823823928833
0.9206896424293518 0.9630506634712219 0.4312252998352051 0.6431372761726379 0.4000000059604645 0.21568627655506134
0.9364532232284546 0.9646297097206116 0.3375494182109833 0.6392157077789307 0.40784314274787903 0.1411764770746231
0.9076354503631592 0.9992104768753052 0.4371541440486908 0.14509804546833038 0.12941177189350128 0.0941176488995552
0.8716748952865601 0.9576819539070129 0.5430830121040344 0.7058823704719543 0.5176470875740051 0.33725491166114807
0.9879310131072998 0.9755250215530396 0.33992093801498413 0.3137255012989044 0.29019609093666077 0.23529411852359772
0.9704433679580688 0.8728880286216736 0.9897233247756958 0.3137255012989044 0.2862745225429535 0.21568627655506134
0.9507389068603516 0.9958944916725159 0.12252964079380035 0.13333334028720856 0.13333334028720856 0.10196078568696976
0.8916256427764893 0.9117321968078613 0.005928853526711464 0.501960813999176 0.47843137383461 0.3764705955982208
0.9596059322357178 0.9145744442939758 0.9897233247756958 0.37254902720451355 0.34117648005485535 0.250980406999588
0.9091132879257202 0.9622611999511719 0.6924901008605957 0.5647059082984924 0.38823530077934265 0.2235294133424759
0.947044312953949 0.9951050281524658 0.9786561131477356 0.35686275362968445 0.3019607961177826 0.1882352977991104
0.8628078699111938 0.9992104768753052 0.8150197863578796 0.364705890417099 0.32549020648002625 0.22745098173618317
0.9487684965133667 0.9992104768753052 0.5952569246292114 0.2862745225429535 0.25882354378700256 0.1882352977991104
0.934482753276825 0.9467867016792297 0.0071146246045827866 0.4588235318660736 0.4313725531101227 0.3294117748737335
0.8911330103874207 0.9992104768753052 0.6189723610877991 0.1921568661928177 0.1568627506494522 0.12156862765550613
0.9024630784988403 0.99968421459198 0.7790513634681702 0.1882352977991104 0.15294118225574493 0.125490203499794
0.9655172228813171 0.9679456949234009 0.3335968255996704 0.6392157077789307 0.4156862795352936 0.20000000298023224
0.9273399114608765 0.9630506634712219 0.1873517781496048 0.6274510025978088 0.3843137323856354 0.20000000298023224
0.9253694415092468 0.8867835402488708 0.9893280863761902 0.38823530077934265 0.3529411852359772 0.29411765933036804
0.9857142567634583 0.8818885087966919 0.8438735008239746 0.0941176488995552 0.09019608050584793 0.08235294371843338
0.93916255235672 0.8708353042602539 0.005928853526711464 0.4470588266849518 0.45098039507865906 0.3803921639919281
0.8633005023002625 0.9987367987632751 0.26205533742904663 0.24705882370471954 0.21568627655506134 0.1725490242242813
0.942364513874054 0.9649454951286316 0.20671936869621277 0.686274528503418 0.45490196347236633 0.22745098173618317
0.9738916158676147 0.8981525301933289 0.9869565367698669 0.3450980484485626 0.3137255012989044 0.23137255012989044
0.9524630308151245 0.9720511436462402 0.8486166000366211 0.364705890417099 0.239215686917305 0.1568627506494522
0.9785714149475098 0.9960524439811707 0.9090909361839294 0.43921568989753723 0.4313725531101227 0.3333333432674408
0.9830049276351929 0.9720511436462402 0.36640316247940063 0.32156863808631897 0.20000000298023224 0.0784313753247261
0.9869458079338074 0.9204168915748596 0.8853754997253418 0.49803921580314636 0.45490196347236633 0.3764705955982208
0.9066502451896667 0.9988946914672852 0.18023715913295746 0.16470588743686676 0.1411764770746231 0.0941176488995552
0.8731527328491211 0.9589452147483826 0.7636363506317139 0.4627451002597809 0.2980392277240753 0.14901961386203766
0.8820196986198425 0.9990525841712952 0.47747036814689636 0.20392157137393951 0.18039216101169586 0.13333334028720856
0.9458128213882446 0.9992104768753052 0.6695652008056641 0.25882354378700256 0.22745098173618317 0.1764705926179886
0.9514778256416321 0.99984210729599 0.7644268870353699 0.14509804546833038 0.12941177189350128 0.0941176488995552
0.9330049157142639 0.9635244011878967 0.12094862014055252 0.6470588445663452 0.4117647111415863 0.16862745583057404
0.8928571343421936 0.9603663086891174 0.6233201622962952 0.6313725709915161 0.48627451062202454 0.37254902720451355
0.864039421081543 0.8799936771392822 0.9889327883720398 0.25882354378700256 0.23137255012989044 0.1921568661928177
0.9086207151412964 0.9508921504020691 0.0071146246045827866 0.6509804129600525 0.6235294342041016 0.5215686559677124
0.9349753856658936 0.9992104768753052 0.5454545617103577 0.1764705926179886 0.16078431904315948 0.11764705926179886
0.8894088864326477 0.9598926305770874 0.6490118503570557 0.5764706134796143 0.4313725531101227 0.3176470696926117
0.9899014830589294 0.9728406667709351 0.027272727340459824 0.16078431904315948 0.16078431904315948 0.11372549086809158
0.8630542159080505 0.9902099967002869 0.9881423115730286 0.3921568691730499 0.3529411852359772 0.2549019753932953
0.9583743810653687 0.966998279094696 0.2707509994506836 0.6470588445663452 0.4156862795352936 0.1882352977991104
0.9221674799919128 0.9617874622344971 0.024110671132802963 0.4901960790157318 0.3137255012989044 0.16078431904315948
0.9603448510169983 0.9674719572067261 0.37747034430503845 0.6352941393852234 0.4313725531101227 0.20392157137393951
0.9724137783050537 0.8885204195976257 0.005533596966415644 0.5803921818733215 0.5960784554481506 0.5058823823928833
0.8842364549636841 0.9467867016792297 0.006719367578625679 0.47058823704719543 0.4274509847164154 0.30980393290519714
0.9477832317352295 0.983420193195343 0.9897233247756958 0.3686274588108063 0.34117648005485535 0.239215686917305
0.8945812582969666 0.8814148306846619 0.9889327883720398 0.2549019753932953 0.2235294133424759 0.1725490242242813
0.9078817963600159 0.930364727973938 0.0063241105526685715 0.6313725709915161 0.5921568870544434 0.48627451062202454
0.9140394330024719 0.9636822938919067 0.8324110507965088 0.364705890417099 0.22745098173618317 0.15294118225574493
0.9862068891525269 0.9396810531616211 0.9569169878959656 0.40392157435417175 0.37254902720451355 0.2823529541492462
0.9431034326553345 0.9971577525138855 0.18142291903495789 0.2980392277240753 0.27450981736183167 0.1725490242242813
0.8647783398628235 0.9565766453742981 0.3703557252883911 0.658823549747467 0.45490196347236633 0.23137255012989044
0.947044312953949 0.9992104768753052 0.6371541619300842 0.25882354378700256 0.239215686917305 0.16470588743686676
0.9416255950927734 0.9971577525138855 0.15928854048252106 0.3294117748737335 0.2980392277240753 0.21568627655506134
0.9721674919128418 0.8954681754112244 0.9893280863761902 0.3764705955982208 0.3529411852359772 0.2666666805744171
0.9068965315818787 0.9611558318138123 0.3027667999267578 0.7411764860153198 0.47058823704719543 0.239215686917305
0.9435960650444031 0.9993683695793152 0.5181818008422852 0.24705882370471954 0.21960784494876862 0.1568627506494522
0.8839901685714722 0.9551555514335632 0.9885375499725342 0.4156862795352936 0.38823530077934265 0.3137255012989044
0.928078830242157 0.9969998598098755 0.01660079136490822 0.07058823853731155 0.06666667014360428 0.05882352963089943
0.9825122952461243 0.9714195728302002 0.29486167430877686 0.41960784792900085 0.25882354378700256 0.13333334028720856
0.8945812582969666 0.9992104768753052 0.5138339996337891 0.20000000298023224 0.16470588743686676 0.13725490868091583
0.9539408683776855 0.994789183139801 0.13636364042758942 0.20392157137393951 0.18039216101169586 0.125490203499794
0.9857142567634583 0.8951523900032043 0.9351778626441956 0.45490196347236633 0.40784314274787903 0.3450980484485626
0.9645320177078247 0.9677878022193909 0.45533597469329834 0.6666666865348816 0.4588235318660736 0.26274511218070984
0.9871920943260193 0.9256276488304138 0.8814229369163513 0.49803921580314636 0.45490196347236633 0.3764705955982208
0.9628078937530518 0.9676298499107361 0.5272727012634277 0.5960784554481506 0.43529412150382996 0.23137255012989044
0.9009852409362793 0.9598926305770874 0.14901185035705566 0.6235294342041016 0.3764705955982208 0.16862745583057404
0.9002463221549988 0.9611558318138123 0.5810276865959167 0.5490196347236633 0.40784314274787903 0.27450981736183167
0.9337438344955444 0.9936838746070862 0.9845849871635437 0.4117647111415863 0.3686274588108063 0.25882354378700256
0.9007388949394226 0.9605242609977722 0.31541502475738525 0.7176470756530762 0.4588235318660736 0.23137255012989044
0.9655172228813171 0.9679456949234009 0.5197628736495972 0.4745098054409027 0.2980392277240753 0.1764705926179886
0.9300492405891418 0.9249960780143738 0.005928853526711464 0.5960784554481506 0.5764706134796143 0.4627451002597809
0.9379310607910156 0.9979472756385803 0.08537549525499344 0.32156863808631897 0.29411765933036804 0.21960784494876862
0.987438440322876 0.9761566519737244 0.5648221373558044 0.1411764770746231 0.12941177189350128 0.10196078568696976
0.9236453175544739 0.9309963583946228 0.9893280863761902 0.3921568691730499 0.3607843220233917 0.2862745225429535
0.9539408683776855 0.8757302761077881 0.005928853526711464 0.5372549295425415 0.545098066329956 0.4627451002597809
0.9108374118804932 0.9985788464546204 0.13162055611610413 0.16078431904315948 0.13333334028720856 0.0941176488995552
0.9480295777320862 0.9969998598098755 0.09011857956647873 0.1882352977991104 0.1568627506494522 0.10588235408067703
0.8694581389427185 0.9576819539070129 0.6292490363121033 0.615686297416687 0.4588235318660736 0.35686275362968445
0.9788177609443665 0.9690510034561157 0.23122529685497284 0.572549045085907 0.42352941632270813 0.23137255012989044
0.9635468125343323 0.9677878022193909 0.35138338804244995 0.5490196347236633 0.3333333432674408 0.11372549086809158
0.9640393853187561 0.9482077956199646 0.9897233247756958 0.3921568691730499 0.3607843220233917 0.2862745225429535
0.9871920943260193 0.9253118634223938 0.8889328241348267 0.4901960790157318 0.4470588266849518 0.3686274588108063
0.8999999761581421 0.9516816735267639 0.9885375499725342 0.4156862795352936 0.38823530077934265 0.3137255012989044
0.8758620619773865 0.9992104768753052 0.6517786383628845 0.2078431397676468 0.1764705926179886 0.13333334028720856
0.8967980146408081 0.9349439740180969 0.9889327883720398 0.41960784792900085 0.38823530077934265 0.3137255012989044
0.9435960650444031 0.9657350182533264 0.582608699798584 0.5882353186607361 0.3803921639919281 0.2078431397676468
0.9731526970863342 0.8771514296531677 0.9881423115730286 0.3607843220233917 0.3333333432674408 0.26274511218070984
0.9884236454963684 0.9758408069610596 0.35098814964294434 0.29411765933036804 0.2705882489681244 0.2078431397676468
0.9871920943260193 0.9459971785545349 0.9450592994689941 0.4274509847164154 0.3960784375667572 0.30588236451148987
0.9320197105407715 0.9647876024246216 0.7158102989196777 0.5215686559677124 0.3686274588108063 0.21568627655506134
0.9076354503631592 0.9990525841712952 0.34545454382896423 0.18431372940540314 0.15294118225574493 0.10980392247438431
0.88768470287323 0.9595768451690674 0.5332015752792358 0.5647059082984924 0.38823530077934265 0.27450981736183167
0.9866995215415955 0.9801042079925537 0.9474308490753174 0.529411792755127 0.46666666865348816 0.3686274588108063
0.9433497786521912 0.9993683695793152 0.5142292380332947 0.23529411852359772 0.2078431397676468 0.14509804546833038
0.9763546586036682 0.9690510034561157 0.395652174949646 0.5215686559677124 0.32549020648002625 0.125490203499794
0.9177339673042297 0.9636822938919067 0.7762845754623413 0.48627451062202454 0.32549020648002625 0.239215686917305
0.9216748476028442 0.9992104768753052 0.22292490303516388 0.18431372940540314 0.14901961386203766 0.09019608050584793
0.9512315392494202 0.9982630610466003 0.925296425819397 0.41960784792900085 0.3960784375667572 0.30980393290519714
0.9556650519371033 0.9859466552734375 0.9897233247756958 0.3764705955982208 0.3333333432674408 0.2549019753932953
0.9009852409362793 0.9906837344169617 0.013833992183208466 0.07058823853731155 0.06666667014360428 0.05098039284348488
0.9081280827522278 0.9985788464546204 0.13280633091926575 0.16470588743686676 0.13725490868091583 0.09803921729326248
0.8665024638175964 0.9992104768753052 0.7652173638343811 0.23137255012989044 0.20000000298023224 0.1568627506494522
0.893842339515686 0.9606821537017822 0.7110671997070312 0.5176470875740051 0.3450980484485626 0.2078431397676468
0.8923645615577698 0.9259434938430786 0.9889327883720398 0.4470588266849518 0.4000000059604645 0.33725491166114807
0.9118226766586304 0.9622611999511719 0.5177865624427795 0.5960784554481506 0.3921568691730499 0.19607843458652496
0.8807882070541382 0.9579977989196777 0.2557312250137329 0.7333333492279053 0.4745098054409027 0.23529411852359772
0.9463053941726685 0.9651034474372864 0.15928854048252106 0.6509804129600525 0.4313725531101227 0.20000000298023224
0.8903940916061401 0.9992104768753052 0.5632411241531372 0.20000000298023224 0.16470588743686676 0.13725490868091583
0.992118239402771 0.9763145446777344 0.6584980487823486 0.09803921729326248 0.12156862765550613 0.11372549086809158
0.9209359884262085 0.9990525841712952 0.8628458380699158 0.45098039507865906 0.4313725531101227 0.3450980484485626
0.8940886855125427 0.9608400464057922 0.7288537621498108 0.5058823823928833 0.33725491166114807 0.20000000298023224
0.8894088864326477 0.9995262622833252 0.7897233366966248 0.2078431397676468 0.18039216101169586 0.1411764770746231
0.8866994976997375 0.9311542510986328 0.9889327883720398 0.4313725531101227 0.3960784375667572 0.3294117748737335
0.9854679703712463 0.8875730037689209 0.9332015514373779 0.4588235318660736 0.42352941632270813 0.35686275362968445
0.9857142567634583 0.9737880825996399 0.2648221254348755 0.41960784792900085 0.3294117748737335 0.25882354378700256
0.9568965435028076 0.9663666486740112 0.17430830001831055 0.6078431606292725 0.3921568691730499 0.18039216101169586
0.9724137783050537 0.9482077956199646 0.007509881630539894 0.4431372582912445 0.4117647111415863 0.3294117748737335
0.8645319938659668 0.9399968385696411 0.9885375499725342 0.45098039507865906 0.4156862795352936 0.3490196168422699
0.9283251166343689 0.9993683695793152 0.44545453786849976 0.1411764770746231 0.125490203499794 0.09019608050584793
0.9187192320823669 0.9993683695793152 0.41897234320640564 0.1411764770746231 0.125490203499794 0.0784313753247261
0.9625615477561951 0.9681035876274109 0.7071146368980408 0.5764706134796143 0.43921568989753723 0.3137255012989044
0.9849753975868225 0.869572103023529 0.8980237245559692 0.47843137383461 0.4588235318660736 0.3803921639919281
0.9630541801452637 0.9663666486740112 0.009486165829002857 0.4313725531101227 0.4117647111415863 0.33725491166114807
0.9556650519371033 0.9859466552734375 0.9897233247756958 0.3764705955982208 0.3333333432674408 0.2549019753932953
0.8783251047134399 0.9981051683425903 0.10316205769777298 0.1725490242242813 0.1568627506494522 0.12156862765550613
0.8679803013801575 0.9603663086891174 0.9881423115730286 0.42352941632270813 0.3960784375667572 0.32549020648002625
0.9894088506698608 0.9755250215530396 0.6679841876029968 0.10588235408067703 0.1411764770746231 0.12941177189350128
0.8682265877723694 0.972366988658905 0.9881423115730286 0.4156862795352936 0.37254902720451355 0.3019607961177826
0.9056650400161743 0.9324175119400024 0.9889327883720398 0.38823530077934265 0.35686275362968445 0.27450981736183167
0.9113300442695618 0.9979472756385803 0.9415019750595093 0.4588235318660736 0.4156862795352936 0.33725491166114807
0.9435960650444031 0.9992104768753052 0.48735177516937256 0.25882354378700256 0.23137255012989044 0.16078431904315948
0.9566502571105957 0.9995262622833252 0.739130437374115 0.14509804546833038 0.12941177189350128 0.08627451211214066
0.9467980265617371 0.9845255017280579 0.9897233247756958 0.35686275362968445 0.3137255012989044 0.22745098173618317
0.920197069644928 0.9973156452178955 0.028853755444288254 0.03921568766236305 0.03529411926865578 0.027450980618596077
0.9657635688781738 0.9984209537506104 0.9079051613807678 0.43921568989753723 0.4117647111415863 0.30980393290519714
0.8953201770782471 0.9987367987632751 0.1723320186138153 0.15294118225574493 0.13725490868091583 0.0941176488995552
0.9216748476028442 0.9992104768753052 0.22292490303516388 0.18431372940540314 0.14901961386203766 0.09019608050584793
0.8928571343421936 0.924364447593689 0.9889327883720398 0.45098039507865906 0.40392157435417175 0.34117648005485535
0.9869458079338074 0.9254697561264038 0.8450592756271362 0.03529411926865578 0.03921568766236305 0.0470588244497776
0.9096059203147888 0.9990525841712952 0.24703557789325714 0.1764705926179886 0.15294118225574493 0.09803921729326248
0.8788177371025085 0.9990525841712952 0.8482213616371155 0.47843137383461 0.45098039507865906 0.3764705955982208
0.9401477575302124 0.9993683695793152 0.48735177516937256 0.20392157137393951 0.16862745583057404 0.1411764770746231
0.9076354503631592 0.9990525841712952 0.34545454382896423 0.18431372940540314 0.15294118225574493 0.10980392247438431
0.8802955746650696 0.9988946914672852 0.33122530579566956 0.19607843458652496 0.16862745583057404 0.13725490868091583
0.8911330103874207 0.9988946914672852 0.3636363744735718 0.19607843458652496 0.1725490242242813 0.11764705926179886
0.9364532232284546 0.9992104768753052 0.6719367504119873 0.16470588743686676 0.13725490868091583 0.10588235408067703
0.9475369453430176 0.967156171798706 0.8241106867790222 0.37254902720451355 0.24313725531101227 0.1764705926179886
0.8682265877723694 0.9990525841712952 0.8320158123970032 0.46666666865348816 0.4470588266849518 0.3607843220233917
0.9204433560371399 0.8990999460220337 0.9893280863761902 0.40784314274787903 0.37254902720451355 0.3137255012989044
0.9886699318885803 0.9755250215530396 0.23083004355430603 0.10196078568696976 0.10588235408067703 0.12156862765550613
0.9495074152946472 0.9662087559700012 0.4909090995788574 0.5529412031173706 0.3450980484485626 0.13333334028720856
0.8822659850120544 0.9992104768753052 0.6758893132209778 0.1921568661928177 0.1568627506494522 0.12156862765550613
0.9167487621307373 0.9981051683425903 0.09762845933437347 0.14509804546833038 0.125490203499794 0.10980392247438431
0.8911330103874207 0.9992104768753052 0.5596837997436523 0.19607843458652496 0.16078431904315948 0.13333334028720856
0.9674876928329468 0.9156797528266907 0.005533596966415644 0.5058823823928833 0.49803921580314636 0.4156862795352936
0.8960590958595276 0.9589452147483826 0.02964426949620247 0.4941176474094391 0.3019607961177826 0.1725490242242813
0.9472906589508057 0.8714669346809387 0.005928853526711464 0.4627451002597809 0.46666666865348816 0.40392157435417175
0.8931034207344055 0.9976314306259155 0.046640317887067795 0.03921568766236305 0.0313725508749485 0.03529411926865578
0.9507389068603516 0.9658929705619812 0.2339920997619629 0.6901960968971252 0.43921568989753723 0.1882352977991104
0.8775861859321594 0.9568924903869629 0.06205533444881439 0.5686274766921997 0.35686275362968445 0.18431372940540314
0.9896551966667175 0.9767882227897644 0.395256906747818 0.10588235408067703 0.11764705926179886 0.09019608050584793
0.8788177371025085 0.9985788464546204 0.8913043737411499 0.4901960790157318 0.4470588266849518 0.3686274588108063
0.9963054060935974 0.978051483631134 0.4679841995239258 0.15294118225574493 0.1568627506494522 0.13333334028720856
0.9588670134544373 0.9226275086402893 0.9897233247756958 0.3490196168422699 0.3176470696926117 0.23529411852359772
0.8731527328491211 0.9984209537506104 0.15415020287036896 0.2235294133424759 0.19607843458652496 0.1568627506494522
0.8667487502098083 0.9557871222496033 0.06442687660455704 0.6196078658103943 0.3764705955982208 0.18431372940540314
0.9933497309684753 0.8834675550460815 0.8403161764144897 0.0470588244497776 0.04313725605607033 0.0235294122248888
0.8899014592170715 0.9155218601226807 0.005928853526711464 0.6784313917160034 0.6470588445663452 0.5568627715110779
0.9137930870056152 0.8981525301933289 0.9893280863761902 0.3921568691730499 0.35686275362968445 0.29019609093666077
0.8837438225746155 0.9791567921638489 0.9881423115730286 0.41960784792900085 0.3764705955982208 0.30588236451148987
0.9879310131072998 0.9766303300857544 0.5193675756454468 0.27450981736183167 0.24705882370471954 0.1764705926179886
0.9600985050201416 0.9969998598098755 0.45494070649147034 0.16078431904315948 0.15294118225574493 0.10588235408067703
0.9689655303955078 0.967156171798706 0.04268774762749672 0.6509804129600525 0.3960784375667572 0.16862745583057404
0.9046797752380371 0.9990525841712952 0.291304349899292 0.16078431904315948 0.14901961386203766 0.09019608050584793
0.8694581389427185 0.9987367987632751 0.36284583806991577 0.22745098173618317 0.19607843458652496 0.15294118225574493
0.926600992679596 0.9993683695793152 0.5090909004211426 0.18431372940540314 0.14901961386203766 0.12156862765550613
0.9588670134544373 0.9992104768753052 0.6612648367881775 0.2235294133424759 0.19607843458652496 0.13333334028720856
0.8967980146408081 0.9982630610466003 0.9185770750045776 0.49803921580314636 0.46666666865348816 0.3843137323856354
0.9869458079338074 0.9204168915748596 0.8541501760482788 0.062745101749897 0.062745101749897 0.062745101749897
0.9790640473365784 0.9709458351135254 0.6885375380516052 0.30980393290519714 0.20000000298023224 0.14509804546833038
0.8660098314285278 0.9990525841712952 0.544268786907196 0.22745098173618317 0.19607843458652496 0.14509804546833038
0.9362068772315979 0.9992104768753052 0.5233201384544373 0.18039216101169586 0.15294118225574493 0.12156862765550613
0.9179803133010864 0.9992104768753052 0.23083004355430603 0.1764705926179886 0.14509804546833038 0.0941176488995552
0.8854680061340332 0.9349439740180969 0.0063241105526685715 0.545098066329956 0.5058823823928833 0.40784314274787903
0.9933497309684753 0.9384177923202515 0.8411067128181458 0.07450980693101883 0.05882352963089943 0.0470588244497776
0.9642857313156128 0.9681035876274109 0.6110671758651733 0.47058823704719543 0.3176470696926117 0.1568627506494522
0.9443349838256836 0.9655771255493164 0.32964426279067993 0.6274510025978088 0.4117647111415863 0.16078431904315948
0.9918718934059143 0.9761566519737244 0.6671936511993408 0.10980392247438431 0.13333334028720856 0.11764705926179886
0.9805418848991394 0.9493131041526794 0.007509881630539894 0.4941176474094391 0.48627451062202454 0.38823530077934265
0.9256157875061035 0.9990525841712952 0.7051383256912231 0.1568627506494522 0.12941177189350128 0.09019608050584793
0.9591132998466492 0.9968419671058655 0.239130437374115 0.18039216101169586 0.1568627506494522 0.10980392247438431
0.9169950485229492 0.9628927707672119 0.5090909004211426 0.6352941393852234 0.4313725531101227 0.19607843458652496
0.9894088506698608 0.8757302761077881 0.8411067128181458 0.05882352963089943 0.054901961237192154 0.0470588244497776
0.940640389919281 0.9977893829345703 0.07865612953901291 0.34117648005485535 0.3137255012989044 0.24313725531101227
0.9184728860855103 0.9992104768753052 0.6683794260025024 0.16862745583057404 0.13333334028720856 0.09803921729326248
0.8894088864326477 0.9592610001564026 0.3494071066379547 0.6980392336845398 0.4588235318660736 0.21176470816135406
0.9068965315818787 0.9606821537017822 0.17391304671764374 0.6431372761726379 0.3960784375667572 0.2235294133424759
0.9007388949394226 0.9619453549385071 0.7869565486907959 0.42352941632270813 0.2666666805744171 0.16470588743686676
0.9529556632041931 0.9658929705619812 0.14782609045505524 0.6784313917160034 0.47843137383461 0.23137255012989044
0.9096059203147888 0.8820464015007019 0.9889327883720398 0.364705890417099 0.3294117748737335 0.2705882489681244
0.9583743810653687 0.9971577525138855 0.4486165940761566 0.16078431904315948 0.14901961386203766 0.12156862765550613
0.9519704580307007 0.9856308102607727 0.9897233247756958 0.3843137323856354 0.34117648005485535 0.2549019753932953
0.8778325319290161 0.9587873220443726 0.6596838235855103 0.5764706134796143 0.43921568989753723 0.3137255012989044
0.9608374238014221 0.967156171798706 0.24664030969142914 0.7058823704719543 0.4470588266849518 0.21960784494876862
0.8931034207344055 0.9987367987632751 0.8727272748947144 0.47843137383461 0.4470588266849518 0.364705890417099
0.9334975481033325 0.9643139243125916 0.35098814964294434 0.729411780834198 0.47843137383461 0.23529411852359772
0.987438440322876 0.9376282691955566 0.9438735246658325 0.43529412150382996 0.40392157435417175 0.3137255012989044
0.9302955865859985 0.9976314306259155 0.054940711706876755 0.05882352963089943 0.054901961237192154 0.03921568766236305
0.9849753975868225 0.9827885627746582 0.9031620621681213 0.5215686559677124 0.364705890417099 0.2235294133424759
0.9167487621307373 0.9611558318138123 0.01304347813129425 0.3607843220233917 0.3333333432674408 0.2705882489681244
0.9004926085472107 0.9605242609977722 0.3225296437740326 0.7176470756530762 0.4470588266849518 0.21568627655506134
0.9603448510169983 0.9327332973480225 0.9897233247756958 0.3176470696926117 0.2980392277240753 0.21176470816135406
0.9554187059402466 0.966840386390686 0.32608696818351746 0.6666666865348816 0.45490196347236633 0.20392157137393951
0.8837438225746155 0.9988946914672852 0.3636363744735718 0.20000000298023224 0.1764705926179886 0.12156862765550613
0.8837438225746155 0.9791567921638489 0.9881423115730286 0.41960784792900085 0.3764705955982208 0.30588236451148987
0.9431034326553345 0.9982630610466003 0.3019762933254242 0.3686274588108063 0.32156863808631897 0.22745098173618317
0.8706896305084229 0.9987367987632751 0.30355730652809143 0.21176470816135406 0.18039216101169586 0.13725490868091583
0.9945812821388245 0.924206554889679 0.842687726020813 0.08627451211214066 0.07058823853731155 0.05882352963089943
0.9172413945198059 0.9619453549385071 0.19011858105659485 0.6392157077789307 0.38823530077934265 0.21568627655506134
0.8982758522033691 0.9924206733703613 0.9885375499725342 0.43529412150382996 0.3843137323856354 0.25882354378700256
0.9963054060935974 0.9709458351135254 0.008695651777088642 0.7176470756530762 0.7019608020782471 0.6666666865348816
0.9692118167877197 0.9674719572067261 0.11027667671442032 0.5803921818733215 0.37254902720451355 0.16862745583057404
0.9418719410896301 0.9993683695793152 0.8316205739974976 0.3019607961177826 0.27450981736183167 0.20392157137393951
0.9120689630508423 0.9722090363502502 0.9885375499725342 0.4117647111415863 0.3843137323856354 0.2823529541492462
0.9743842482566833 0.9711037278175354 0.8272727131843567 0.3607843220233917 0.21568627655506134 0.15294118225574493
0.8795566558837891 0.9575240612030029 0.1766798347234726 0.7176470756530762 0.4470588266849518 0.23137255012989044
0.8711822628974915 0.9570503830909729 0.27233201265335083 0.7607843279838562 0.5254902243614197 0.29019609093666077
0.9625615477561951 0.9682614803314209 0.7727272510528564 0.48235294222831726 0.3294117748737335 0.2078431397676468
0.932758629322052 0.9666824340820312 0.8596838116645813 0.3960784375667572 0.3333333432674408 0.23137255012989044
0.8637930750846863 0.9985788464546204 0.17865613102912903 0.23137255012989044 0.20392157137393951 0.16470588743686676
0.9199507236480713 0.9632086157798767 0.5707510113716125 0.5960784554481506 0.42352941632270813 0.2862745225429535
0.9931034445762634 0.9737880825996399 0.805138349533081 0.08627451211214066 0.08235294371843338 0.10196078568696976
0.8839901685714722 0.9592610001564026 0.6154150366783142 0.5882353186607361 0.45098039507865906 0.37254902720451355
0.9086207151412964 0.8852044939994812 0.005928853526711464 0.5176470875740051 0.4901960790157318 0.41960784792900085
0.9490147829055786 0.9960524439811707 0.12924900650978088 0.18431372940540314 0.16078431904315948 0.11372549086809158
0.9076354503631592 0.9987367987632751 0.8735178112983704 0.46666666865348816 0.43529412150382996 0.3450980484485626
0.889162540435791 0.9598926305770874 0.6391304135322571 0.6392157077789307 0.46666666865348816 0.3529411852359772
0.9305418729782104 0.9990525841712952 0.269565224647522 0.1764705926179886 0.14901961386203766 0.10980392247438431
0.8881773352622986 0.9597347378730774 0.573913037776947 0.6000000238418579 0.4470588266849518 0.3333333432674408
0.9315270781517029 0.9270488023757935 0.9893280863761902 0.3843137323856354 0.3529411852359772 0.2705882489681244
0.8704433441162109 0.9992104768753052 0.6106719374656677 0.21568627655506134 0.18431372940540314 0.1411764770746231
0.987438440322876 0.9717353582382202 0.02766798436641693 0.24705882370471954 0.1764705926179886 0.09803921729326248
0.9475369453430176 0.967156171798706 0.8328063488006592 0.3294117748737335 0.21568627655506134 0.15294118225574493
0.8820196986198425 0.9499447345733643 0.9885375499725342 0.4431372582912445 0.40784314274787903 0.34117648005485535
0.9194581508636475 0.9622611999511719 0.18379446864128113 0.6313725709915161 0.3764705955982208 0.21960784494876862
0.9093596339225769 0.9981051683425903 0.9237154126167297 0.4941176474094391 0.45098039507865906 0.37254902720451355
0.8805418610572815 0.9153639674186707 0.9893280863761902 0.4313725531101227 0.3960784375667572 0.3294117748737335
0.9098522067070007 0.8844149708747864 0.9889327883720398 0.3803921639919281 0.3450980484485626 0.2862745225429535
0.8783251047134399 0.9578399062156677 0.9885375499725342 0.4274509847164154 0.3960784375667572 0.32156863808631897
0.8839901685714722 0.9575240612030029 0.035573121160268784 0.5137255191802979 0.3176470696926117 0.1882352977991104
0.9088670015335083 0.9990525841712952 0.2976284623146057 0.1568627506494522 0.14509804546833038 0.10980392247438431
0.9073891639709473 0.9992104768753052 0.6284584999084473 0.18039216101169586 0.14509804546833038 0.10980392247438431
0.94852215051651 0.9663666486740112 0.604347825050354 0.6431372761726379 0.4627451002597809 0.2705882489681244
0.9549261331558228 0.966840386390686 0.5486165881156921 0.6431372761726379 0.47058823704719543 0.2862745225429535
0.9766010046005249 0.9981051683425903 0.9339920878410339 0.40784314274787903 0.4000000059604645 0.3019607961177826
0.8633005023002625 0.9988946914672852 0.4379446506500244 0.2235294133424759 0.20000000298023224 0.15294118225574493
0.8967980146408081 0.9589452147483826 0.018577074632048607 0.364705890417099 0.32549020648002625 0.22745098173618317
0.9273399114608765 0.9984209537506104 0.12569169700145721 0.13725490868091583 0.10980392247438431 0.08627451211214066
0.9145320057868958 0.9333649277687073 0.0063241105526685715 0.6313725709915161 0.6078431606292725 0.5137255191802979
0.8825123310089111 0.9990525841712952 0.4952569305896759 0.21176470816135406 0.1882352977991104 0.1411764770746231
0.86231529712677 0.9180483222007751 0.0063241105526685715 0.6431372761726379 0.6000000238418579 0.5137255191802979
0.988916277885437 0.886467695236206 0.005533596966415644 0.4274509847164154 0.4431372582912445 0.3529411852359772
0.9591132998466492 0.9673140645027161 0.3996047377586365 0.6784313917160034 0.45490196347236633 0.239215686917305
0.9078817963600159 0.9992104768753052 0.6090909242630005 0.18431372940540314 0.14901961386203766 0.11372549086809158
0.9088670015335083 0.9598926305770874 0.9885375499725342 0.3921568691730499 0.3490196168422699 0.26274511218070984
0.9017241597175598 0.9602084159851074 0.20395256578922272 0.7019608020782471 0.43529412150382996 0.24313725531101227
0.9174876809120178 0.9992104768753052 0.7332015633583069 0.14509804546833038 0.12941177189350128 0.08627451211214066
0.9443349838256836 0.9990525841712952 0.6996047496795654 0.22745098173618317 0.19607843458652496 0.14509804546833038
0.953201949596405 0.9976314306259155 0.4383399188518524 0.14509804546833038 0.12941177189350128 0.08627451211214066
0.956403911113739 0.9976314306259155 0.9632411003112793 0.23529411852359772 0.20392157137393951 0.12941177189350128
0.9672414064407349 0.9963682293891907 0.47154149413108826 0.22745098173618317 0.20392157137393951 0.1568627506494522
0.9689655303955078 0.9684193730354309 0.5683794617652893 0.6274510025978088 0.43921568989753723 0.250980406999588
0.9576354622840881 0.9974735379219055 0.47035571932792664 0.1921568661928177 0.16470588743686676 0.125490203499794
0.9305418729782104 0.9979472756385803 0.9395256638526917 0.47058823704719543 0.4431372582912445 0.3333333432674408
0.9384236335754395 0.9677878022193909 0.9893280863761902 0.29019609093666077 0.2666666805744171 0.18039216101169586
0.9879310131072998 0.940944254398346 0.8996047377586365 0.20392157137393951 0.1882352977991104 0.1411764770746231
0.987438440322876 0.9572082757949829 0.9426877498626709 0.43529412150382996 0.40392157435417175 0.3137255012989044
0.9534482955932617 0.9156797528266907 0.005928853526711464 0.545098066329956 0.5529412031173706 0.4588235318660736
0.9871920943260193 0.9279962182044983 0.8711462616920471 0.5058823823928833 0.48235294222831726 0.4274509847164154
0.943842351436615 0.9992104768753052 0.5367588996887207 0.24705882370471954 0.21960784494876862 0.1568627506494522
0.993842363357544 0.9767882227897644 0.13952569663524628 0.06666667014360428 0.11372549086809158 0.11372549086809158
0.9078817963600159 0.961471676826477 0.37272727489471436 0.6627451181411743 0.4156862795352936 0.24313725531101227
