0.7197044491767883 0.7454602718353271 0.29486167430877686 0.5686274766921997 0.5882353186607361 0.6000000238418579
0.7283251285552979 0.6557713747024536 0.18893280625343323 0.6039215922355652 0.5921568870544434 0.5647059082984924
0.5455664992332458 0.718932569026947 0.9909090995788574 0.29019609093666077 0.29411765933036804 0.27450981736183167
0.509605884552002 0.7481446266174316 0.2960474193096161 0.5921568870544434 0.615686297416687 0.615686297416687
0.6086207032203674 0.6576662063598633 0.9924901127815247 0.3803921639919281 0.38823530077934265 0.3764705955982208
0.7108374238014221 0.7753039598464966 0.9916995763778687 0.9647058844566345 0.9843137264251709 1.0
0.7330049276351929 0.724143385887146 0.0063241105526685715 0.21960784494876862 0.21960784494876862 0.18039216101169586
0.5465517044067383 0.6725090742111206 0.9916995763778687 0.364705890417099 0.3607843220233917 0.3529411852359772
0.6894088387489319 0.7819358706474304 0.0071146246045827866 0.16470588743686676 0.1725490242242813 0.12941177189350128
0.601477861404419 0.6684036254882812 0.992094874382019 0.35686275362968445 0.33725491166114807 0.3529411852359772
0.6529556512832642 0.654666006565094 0.2960474193096161 0.48235294222831726 0.49803921580314636 0.5098039507865906
0.6650246381759644 0.7427759170532227 0.29486167430877686 0.6117647290229797 0.6352941393852234 0.6274510025978088
0.5465517044067383 0.6502447724342346 0.0031620552763342857 0.4627451002597809 0.46666666865348816 0.40392157435417175
0.5911329984664917 0.6976156830787659 0.2960474193096161 0.5882353186607361 0.5921568870544434 0.6078431606292725
0.5980295538902283 0.6627190709114075 0.004347825888544321 0.1725490242242813 0.1568627506494522 0.16078431904315948
0.7280788421630859 0.696826159954071 0.2233201563358307 0.03529411926865578 0.03529411926865578 0.03529411926865578
0.7310344576835632 0.7006158232688904 0.9936758875846863 0.95686274766922 0.9686274528503418 0.9882352948188782
0.7266010046005249 0.7612506151199341 0.0063241105526685715 0.18431372940540314 0.18431372940540314 0.13725490868091583
0.5935960412025452 0.7385125756263733 0.991304337978363 0.3333333432674408 0.3333333432674408 0.34117648005485535
0.6000000238418579 0.7366177439689636 0.991304337978363 0.3450980484485626 0.33725491166114807 0.35686275362968445
0.504679799079895 0.7383546233177185 0.9905138611793518 0.29019609093666077 0.29411765933036804 0.2705882489681244
0.6741379499435425 0.7291962504386902 0.9924901127815247 0.9607843160629272 0.9803921580314636 0.9960784316062927
0.6174876689910889 0.7263540029525757 0.007905138656497002 0.2823529541492462 0.2705882489681244 0.20392157137393951
0.633004903793335 0.7326701283454895 0.9916995763778687 0.9372549057006836 0.9529411792755127 0.9647058844566345
0.5386699438095093 0.6930364966392517 0.0019762846641242504 0.062745101749897 0.06666667014360428 0.0470588244497776
0.6899014711380005 0.7470393180847168 0.29486167430877686 0.615686297416687 0.6352941393852234 0.6470588445663452
0.5431034564971924 0.7599873542785645 0.00830039568245411 0.20392157137393951 0.2078431397676468 0.18431372940540314
0.5995073914527893 0.6529291272163391 0.2964426875114441 0.5176470875740051 0.5137255191802979 0.5333333611488342
0.6637930870056152 0.7307752966880798 0.29525691270828247 0.6431372761726379 0.658823549747467 0.6627451181411743
0.6236453056335449 0.6451918482780457 0.2960474193096161 0.49803921580314636 0.49803921580314636 0.49803921580314636
0.4958128035068512 0.6952471137046814 0.30000001192092896 0.6901960968971252 0.6980392336845398 0.686274528503418
0.6364532113075256 0.7803568840026855 0.29407113790512085 0.43921568989753723 0.4745098054409027 0.4627451002597809
0.5298029780387878 0.6900362968444824 0.991304337978363 0.32549020648002625 0.32156863808631897 0.30588236451148987
0.6482758522033691 0.6418758630752563 0.9932806491851807 0.9960784316062927 1.0 1.0
0.7384236454963684 0.7544607520103455 0.9924901127815247 0.9607843160629272 0.9725490212440491 1.0
0.5150246024131775 0.7666193246841431 0.2956521809101105 0.6274510025978088 0.6509804129600525 0.6509804129600525
0.617241382598877 0.7411969304084778 0.29486167430877686 0.545098066329956 0.5686274766921997 0.5529412031173706
0.5955665111541748 0.7118269205093384 0.0063241105526685715 0.2705882489681244 0.25882354378700256 0.2235294133424759
0.6834975481033325 0.7399336695671082 0.992094874382019 0.9803921580314636 0.9803921580314636 0.9882352948188782
0.5862069129943848 0.6924048662185669 0.9916995763778687 0.3333333432674408 0.3333333432674408 0.34117648005485535
0.543596088886261 0.7320385575294495 0.9909090995788574 0.27843138575553894 0.27450981736183167 0.25882354378700256
0.6650246381759644 0.637770414352417 0.006719367578625679 0.24313725531101227 0.239215686917305 0.2235294133424759
0.5650246143341064 0.7393020391464233 0.29525691270828247 0.5921568870544434 0.615686297416687 0.615686297416687
0.5997536778450012 0.6331912279129028 0.0035573123022913933 0.14509804546833038 0.13725490868091583 0.1411764770746231
0.623399019241333 0.6835622787475586 0.005138339940458536 0.3450980484485626 0.3450980484485626 0.3137255012989044
0.5874384045600891 0.7655139565467834 0.991304337978363 0.3490196168422699 0.3490196168422699 0.35686275362968445
0.7019704580307007 0.7380388379096985 0.9924901127815247 0.9725490212440491 0.9843137264251709 1.0
0.5243842601776123 0.6688773036003113 0.0031620552763342857 0.5490196347236633 0.5372549295425415 0.47058823704719543
0.7325122952461243 0.7492499351501465 0.9924901127815247 0.95686274766922 0.9686274528503418 0.9960784316062927
0.6083743572235107 0.7261961102485657 0.007509881630539894 0.2666666805744171 0.25882354378700256 0.21176470816135406
0.5701970458030701 0.7483025193214417 0.9909090995788574 0.30980393290519714 0.30980393290519714 0.3019607961177826
0.6677339673042297 0.6990367770195007 0.9928853511810303 0.9450980424880981 0.95686274766922 0.9764705896377563
0.562561571598053 0.6369808912277222 0.992094874382019 0.33725491166114807 0.34117648005485535 0.3176470696926117
0.6285714507102966 0.7274593114852905 0.29525691270828247 0.5921568870544434 0.615686297416687 0.615686297416687
0.5105911493301392 0.6500868201255798 0.9916995763778687 0.33725491166114807 0.3333333432674408 0.3137255012989044
0.5960590839385986 0.6349281668663025 0.9924901127815247 0.35686275362968445 0.34117648005485535 0.3294117748737335
0.6600984930992126 0.7201957702636719 0.9924901127815247 0.9490196108818054 0.9607843160629272 0.9803921580314636
0.5236453413963318 0.6993526220321655 0.2956521809101105 0.05882352963089943 0.05882352963089943 0.05882352963089943
0.7137930989265442 0.7489341497421265 0.9924901127815247 0.9803921580314636 0.9803921580314636 0.9803921580314636
0.49852216243743896 0.6494552493095398 0.9916995763778687 0.33725491166114807 0.34117648005485535 0.3176470696926117
0.6448276042938232 0.7039318084716797 0.2956521809101105 0.6078431606292725 0.6235294342041016 0.6352941393852234
0.7258620858192444 0.6601926684379578 0.1822134405374527 0.10588235408067703 0.10588235408067703 0.10588235408067703
0.7332512140274048 0.7058266401290894 0.0063241105526685715 0.27450981736183167 0.27843138575553894 0.21568627655506134
0.4928571283817291 0.7231959700584412 0.9905138611793518 0.29019609093666077 0.29411765933036804 0.2705882489681244
0.6564039587974548 0.7203537225723267 0.29525691270828247 0.6274510025978088 0.6470588445663452 0.6627451181411743
0.7224137783050537 0.6644560098648071 0.2960474193096161 0.545098066329956 0.5764706134796143 0.5843137502670288
0.5418719053268433 0.6354018449783325 0.0031620552763342857 0.4941176474094391 0.48627451062202454 0.43921568989753723
0.6073891520500183 0.6529291272163391 0.2960474193096161 0.5215686559677124 0.5215686559677124 0.529411792755127
0.5184729099273682 0.7768830060958862 0.008695651777088642 0.43529412150382996 0.4117647111415863 0.32549020648002625
0.5903940796852112 0.6935101747512817 0.004743082914501429 0.20392157137393951 0.18431372940540314 0.16078431904315948
0.7056650519371033 0.6947734355926514 0.17035573720932007 0.03921568766236305 0.03921568766236305 0.03921568766236305
0.5317733883857727 0.637770414352417 0.0031620552763342857 0.49803921580314636 0.48235294222831726 0.4470588266849518
0.5320196747779846 0.7230380773544312 0.2960474193096161 0.5843137502670288 0.6000000238418579 0.6039215922355652
0.6578817963600159 0.7072477340698242 0.9924901127815247 0.9450980424880981 0.95686274766922 0.9843137264251709
0.7002463340759277 0.6985630989074707 0.0063241105526685715 0.47058823704719543 0.48627451062202454 0.529411792755127
0.701724112033844 0.7659876942634583 0.0063241105526685715 0.2078431397676468 0.2078431397676468 0.16078431904315948
0.7073891758918762 0.7055107951164246 0.9932806491851807 0.9686274528503418 0.9843137264251709 0.9960784316062927
0.7179803252220154 0.6767724752426147 0.17312252521514893 0.03529411926865578 0.03529411926865578 0.03529411926865578
0.6918719410896301 0.730143666267395 0.29525691270828247 0.6196078658103943 0.6392157077789307 0.6509804129600525
0.7362068891525269 0.681983232498169 0.2707509994506836 0.09019608050584793 0.09019608050584793 0.09019608050584793
0.670197069644928 0.6755092144012451 0.0063241105526685715 0.5215686559677124 0.5254902243614197 0.45490196347236633
0.6635468006134033 0.7126164436340332 0.007509881630539894 0.4745098054409027 0.46666666865348816 0.3764705955982208
0.5716748833656311 0.7688299417495728 0.007905138656497002 0.2549019753932953 0.250980406999588 0.23137255012989044
0.5901477932929993 0.6780356764793396 0.992094874382019 0.34117648005485535 0.34117648005485535 0.3490196168422699
0.6177340149879456 0.7339333891868591 0.29525691270828247 0.572549045085907 0.5921568870544434 0.5764706134796143
0.615517258644104 0.659561038017273 0.004743082914501429 0.3490196168422699 0.3490196168422699 0.30980393290519714
0.7078817486763 0.70219486951828 0.0063241105526685715 0.2823529541492462 0.29019609093666077 0.24705882370471954
0.7233990430831909 0.7866730093955994 0.9916995763778687 0.9411764740943909 0.9607843160629272 0.9843137264251709
0.6332512497901917 0.7492499351501465 0.29486167430877686 0.5529412031173706 0.5686274766921997 0.5647059082984924
0.5800492763519287 0.7858834862709045 0.007509881630539894 0.239215686917305 0.22745098173618317 0.1921568661928177
0.6603448390960693 0.6739302277565002 0.2960474193096161 0.4901960790157318 0.5098039507865906 0.5254902243614197
0.6487684845924377 0.6808779239654541 0.9928853511810303 0.95686274766922 0.9686274528503418 0.9882352948188782
0.5236453413963318 0.6625611782073975 0.2976284623146057 0.6549019813537598 0.6117647290229797 0.5882353186607361
0.7167487740516663 0.6562450528144836 0.0071146246045827866 0.24313725531101227 0.24313725531101227 0.21176470816135406
0.5142857432365417 0.6908258199691772 0.9909090995788574 0.3450980484485626 0.34117648005485535 0.32156863808631897
0.6394088864326477 0.7580925226211548 0.007905138656497002 0.2862745225429535 0.2705882489681244 0.2235294133424759
0.5150246024131775 0.6974577903747559 0.2960474193096161 0.03921568766236305 0.03921568766236305 0.03921568766236305
0.6133005023002625 0.6428232789039612 0.004743082914501429 0.20392157137393951 0.20392157137393951 0.16470588743686676
0.6495074033737183 0.648507833480835 0.005928853526711464 0.364705890417099 0.3686274588108063 0.33725491166114807
0.5940886735916138 0.7727774977684021 0.29407113790512085 0.4745098054409027 0.4901960790157318 0.4941176474094391
0.5775862336158752 0.6895626187324524 0.29328063130378723 0.14509804546833038 0.15294118225574493 0.14901961386203766
0.6433497667312622 0.7475130558013916 0.9916995763778687 0.9333333373069763 0.9529411792755127 0.9686274528503418
0.5317733883857727 0.7344070672988892 0.9909090995788574 0.29411765933036804 0.2980392277240753 0.27843138575553894
0.5366995334625244 0.7757776975631714 0.00830039568245411 0.3333333432674408 0.32156863808631897 0.2862745225429535
0.5219211578369141 0.7557240128517151 0.9905138611793518 0.30980393290519714 0.3137255012989044 0.29019609093666077
0.6916255950927734 0.7757776975631714 0.29407113790512085 0.46666666865348816 0.5137255191802979 0.5137255191802979
0.568719208240509 0.6650876402854919 0.9916995763778687 0.38823530077934265 0.3803921639919281 0.3843137323856354
0.5554187297821045 0.7258803248405457 0.2956521809101105 0.615686297416687 0.6313725709915161 0.6274510025978088
0.6566502451896667 0.6955628991127014 0.2960474193096161 0.5803921818733215 0.5960784554481506 0.6078431606292725
0.5428571701049805 0.7719879746437073 0.00830039568245411 0.16862745583057404 0.16862745583057404 0.13725490868091583
0.573645293712616 0.6609821319580078 0.002766798483207822 0.21176470816135406 0.21176470816135406 0.20392157137393951
0.5667487978935242 0.6769303679466248 0.9916995763778687 0.3529411852359772 0.3529411852359772 0.3529411852359772
0.5600985288619995 0.7104058265686035 0.991304337978363 0.3294117748737335 0.3294117748737335 0.32156863808631897
0.665517270565033 0.7051950097084045 0.2956521809101105 0.6549019813537598 0.6705882549285889 0.6823529601097107
0.5913792848587036 0.6721932888031006 0.2960474193096161 0.5372549295425415 0.5529412031173706 0.5647059082984924
0.6034482717514038 0.6502447724342346 0.9924901127815247 0.3686274588108063 0.3686274588108063 0.3686274588108063
0.5403940677642822 0.7230380773544312 0.005138339940458536 0.2666666805744171 0.25882354378700256 0.2078431397676468
0.6514778137207031 0.7197220921516418 0.2956521809101105 0.6235294342041016 0.6431372761726379 0.658823549747467
0.6682265996932983 0.6827727556228638 0.9928853511810303 1.0 1.0 1.0
0.7339901328086853 0.7754618525505066 0.992094874382019 0.9607843160629272 0.9803921580314636 1.0
0.5460591316223145 0.7871466875076294 0.007905138656497002 0.3294117748737335 0.3137255012989044 0.2666666805744171
0.5288177132606506 0.6478762030601501 0.0031620552763342857 0.501960813999176 0.5098039507865906 0.4588235318660736
0.6268472671508789 0.6617716550827026 0.005138339940458536 0.30588236451148987 0.30588236451148987 0.2666666805744171
0.7039408683776855 0.6497710347175598 0.2964426875114441 0.5529412031173706 0.5921568870544434 0.6000000238418579
0.6325123310089111 0.6627190709114075 0.9924901127815247 1.0 1.0 1.0
0.5027093887329102 0.6815095543861389 0.3015810251235962 0.6078431606292725 0.6313725709915161 0.6313725709915161
0.5591133236885071 0.6393494606018066 0.0031620552763342857 0.3019607961177826 0.2980392277240753 0.27843138575553894
0.5302955508232117 0.7271435260772705 0.005138339940458536 0.19607843458652496 0.2078431397676468 0.18039216101169586
0.6421182155609131 0.7040897011756897 0.2956521809101105 0.5960784554481506 0.615686297416687 0.6313725709915161
0.5706896781921387 0.7585662603378296 0.29446640610694885 0.5254902243614197 0.5372549295425415 0.5568627715110779
0.5921182036399841 0.7813042998313904 0.29407113790512085 0.47058823704719543 0.4941176474094391 0.47843137383461
0.4955665171146393 0.6903521418571472 0.3015810251235962 0.4901960790157318 0.4941176474094391 0.5098039507865906
0.6310344934463501 0.6822990775108337 0.2960474193096161 0.5254902243614197 0.5372549295425415 0.5568627715110779
0.7317733764648438 0.6347702741622925 0.2968379557132721 0.4627451002597809 0.4941176474094391 0.5058823823928833
0.507881760597229 0.7648823857307434 0.2956521809101105 0.6000000238418579 0.6235294342041016 0.6235294342041016
0.6992610692977905 0.7224064469337463 0.29525691270828247 0.6274510025978088 0.6470588445663452 0.658823549747467
0.6536945700645447 0.6573503613471985 0.9928853511810303 1.0 0.9960784316062927 1.0
0.6729063987731934 0.7096163034439087 0.0071146246045827866 0.09019608050584793 0.09019608050584793 0.09019608050584793
0.685960590839386 0.6862466335296631 0.006719367578625679 0.3607843220233917 0.3764705955982208 0.3176470696926117
0.620197057723999 0.7727774977684021 0.29407113790512085 0.47843137383461 0.501960813999176 0.4941176474094391
0.7359606027603149 0.6928785443305969 0.22648221254348755 0.11764705926179886 0.125490203499794 0.12156862765550613
0.49384236335754395 0.7419863939285278 0.004743082914501429 0.21960784494876862 0.21960784494876862 0.1725490242242813
0.6325123310089111 0.6499289274215698 0.9928853511810303 1.0 1.0 1.0
0.5699507594108582 0.6960366368293762 0.003952569328248501 0.2235294133424759 0.20392157137393951 0.18039216101169586
0.7103448510169983 0.7527238130569458 0.0063241105526685715 0.2235294133424759 0.21960784494876862 0.20000000298023224
0.6295566558837891 0.6747197508811951 0.2960474193096161 0.501960813999176 0.5372549295425415 0.5333333611488342
0.5128079056739807 0.7156165838241577 0.2960474193096161 0.5490196347236633 0.5607843399047852 0.5803921818733215
0.685960590839386 0.7254065871238708 0.0063241105526685715 0.14901961386203766 0.14509804546833038 0.125490203499794
0.5275862216949463 0.7775145769119263 0.9905138611793518 0.30980393290519714 0.30980393290519714 0.3019607961177826
0.6487684845924377 0.7584083080291748 0.00830039568245411 0.2235294133424759 0.2078431397676468 0.1725490242242813
0.6746305227279663 0.7816200852394104 0.992094874382019 0.9764705896377563 0.9803921580314636 0.9960784316062927
0.6967980265617371 0.7273014187812805 0.29525691270828247 0.6196078658103943 0.6392157077789307 0.6509804129600525
0.6381773352622986 0.7419863939285278 0.9916995763778687 0.9215686321258545 0.9372549057006836 0.9490196108818054
0.6428571343421936 0.788567841053009 0.29367589950561523 0.47058823704719543 0.48235294222831726 0.4470588266849518
0.6536945700645447 0.648823618888855 0.0063241105526685715 0.3960784375667572 0.3960784375667572 0.364705890417099
0.5825123190879822 0.7669351100921631 0.9909090995788574 0.34117648005485535 0.34117648005485535 0.3490196168422699
0.6472906470298767 0.632085919380188 0.2964426875114441 0.5137255191802979 0.5372549295425415 0.5372549295425415
0.7219212055206299 0.7490920424461365 0.29446640610694885 0.5333333611488342 0.5647059082984924 0.572549045085907
0.5884236693382263 0.6437707543373108 0.2865612506866455 0.0941176488995552 0.0941176488995552 0.08627451211214066
0.6214285492897034 0.7028264403343201 0.006719367578625679 0.2980392277240753 0.29019609093666077 0.239215686917305
0.61231529712677 0.6698247194290161 0.2960474193096161 0.5137255191802979 0.5137255191802979 0.5137255191802979
0.5568965673446655 0.7811463475227356 0.9905138611793518 0.3019607961177826 0.3019607961177826 0.29411765933036804
0.6524630784988403 0.7495657801628113 0.9916995763778687 0.9450980424880981 0.9647058844566345 0.9882352948188782
0.7004926204681396 0.7290383577346802 0.9924901127815247 0.9647058844566345 0.9843137264251709 0.9960784316062927
0.6615763306617737 0.7492499351501465 0.9916995763778687 0.9450980424880981 0.9725490212440491 0.9960784316062927
0.6980295777320862 0.6714037656784058 0.2960474193096161 0.4941176474094391 0.5137255191802979 0.5254902243614197
0.6315270662307739 0.7217748165130615 0.992094874382019 0.9411764740943909 0.9607843160629272 0.9764705896377563
0.6770936250686646 0.6905100345611572 0.9932806491851807 1.0 1.0 0.9921568632125854
0.6943349838256836 0.6930364966392517 0.9932806491851807 0.9764705896377563 0.9803921580314636 0.9960784316062927
0.7285714149475098 0.7531975507736206 0.9924901127815247 0.9529411792755127 0.9647058844566345 0.9843137264251709
0.7381773591041565 0.6772461533546448 0.3031620681285858 0.05098039284348488 0.05098039284348488 0.04313725605607033
0.693842351436615 0.7282488346099854 0.9924901127815247 0.9764705896377563 0.9803921580314636 1.0
0.5566502213478088 0.6341386437416077 0.0031620552763342857 0.3176470696926117 0.30588236451148987 0.2862745225429535
0.4955665171146393 0.7656718492507935 0.2960474193096161 0.5254902243614197 0.5568627715110779 0.5647059082984924
0.734236478805542 0.6941418051719666 0.1774703562259674 0.12156862765550613 0.1411764770746231 0.1568627506494522
0.6729063987731934 0.6390336155891418 0.0071146246045827866 0.14509804546833038 0.16862745583057404 0.15294118225574493
0.5051724314689636 0.643454909324646 0.30000001192092896 0.2078431397676468 0.20000000298023224 0.20392157137393951
0.7061576247215271 0.6402968764305115 0.00830039568245411 0.33725491166114807 0.3490196168422699 0.32156863808631897
0.5263546705245972 0.7336175441741943 0.005533596966415644 0.20392157137393951 0.2078431397676468 0.1764705926179886
0.5214285850524902 0.7621980309486389 0.2956521809101105 0.6745098233222961 0.6823529601097107 0.6627451181411743
0.5133004784584045 0.729985773563385 0.2960474193096161 0.6235294342041016 0.6392157077789307 0.6509804129600525
0.5300492644309998 0.7249329090118408 0.2960474193096161 0.7058823704719543 0.7215686440467834 0.7176470756530762
0.5389162302017212 0.708037257194519 0.991304337978363 0.3137255012989044 0.30980393290519714 0.29019609093666077
0.5401477813720703 0.6894047260284424 0.0019762846641242504 0.05098039284348488 0.05098039284348488 0.04313725605607033
0.7357142567634583 0.6785094141960144 0.26758894324302673 0.09019608050584793 0.09019608050584793 0.09019608050584793
0.6997537016868591 0.7866730093955994 0.29328063130378723 0.47843137383461 0.5137255191802979 0.5098039507865906
0.6697044372558594 0.6922469735145569 0.2960474193096161 0.5490196347236633 0.5686274766921997 0.5921568870544434
0.6022167205810547 0.7779883146286011 0.29407113790512085 0.4745098054409027 0.49803921580314636 0.49803921580314636
0.6536945700645447 0.654666006565094 0.2960474193096161 0.48627451062202454 0.501960813999176 0.5137255191802979
0.5226600766181946 0.6857729554176331 0.0015810276381671429 0.05098039284348488 0.0470588244497776 0.06666667014360428
0.7199507355690002 0.6963524222373962 0.2956521809101105 0.5176470875740051 0.5372549295425415 0.5607843399047852
0.6362069249153137 0.7768830060958862 0.29407113790512085 0.4627451002597809 0.48627451062202454 0.47843137383461
0.6142857074737549 0.7636191248893738 0.29446640610694885 0.4745098054409027 0.5098039507865906 0.5058823823928833
0.7362068891525269 0.6665087342262268 0.9944664239883423 0.9647058844566345 1.0 0.9960784316062927
0.5403940677642822 0.654508113861084 0.9916995763778687 0.35686275362968445 0.3529411852359772 0.3450980484485626
0.7078817486763 0.7374072074890137 0.29486167430877686 0.615686297416687 0.6392157077789307 0.6392157077789307
0.5253694653511047 0.7119848132133484 0.9909090995788574 0.3019607961177826 0.30980393290519714 0.2666666805744171
0.6672413945198059 0.7211432456970215 0.007509881630539894 0.23529411852359772 0.23137255012989044 0.14901961386203766
0.5214285850524902 0.7535133361816406 0.9905138611793518 0.27843138575553894 0.2823529541492462 0.25882354378700256
0.6224138140678406 0.7615664005279541 0.007905138656497002 0.29019609093666077 0.2823529541492462 0.2235294133424759
0.7044335007667542 0.6414021849632263 0.00830039568245411 0.4901960790157318 0.49803921580314636 0.47843137383461
0.6620689630508423 0.7798831462860107 0.29407113790512085 0.46666666865348816 0.501960813999176 0.4901960790157318
0.7315270900726318 0.7617242932319641 0.0063241105526685715 0.18431372940540314 0.18431372940540314 0.15294118225574493
0.7157635688781738 0.6365072131156921 0.00830039568245411 0.2549019753932953 0.25882354378700256 0.23529411852359772
0.5830049514770508 0.67645663022995 0.0035573123022913933 0.250980406999588 0.239215686917305 0.21176470816135406
0.6167487502098083 0.734880805015564 0.29525691270828247 0.5607843399047852 0.5803921818733215 0.5647059082984924
0.7219212055206299 0.6576662063598633 0.2964426875114441 0.5490196347236633 0.5764706134796143 0.6000000238418579
0.6347290873527527 0.6835622787475586 0.9924901127815247 0.95686274766922 0.9607843160629272 0.9803921580314636
0.5241379141807556 0.6919311285018921 0.991304337978363 0.3333333432674408 0.3294117748737335 0.30980393290519714
0.6443349719047546 0.7007737159729004 0.9924901127815247 0.9450980424880981 0.95686274766922 0.9764705896377563
0.6566502451896667 0.6552976369857788 0.0063241105526685715 0.4941176474094391 0.501960813999176 0.45098039507865906
0.6603448390960693 0.6535606980323792 0.9932806491851807 1.0 1.0 1.0
0.5364531874656677 0.740723192691803 0.2956521809101105 0.7098039388656616 0.7176470756530762 0.7137255072593689
0.7256157398223877 0.7591978311538696 0.0063241105526685715 0.1882352977991104 0.1882352977991104 0.1568627506494522
0.6128078699111938 0.6354018449783325 0.2964426875114441 0.501960813999176 0.5098039507865906 0.4901960790157318
0.6539409160614014 0.6338228583335876 0.9924901127815247 1.0 1.0 1.0
0.5463054180145264 0.6998263001441956 0.991304337978363 0.3019607961177826 0.2980392277240753 0.2823529541492462
0.5376847386360168 0.6750355362892151 0.002766798483207822 0.5490196347236633 0.5529412031173706 0.49803921580314636
0.5391625761985779 0.7590399384498596 0.007905138656497002 0.11372549086809158 0.10980392247438431 0.0941176488995552
0.6546797752380371 0.7273014187812805 0.007509881630539894 0.32549020648002625 0.3137255012989044 0.24705882370471954
0.6517241597175598 0.6941418051719666 0.9924901127815247 0.95686274766922 0.9686274528503418 0.9882352948188782
0.5162561535835266 0.7108795046806335 0.0031620552763342857 0.30588236451148987 0.30980393290519714 0.24705882370471954
0.6000000238418579 0.7170377373695374 0.0071146246045827866 0.3686274588108063 0.35686275362968445 0.2980392277240753
0.5298029780387878 0.6641402244567871 0.0031620552763342857 0.4627451002597809 0.46666666865348816 0.4117647111415863
0.5820196866989136 0.6560871601104736 0.0031620552763342857 0.0313725508749485 0.0313725508749485 0.0313725508749485
0.6554186940193176 0.6587715148925781 0.2960474193096161 0.47843137383461 0.4941176474094391 0.5058823823928833
0.6403940916061401 0.691299557685852 0.9924901127815247 0.9411764740943909 0.9529411792755127 0.9725490212440491
0.5635467767715454 0.7434075474739075 0.29486167430877686 0.5960784554481506 0.6196078658103943 0.6117647290229797
0.5677340030670166 0.7893573641777039 0.9909090995788574 0.3137255012989044 0.3176470696926117 0.2980392277240753
0.5943349599838257 0.7067740559577942 0.005928853526711464 0.250980406999588 0.24313725531101227 0.1921568661928177
0.5716748833656311 0.7661455869674683 0.29446640610694885 0.5254902243614197 0.5411764979362488 0.545098066329956
0.5667487978935242 0.7756197452545166 0.29407113790512085 0.5058823823928833 0.5215686559677124 0.5254902243614197
0.5876847505569458 0.6635085940361023 0.2960474193096161 0.5058823823928833 0.501960813999176 0.5215686559677124
0.737438440322876 0.6526132822036743 0.3015810251235962 0.062745101749897 0.06666667014360428 0.0470588244497776
0.7317733764648438 0.6385599374771118 0.007905138656497002 0.21176470816135406 0.21176470816135406 0.18039216101169586
0.7179803252220154 0.7617242932319641 0.29446640610694885 0.5058823823928833 0.5372549295425415 0.5490196347236633
0.6773399114608765 0.6426653861999512 0.9936758875846863 0.8901960849761963 0.9019607901573181 0.9215686321258545
0.7155172228813171 0.7456181645393372 0.9924901127815247 0.9607843160629272 0.9803921580314636 0.9960784316062927
0.543596088886261 0.6575083136558533 0.0031620552763342857 0.4627451002597809 0.4588235318660736 0.3803921639919281
0.684236466884613 0.6731407046318054 0.1723320186138153 0.0313725508749485 0.0313725508749485 0.0313725508749485
0.5554187297821045 0.7636191248893738 0.00830039568245411 0.35686275362968445 0.29019609093666077 0.26274511218070984
0.5167487859725952 0.7037738561630249 0.0023715414572507143 0.3294117748737335 0.35686275362968445 0.3294117748737335
0.6497536897659302 0.6744039058685303 0.9928853511810303 0.9647058844566345 0.9764705896377563 0.9960784316062927
0.5825123190879822 0.7511448264122009 0.007905138656497002 0.20392157137393951 0.19607843458652496 0.14901961386203766
0.635960578918457 0.7663034796714783 0.9916995763778687 0.9098039269447327 0.929411768913269 0.9411764740943909
0.6667487621307373 0.6800884008407593 0.006719367578625679 0.2705882489681244 0.27450981736183167 0.21960784494876862
0.6800492405891418 0.7396178841590881 0.012648221105337143 0.1882352977991104 0.18431372940540314 0.16470588743686676
0.5406404137611389 0.6636664867401123 0.002766798483207822 0.37254902720451355 0.3686274588108063 0.29019609093666077
0.6012315154075623 0.7258803248405457 0.007509881630539894 0.29411765933036804 0.2823529541492462 0.24705882370471954
0.7036945819854736 0.6704563498497009 0.0063241105526685715 0.3764705955982208 0.38823530077934265 0.3607843220233917
0.6179803013801575 0.7591978311538696 0.29446640610694885 0.49803921580314636 0.5215686559677124 0.5137255191802979
0.5729063749313354 0.7547765374183655 0.9909090995788574 0.3137255012989044 0.3137255012989044 0.3137255012989044
0.5652709603309631 0.7844623327255249 0.9909090995788574 0.29019609093666077 0.29019609093666077 0.2823529541492462
0.550000011920929 0.643139123916626 0.992094874382019 0.3333333432674408 0.3294117748737335 0.32156863808631897
0.7187191843986511 0.7400915622711182 0.9924901127815247 0.9529411792755127 0.9725490212440491 0.9882352948188782
0.6477832794189453 0.6366651058197021 0.0063241105526685715 0.3607843220233917 0.3764705955982208 0.32156863808631897
0.6396551728248596 0.7388283610343933 0.9916995763778687 0.9333333373069763 0.9490196108818054 0.9529411792755127
0.640640377998352 0.6633507013320923 0.005533596966415644 0.3960784375667572 0.4156862795352936 0.38823530077934265
0.5987684726715088 0.7524080276489258 0.29486167430877686 0.5176470875740051 0.5372549295425415 0.5490196347236633
0.6300492882728577 0.6481919884681702 0.9928853511810303 1.0 1.0 1.0
0.5019704699516296 0.6396652460098267 0.005138339940458536 0.49803921580314636 0.48627451062202454 0.41960784792900085
0.5036945939064026 0.7306174039840698 0.004347825888544321 0.19607843458652496 0.20000000298023224 0.1764705926179886
0.6866995096206665 0.7891994118690491 0.992094874382019 0.9607843160629272 0.9764705896377563 0.9882352948188782
0.6935960650444031 0.7855676412582397 0.992094874382019 0.9647058844566345 0.9803921580314636 0.9843137264251709
0.7123152613639832 0.7206695079803467 0.0063241105526685715 0.21960784494876862 0.23137255012989044 0.19607843458652496
0.5174877047538757 0.7538291215896606 0.006719367578625679 0.18039216101169586 0.18039216101169586 0.14901961386203766
0.7376847267150879 0.6477183103561401 0.2699604630470276 0.13333334028720856 0.12941177189350128 0.11372549086809158
0.7002463340759277 0.734880805015564 0.9924901127815247 0.9686274528503418 0.9882352948188782 1.0
0.5263546705245972 0.7273014187812805 0.004743082914501429 0.29019609093666077 0.29019609093666077 0.250980406999588
0.5935960412025452 0.7617242932319641 0.29446640610694885 0.4901960790157318 0.5137255191802979 0.5137255191802979
0.6623152494430542 0.7849360704421997 0.00909090880304575 0.2862745225429535 0.2862745225429535 0.2549019753932953
0.6982758641242981 0.6606663465499878 0.9936758875846863 0.9372549057006836 0.9490196108818054 0.9686274528503418
0.7270935773849487 0.6361913681030273 0.1822134405374527 0.14901961386203766 0.14901961386203766 0.1411764770746231
0.5182266235351562 0.7484604716300964 0.9905138611793518 0.2666666805744171 0.26274511218070984 0.24313725531101227
0.5886699557304382 0.6578240990638733 0.992094874382019 0.3803921639919281 0.3803921639919281 0.37254902720451355
0.6283251047134399 0.7361440062522888 0.007509881630539894 0.25882354378700256 0.250980406999588 0.1921568661928177
0.5399014949798584 0.7809884548187256 0.9905138611793518 0.25882354378700256 0.25882354378700256 0.250980406999588
0.5591133236885071 0.7794094681739807 0.007905138656497002 0.2549019753932953 0.24705882370471954 0.20000000298023224
0.564039409160614 0.6354018449783325 0.992094874382019 0.3529411852359772 0.35686275362968445 0.33725491166114807
0.5027093887329102 0.7795673608779907 0.2956521809101105 0.5529412031173706 0.5843137502670288 0.5921568870544434
0.6603448390960693 0.6440865397453308 0.2964426875114441 0.5215686559677124 0.5254902243614197 0.5333333611488342
0.5965517163276672 0.7287225723266602 0.991304337978363 0.32549020648002625 0.32549020648002625 0.3333333432674408
0.7317733764648438 0.6939839124679565 0.2976284623146057 0.26274511218070984 0.27843138575553894 0.2823529541492462
0.635960578918457 0.6515079736709595 0.005533596966415644 0.3921568691730499 0.3960784375667572 0.37254902720451355
0.6788177490234375 0.637928307056427 0.9928853511810303 0.9843137264251709 1.0 1.0
0.703201949596405 0.6736143827438354 0.0063241105526685715 0.3921568691730499 0.4156862795352936 0.4000000059604645
0.6273398995399475 0.6505605578422546 0.005138339940458536 0.32549020648002625 0.3294117748737335 0.30588236451148987
0.7041872143745422 0.6426653861999512 0.9932806491851807 0.8941176533699036 0.9058823585510254 0.9254902005195618
0.6615763306617737 0.7674087882041931 0.29446640610694885 0.5176470875740051 0.5529412031173706 0.5490196347236633
0.7113300561904907 0.78304123878479 0.29328063130378723 0.49803921580314636 0.5254902243614197 0.5568627715110779
0.5697044134140015 0.719090461730957 0.2956521809101105 0.5921568870544434 0.6117647290229797 0.6235294342041016
0.5637931227684021 0.7658298015594482 0.00830039568245411 0.364705890417099 0.3686274588108063 0.3137255012989044
0.49876847863197327 0.746091902256012 0.005138339940458536 0.23137255012989044 0.21960784494876862 0.1921568661928177
0.5105911493301392 0.6676141023635864 0.0031620552763342857 0.4941176474094391 0.501960813999176 0.4156862795352936
0.7187191843986511 0.6791409850120544 0.9940711259841919 0.9607843160629272 0.9764705896377563 0.9882352948188782
0.629802942276001 0.6455076336860657 0.2960474193096161 0.48235294222831726 0.49803921580314636 0.501960813999176
0.5480295419692993 0.7435654401779175 0.0071146246045827866 0.27450981736183167 0.27450981736183167 0.22745098173618317
0.6160098314285278 0.7741986513137817 0.29407113790512085 0.48627451062202454 0.501960813999176 0.5137255191802979
0.6509852409362793 0.6451918482780457 0.2964426875114441 0.4941176474094391 0.501960813999176 0.49803921580314636
0.5822660326957703 0.6723511815071106 0.29328063130378723 0.5176470875740051 0.5098039507865906 0.529411792755127
0.6073891520500183 0.746091902256012 0.29486167430877686 0.5215686559677124 0.545098066329956 0.545098066329956
0.5448275804519653 0.6559292674064636 0.9916995763778687 0.35686275362968445 0.3529411852359772 0.3450980484485626
0.5167487859725952 0.7839886546134949 0.18300394713878632 0.062745101749897 0.062745101749897 0.054901961237192154
0.5967980027198792 0.7093005180358887 0.9916995763778687 0.40392157435417175 0.4000000059604645 0.41960784792900085
0.6852216720581055 0.6524553894996643 0.2964426875114441 0.529411792755127 0.5411764979362488 0.5607843399047852
0.7169950604438782 0.6470866799354553 0.007905138656497002 0.21960784494876862 0.2235294133424759 0.1921568661928177
0.5192118287086487 0.7400915622711182 0.9905138611793518 0.3176470696926117 0.3137255012989044 0.29411765933036804
0.6039409041404724 0.7677246332168579 0.29446640610694885 0.48235294222831726 0.5058823823928833 0.49803921580314636
0.5618226528167725 0.7116690278053284 0.991304337978363 0.30980393290519714 0.30980393290519714 0.3019607961177826
0.7310344576835632 0.7716721892356873 0.0063241105526685715 0.1882352977991104 0.1882352977991104 0.14901961386203766
0.6591132879257202 0.638086199760437 0.2964426875114441 0.5215686559677124 0.5411764979362488 0.5568627715110779
0.5660098791122437 0.729669988155365 0.006719367578625679 0.20000000298023224 0.20000000298023224 0.16078431904315948
0.7078817486763 0.6835622787475586 0.0063241105526685715 0.4588235318660736 0.47058823704719543 0.43529412150382996
0.6694581508636475 0.7388283610343933 0.992094874382019 0.95686274766922 0.9725490212440491 0.9843137264251709
0.5140393972396851 0.6619295477867126 0.30000001192092896 0.0941176488995552 0.0941176488995552 0.08627451211214066
0.6566502451896667 0.7437233328819275 0.007905138656497002 0.1921568661928177 0.1921568661928177 0.15294118225574493
0.6504926085472107 0.7385125756263733 0.007905138656497002 0.2666666805744171 0.250980406999588 0.20392157137393951
0.6945812702178955 0.7061424255371094 0.2956521809101105 0.1921568661928177 0.2078431397676468 0.21176470816135406
0.7041872143745422 0.6761408448219299 0.1719367653131485 0.04313725605607033 0.04313725605607033 0.04313725605607033
0.7169950604438782 0.6518237590789795 0.17470355331897736 0.09803921729326248 0.09803921729326248 0.09803921729326248
0.5869458317756653 0.6892467737197876 0.2960474193096161 0.545098066329956 0.5568627715110779 0.5764706134796143
0.7307881712913513 0.696826159954071 0.22292490303516388 0.0313725508749485 0.0313725508749485 0.0313725508749485
0.7046797871589661 0.7045633792877197 0.2956521809101105 0.5568627715110779 0.5843137502670288 0.6078431606292725
0.632758617401123 0.665403425693512 0.005138339940458536 0.27843138575553894 0.2705882489681244 0.2235294133424759
0.7268472909927368 0.6350860595703125 0.18142291903495789 0.16470588743686676 0.16470588743686676 0.1568627506494522
0.687438428401947 0.6745617985725403 0.006719367578625679 0.3921568691730499 0.3921568691730499 0.3450980484485626
0.628078818321228 0.6605084538459778 0.005138339940458536 0.2823529541492462 0.2823529541492462 0.24313725531101227
0.5440886616706848 0.7440391778945923 0.2956521809101105 0.7058823704719543 0.7058823704719543 0.6980392336845398
0.6302955746650696 0.6851413249969482 0.005533596966415644 0.3607843220233917 0.32156863808631897 0.2823529541492462
0.6394088864326477 0.6350860595703125 0.005928853526711464 0.4745098054409027 0.4745098054409027 0.4274509847164154
0.6637930870056152 0.7891994118690491 0.00909090880304575 0.08627451211214066 0.09019608050584793 0.07058823853731155
0.7300492525100708 0.7891994118690491 0.9916995763778687 0.9372549057006836 0.9529411792755127 0.9882352948188782
0.5140393972396851 0.6770882606506348 0.002766798483207822 0.054901961237192154 0.07058823853731155 0.06666667014360428
0.6226601004600525 0.7857255935668945 0.29407113790512085 0.4627451002597809 0.5058823823928833 0.4901960790157318
0.6073891520500183 0.6529291272163391 0.9924901127815247 0.3529411852359772 0.3607843220233917 0.35686275362968445
0.506157636642456 0.7366177439689636 0.2960474193096161 0.5764706134796143 0.5921568870544434 0.6039215922355652
0.6032019853591919 0.7044054865837097 0.2960474193096161 0.615686297416687 0.6352941393852234 0.658823549747467
0.6135467886924744 0.6423496007919312 0.9924901127815247 0.7098039388656616 0.7411764860153198 0.7490196228027344
0.5990147590637207 0.7770408987998962 0.991304337978363 0.34117648005485535 0.34117648005485535 0.3490196168422699
0.6992610692977905 0.7173535227775574 0.0063241105526685715 0.3686274588108063 0.3764705955982208 0.3333333432674408
0.49852216243743896 0.7579346299171448 0.9905138611793518 0.27450981736183167 0.2705882489681244 0.2549019753932953
0.6788177490234375 0.777672529220581 0.9916995763778687 0.9686274528503418 0.9882352948188782 1.0
0.5810344815254211 0.6821411848068237 0.2960474193096161 0.5686274766921997 0.572549045085907 0.5882353186607361
0.5394088625907898 0.6917732357978821 0.991304337978363 0.32156863808631897 0.32549020648002625 0.30588236451148987
0.6450738906860352 0.740249514579773 0.9916995763778687 0.9372549057006836 0.95686274766922 0.9725490212440491
0.7357142567634583 0.6950892210006714 0.1920948624610901 0.13333334028720856 0.13333334028720856 0.13333334028720856
0.6805418729782104 0.6663508415222168 0.9932806491851807 0.9607843160629272 0.9647058844566345 0.9843137264251709
0.509605884552002 0.6698247194290161 0.991304337978363 0.3137255012989044 0.30980393290519714 0.29019609093666077
0.5113300681114197 0.7555660605430603 0.2960474193096161 0.615686297416687 0.6352941393852234 0.6470588445663452
0.5108374357223511 0.7140375971794128 0.9909090995788574 0.3137255012989044 0.3137255012989044 0.2823529541492462
0.7189655303955078 0.7746723294258118 0.992094874382019 0.9529411792755127 0.9725490212440491 0.9960784316062927
0.6019704341888428 0.6516658663749695 0.9924901127815247 0.3921568691730499 0.3921568691730499 0.3921568691730499
0.5963054299354553 0.6338228583335876 0.0031620552763342857 0.11764705926179886 0.11764705926179886 0.10980392247438431
0.5958127975463867 0.7173535227775574 0.2956521809101105 0.5764706134796143 0.5921568870544434 0.5882353186607361
0.5963054299354553 0.7380388379096985 0.991304337978363 0.33725491166114807 0.3294117748737335 0.34117648005485535
0.6699507236480713 0.6845096945762634 0.006719367578625679 0.35686275362968445 0.364705890417099 0.30980393290519714
0.6630541682243347 0.6984052062034607 0.2960474193096161 0.5843137502670288 0.5960784554481506 0.615686297416687
0.6613300442695618 0.7143533825874329 0.9924901127815247 0.9490196108818054 0.9607843160629272 0.9803921580314636
0.509605884552002 0.6571924686431885 0.30000001192092896 0.10196078568696976 0.0941176488995552 0.11372549086809158
0.5825123190879822 0.7554081678390503 0.9909090995788574 0.32156863808631897 0.32156863808631897 0.3137255012989044
0.6926108598709106 0.6845096945762634 0.2960474193096161 0.48235294222831726 0.501960813999176 0.5137255191802979
0.6807881593704224 0.7473551034927368 0.992094874382019 0.9647058844566345 0.9803921580314636 0.9921568632125854
0.6716748476028442 0.7385125756263733 0.992094874382019 0.95686274766922 0.9686274528503418 0.9882352948188782
0.5807881951332092 0.7367756366729736 0.991304337978363 0.3490196168422699 0.3490196168422699 0.3490196168422699
0.5960590839385986 0.7045633792877197 0.2960474193096161 0.6392157077789307 0.6549019813537598 0.6509804129600525
0.5458127856254578 0.7694615721702576 0.29446640610694885 0.6274510025978088 0.6509804129600525 0.6509804129600525
0.5258620977401733 0.7708826661109924 0.29525691270828247 0.6666666865348816 0.6823529601097107 0.6784313917160034
0.49802955985069275 0.6886152029037476 0.0011857707286253572 0.3921568691730499 0.38823530077934265 0.3176470696926117
0.5958127975463867 0.7276172637939453 0.29525691270828247 0.5568627715110779 0.572549045085907 0.5843137502670288
0.692364513874054 0.7457761168479919 0.29486167430877686 0.6117647290229797 0.6352941393852234 0.6352941393852234
0.6310344934463501 0.6920890808105469 0.992094874382019 0.9450980424880981 0.95686274766922 0.9764705896377563
0.5480295419692993 0.6537185907363892 0.0031620552763342857 0.364705890417099 0.3686274588108063 0.30588236451148987
0.6935960650444031 0.7544607520103455 0.0063241105526685715 0.20392157137393951 0.20392157137393951 0.1568627506494522
0.5214285850524902 0.659561038017273 0.9916995763778687 0.3294117748737335 0.32549020648002625 0.30980393290519714
0.5475369691848755 0.7165640592575073 0.004743082914501429 0.4117647111415863 0.42352941632270813 0.38823530077934265
0.6197044253349304 0.7483025193214417 0.29486167430877686 0.5333333611488342 0.5529412031173706 0.5372549295425415
0.6524630784988403 0.7730933427810669 0.008695651777088642 0.2862745225429535 0.29411765933036804 0.24313725531101227
0.6027093529701233 0.7541449666023254 0.29486167430877686 0.5058823823928833 0.529411792755127 0.529411792755127
0.5758620500564575 0.6702984571456909 0.9916995763778687 0.3803921639919281 0.3803921639919281 0.38823530077934265
0.5985221862792969 0.762829601764679 0.29446640610694885 0.4901960790157318 0.5098039507865906 0.5215686559677124
0.520443320274353 0.7156165838241577 0.2960474193096161 0.5529412031173706 0.5647059082984924 0.5843137502670288
0.6758620738983154 0.7175114750862122 0.29525691270828247 0.6549019813537598 0.6745098233222961 0.686274528503418
0.5507389307022095 0.7617242932319641 0.29446640610694885 0.6313725709915161 0.6470588445663452 0.6509804129600525
0.6972906589508057 0.7377230525016785 0.29486167430877686 0.6078431606292725 0.6274510025978088 0.6392157077789307
0.6403940916061401 0.6718774437904358 0.9924901127815247 0.95686274766922 0.9686274528503418 0.9960784316062927
0.5162561535835266 0.6792989373207092 0.991304337978363 0.33725491166114807 0.34117648005485535 0.3176470696926117
0.7362068891525269 0.7882519960403442 0.9916995763778687 0.9450980424880981 0.9529411792755127 1.0
0.5780788064002991 0.7718300819396973 0.9909090995788574 0.33725491166114807 0.3450980484485626 0.3333333432674408
0.5522167682647705 0.7816200852394104 0.007905138656497002 0.2705882489681244 0.2705882489681244 0.23137255012989044
0.5842364430427551 0.6852992177009583 0.2960474193096161 0.5372549295425415 0.5568627715110779 0.5686274766921997
0.6384236216545105 0.6971419453620911 0.2960474193096161 0.6000000238418579 0.6039215922355652 0.6235294342041016
0.6463054418563843 0.6470866799354553 0.9928853511810303 0.9764705896377563 0.9921568632125854 1.0
0.701724112033844 0.7164061069488525 0.29525691270828247 0.6196078658103943 0.6431372761726379 0.6431372761726379
0.6561576128005981 0.632243812084198 0.992094874382019 1.0 1.0 1.0
0.7051724195480347 0.6922469735145569 0.2956521809101105 0.529411792755127 0.5607843399047852 0.5686274766921997
0.6206896305084229 0.6347702741622925 0.004743082914501429 0.24705882370471954 0.25882354378700256 0.23137255012989044
0.69852215051651 0.7238275408744812 0.29525691270828247 0.6235294342041016 0.6431372761726379 0.6549019813537598
0.5059113502502441 0.7855676412582397 0.1826086938381195 0.05882352963089943 0.05882352963089943 0.05882352963089943
0.6339901685714722 0.6895626187324524 0.0063241105526685715 0.33725491166114807 0.3529411852359772 0.29411765933036804
0.7312808036804199 0.6984052062034607 0.24782608449459076 0.03529411926865578 0.03529411926865578 0.03529411926865578
0.4926108419895172 0.7741986513137817 0.9901185631752014 0.2980392277240753 0.3019607961177826 0.2823529541492462
0.5162561535835266 0.7631454467773438 0.9905138611793518 0.3019607961177826 0.30980393290519714 0.29019609093666077
0.6660098433494568 0.648507833480835 0.9932806491851807 0.9960784316062927 1.0 1.0
0.6049261093139648 0.7825675010681152 0.29407113790512085 0.45490196347236633 0.47058823704719543 0.46666666865348816
0.5295566320419312 0.6886152029037476 0.991304337978363 0.3450980484485626 0.34117648005485535 0.32549020648002625
0.6000000238418579 0.7768830060958862 0.007905138656497002 0.2862745225429535 0.2705882489681244 0.22745098173618317
0.6268472671508789 0.7621980309486389 0.9916995763778687 0.886274516582489 0.9058823585510254 0.9176470637321472
0.7059113383293152 0.7200378775596619 0.9928853511810303 0.9686274528503418 0.9843137264251709 0.9960784316062927
0.7027093768119812 0.6810358166694641 0.9936758875846863 0.9764705896377563 0.9803921580314636 1.0
0.6320196986198425 0.6617716550827026 0.005138339940458536 0.3490196168422699 0.33725491166114807 0.3019607961177826
0.5155172348022461 0.7252486944198608 0.004347825888544321 0.2862745225429535 0.29411765933036804 0.239215686917305
0.5630542039871216 0.6810358166694641 0.002766798483207822 0.2980392277240753 0.29411765933036804 0.2862745225429535
0.7098522186279297 0.6804042458534241 0.17509882152080536 0.03921568766236305 0.03921568766236305 0.03921568766236305
0.6746305227279663 0.7183009386062622 0.0071146246045827866 0.07450980693101883 0.0784313753247261 0.054901961237192154
0.5394088625907898 0.7792515158653259 0.9905138611793518 0.3019607961177826 0.3019607961177826 0.29411765933036804
0.5334975123405457 0.7151429057121277 0.2960474193096161 0.5647059082984924 0.5843137502670288 0.6000000238418579
0.7330049276351929 0.7535133361816406 0.0063241105526685715 0.2666666805744171 0.2666666805744171 0.23529411852359772
0.5150246024131775 0.6925627589225769 0.9909090995788574 0.3333333432674408 0.33725491166114807 0.3137255012989044
