0.005172413773834705 0.6066635251045227 0.6671936511993408 0.6941176652908325 0.6980392336845398 0.6666666865348816
0.004433497320860624 0.5261329412460327 0.7189723253250122 0.5529412031173706 0.5647059082984924 0.4901960790157318
0.0064039407297968864 0.5973471999168396 0.29288536310195923 0.6509804129600525 0.658823549747467 0.6039215922355652
0.005172413773834705 0.5255013704299927 0.4671936631202698 0.6078431606292725 0.615686297416687 0.5647059082984924
0.004433497320860624 0.4795515537261963 0.48221343755722046 0.6117647290229797 0.6078431606292725 0.5372549295425415
0.004433497320860624 0.5226590633392334 0.6980237364768982 0.5490196347236633 0.5529412031173706 0.48235294222831726
0.07487684488296509 0.47623559832572937 0.9901185631752014 0.3490196168422699 0.34117648005485535 0.29411765933036804
0.005172413773834705 0.5545554757118225 0.5438734889030457 0.6117647290229797 0.6235294342041016 0.5960784554481506
0.005418719258159399 0.6144007444381714 0.5750988125801086 0.6666666865348816 0.6784313917160034 0.6352941393852234
0.004679802805185318 0.4907626807689667 0.9600790739059448 0.3450980484485626 0.33725491166114807 0.29019609093666077
0.025123152881860733 0.5979788303375244 0.009881422854959965 0.5098039507865906 0.49803921580314636 0.4627451002597809
0.2266009896993637 0.5338702201843262 0.9905138611793518 0.37254902720451355 0.364705890417099 0.3176470696926117
0.007389162667095661 0.5968735218048096 0.05770751088857651 0.7607843279838562 0.7568627595901489 0.686274528503418
0.07660098373889923 0.6057161092758179 0.00909090880304575 0.48235294222831726 0.46666666865348816 0.4313725531101227
0.1189655140042305 0.5744512677192688 0.9905138611793518 0.3607843220233917 0.3490196168422699 0.3137255012989044
0.1667487621307373 0.4774988293647766 0.007509881630539894 0.6039215922355652 0.6117647290229797 0.5176470875740051
0.004679802805185318 0.5210800766944885 0.8517786264419556 0.501960813999176 0.4941176474094391 0.4470588266849518
0.019950738176703453 0.5390809774398804 0.9901185631752014 0.2980392277240753 0.2862745225429535 0.25882354378700256
0.158620685338974 0.5840833783149719 0.007509881630539894 0.4745098054409027 0.5098039507865906 0.4274509847164154
0.05467980355024338 0.49897363781929016 0.00830039568245411 0.5137255191802979 0.5098039507865906 0.4313725531101227
0.005172413773834705 0.5286594033241272 0.48695650696754456 0.6000000238418579 0.6078431606292725 0.5647059082984924
0.06108374521136284 0.5193431377410889 0.00830039568245411 0.4901960790157318 0.5058823823928833 0.4156862795352936
0.07906404137611389 0.5915048122406006 0.008695651777088642 0.48627451062202454 0.47843137383461 0.4274509847164154
0.004926108289510012 0.5498183965682983 0.5664031505584717 0.615686297416687 0.6196078658103943 0.5882353186607361
0.14211823046207428 0.49265751242637634 0.9901185631752014 0.40392157435417175 0.3960784375667572 0.3490196168422699
0.005172413773834705 0.6139270663261414 0.6699604988098145 0.6980392336845398 0.7019608020782471 0.6705882549285889
0.004433497320860624 0.4827096164226532 0.9343873262405396 0.38823530077934265 0.3803921639919281 0.3333333432674408
0.004679802805185318 0.529764711856842 0.5996047258377075 0.5882353186607361 0.5960784554481506 0.5411764979362488
0.004926108289510012 0.5142902135848999 0.5102766752243042 0.5921568870544434 0.6000000238418579 0.5490196347236633
0.2145320177078247 0.545870840549469 0.006719367578625679 0.5960784554481506 0.6117647290229797 0.48235294222831726
0.16798029839992523 0.6300331354141235 0.00830039568245411 0.6274510025978088 0.6078431606292725 0.5333333611488342
0.004433497320860624 0.49628928303718567 0.6063241362571716 0.5803921818733215 0.5843137502670288 0.5137255191802979
0.004926108289510012 0.5273962020874023 0.5569170117378235 0.5882353186607361 0.6000000238418579 0.5568627715110779
0.23497536778450012 0.5720827579498291 0.9909090995788574 0.3921568691730499 0.3921568691730499 0.3607843220233917
0.10591132938861847 0.5079740881919861 0.9901185631752014 0.3686274588108063 0.3686274588108063 0.32156863808631897
0.003940886817872524 0.48381492495536804 0.6592885255813599 0.572549045085907 0.5686274766921997 0.49803921580314636
0.005418719258159399 0.49786829948425293 0.249802365899086 0.6823529601097107 0.686274528503418 0.6313725709915161
0.18940886855125427 0.529448926448822 0.006719367578625679 0.5372549295425415 0.5529412031173706 0.4627451002597809
0.004679802805185318 0.5149218440055847 0.8648221492767334 0.4745098054409027 0.4627451002597809 0.4274509847164154
0.004679802805185318 0.529448926448822 0.6233201622962952 0.5921568870544434 0.5960784554481506 0.5411764979362488
0.006157635245472193 0.5957682132720947 0.3063241243362427 0.6509804129600525 0.658823549747467 0.6039215922355652
0.005172413773834705 0.5722406506538391 0.5573122501373291 0.6313725709915161 0.6431372761726379 0.6078431606292725
0.004433497320860624 0.5163429379463196 0.7118577361106873 0.5490196347236633 0.5607843399047852 0.47843137383461
0.004679802805185318 0.49249961972236633 0.46679842472076416 0.6039215922355652 0.615686297416687 0.5490196347236633
0.08965517580509186 0.4861834943294525 0.007905138656497002 0.5568627715110779 0.5647059082984924 0.48235294222831726
0.005172413773834705 0.5468182563781738 0.4905138313770294 0.6000000238418579 0.6117647290229797 0.5843137502670288
0.09729064255952835 0.5289751887321472 0.9905138611793518 0.35686275362968445 0.3490196168422699 0.3019607961177826
0.003940886817872524 0.4743407666683197 0.6920948624610901 0.572549045085907 0.5647059082984924 0.5058823823928833
0.004679802805185318 0.5078161954879761 0.8762845993041992 0.4588235318660736 0.4588235318660736 0.41960784792900085
0.004187192302197218 0.4855518639087677 0.5790513753890991 0.5921568870544434 0.6000000238418579 0.5176470875740051
0.005911330226808786 0.5722406506538391 0.3501976430416107 0.6313725709915161 0.6352941393852234 0.5647059082984924
0.005418719258159399 0.49549975991249084 0.2403162121772766 0.6666666865348816 0.6823529601097107 0.6274510025978088
0.004433497320860624 0.5084478259086609 0.7332015633583069 0.545098066329956 0.5529412031173706 0.47058823704719543
0.005418719258159399 0.5324490666389465 0.4221343994140625 0.615686297416687 0.6235294342041016 0.5803921818733215
0.20467980206012726 0.5172904133796692 0.006719367578625679 0.5372549295425415 0.545098066329956 0.4588235318660736
0.005418719258159399 0.6251381635665894 0.9806324243545532 0.3333333432674408 0.32549020648002625 0.27843138575553894
0.004433497320860624 0.518395721912384 0.747035562992096 0.545098066329956 0.5529412031173706 0.47058823704719543
0.2263546735048294 0.5971893072128296 0.991304337978363 0.32156863808631897 0.3176470696926117 0.2980392277240753
0.16133004426956177 0.6052423715591431 0.007905138656497002 0.5647059082984924 0.5764706134796143 0.5333333611488342
0.22684729099273682 0.48065686225891113 0.9901185631752014 0.3333333432674408 0.3176470696926117 0.2823529541492462
0.004926108289510012 0.5990841388702393 0.7683794498443604 0.6549019813537598 0.658823549747467 0.6274510025978088
0.12881773710250854 0.6259276866912842 0.008695651777088642 0.615686297416687 0.658823549747467 0.5960784554481506
0.00665024621412158 0.6016106009483337 0.24229249358177185 0.658823549747467 0.686274528503418 0.6235294342041016
0.004926108289510012 0.5049739480018616 0.46126481890678406 0.6000000238418579 0.6078431606292725 0.5529412031173706
0.09359605610370636 0.6072950959205627 0.008695651777088642 0.658823549747467 0.6470588445663452 0.5882353186607361
0.1541871875524521 0.5809252858161926 0.9909090995788574 0.34117648005485535 0.3294117748737335 0.3019607961177826
0.005172413773834705 0.6109268665313721 0.9011857509613037 0.501960813999176 0.5058823823928833 0.4431372582912445
0.016009852290153503 0.4937628209590912 0.009881422854959965 0.3803921639919281 0.3960784375667572 0.34117648005485535
0.22758620977401733 0.5686088800430298 0.9909090995788574 0.40392157435417175 0.3960784375667572 0.3450980484485626
0.004926108289510012 0.5802937150001526 0.8798419237136841 0.5098039507865906 0.501960813999176 0.45098039507865906
0.21133005619049072 0.6189799308776855 0.9924901127815247 0.3490196168422699 0.3529411852359772 0.3294117748737335
0.17339901626110077 0.5645033717155457 0.0071146246045827866 0.5764706134796143 0.5960784554481506 0.5098039507865906
0.0064039407297968864 0.6191378235816956 0.31383398175239563 0.6549019813537598 0.6627451181411743 0.6196078658103943
0.004926108289510012 0.5337123274803162 0.9537549614906311 0.35686275362968445 0.3490196168422699 0.3019607961177826
0.004679802805185318 0.5649771094322205 0.8612648248672485 0.5137255191802979 0.49803921580314636 0.4627451002597809
0.004926108289510012 0.5665561556816101 0.9727272987365723 0.3176470696926117 0.30588236451148987 0.27843138575553894
0.005418719258159399 0.6148744821548462 0.979051411151886 0.3450980484485626 0.32549020648002625 0.3019607961177826
0.004926108289510012 0.5097110271453857 0.4739130437374115 0.6000000238418579 0.6078431606292725 0.5529412031173706
0.017733989283442497 0.4819200932979584 0.9897233247756958 0.29019609093666077 0.2823529541492462 0.23529411852359772
0.004679802805185318 0.5499762892723083 0.747035562992096 0.5764706134796143 0.5764706134796143 0.5372549295425415
0.0071428571827709675 0.5924522280693054 0.08102767169475555 0.7019608020782471 0.7137255072593689 0.6392157077789307
0.004433497320860624 0.49202588200569153 0.5189723372459412 0.5882353186607361 0.6039215922355652 0.545098066329956
0.004187192302197218 0.48365703225135803 0.6501976251602173 0.5803921818733215 0.5686274766921997 0.4941176474094391
0.13694581389427185 0.5594505071640015 0.9905138611793518 0.37254902720451355 0.364705890417099 0.3176470696926117
0.004433497320860624 0.5201326608657837 0.7324110865592957 0.5411764979362488 0.5607843399047852 0.4745098054409027
0.004679802805185318 0.4942365288734436 0.9794466495513916 0.2980392277240753 0.2862745225429535 0.250980406999588
0.1423645317554474 0.5048160552978516 0.9901185631752014 0.3960784375667572 0.38823530077934265 0.33725491166114807
0.15591132640838623 0.5946629047393799 0.991304337978363 0.29411765933036804 0.2980392277240753 0.2666666805744171
0.004433497320860624 0.5120795965194702 0.64861661195755 0.5647059082984924 0.5686274766921997 0.49803921580314636
0.05344827473163605 0.5131849050521851 0.9901185631752014 0.3333333432674408 0.32156863808631897 0.29411765933036804
0.15689654648303986 0.5111321806907654 0.007509881630539894 0.5490196347236633 0.5764706134796143 0.5058823823928833
0.14827586710453033 0.5506079196929932 0.0071146246045827866 0.5529412031173706 0.5882353186607361 0.5058823823928833
0.006896551698446274 0.5744512677192688 0.07707510143518448 0.6431372761726379 0.6352941393852234 0.5843137502670288
0.00665024621412158 0.5329228043556213 0.05573122575879097 0.2549019753932953 0.2549019753932953 0.21568627655506134
0.0064039407297968864 0.6061897873878479 0.31936758756637573 0.6470588445663452 0.6627451181411743 0.6039215922355652
0.02266009896993637 0.5477656722068787 0.008695651777088642 0.5686274766921997 0.572549045085907 0.5176470875740051
0.004679802805185318 0.5258171558380127 0.5976284742355347 0.5843137502670288 0.5921568870544434 0.5372549295425415
0.12832511961460114 0.5640296936035156 0.007905138656497002 0.6392157077789307 0.615686297416687 0.529411792755127
0.005665024742484093 0.5315016508102417 0.27786561846733093 0.6549019813537598 0.6705882549285889 0.6039215922355652
0.004926108289510012 0.5921364426612854 0.8351778388023376 0.5764706134796143 0.5764706134796143 0.5372549295425415
0.11330049484968185 0.5109742879867554 0.007905138656497002 0.49803921580314636 0.5176470875740051 0.43921568989753723
0.05763546749949455 0.6140849590301514 0.9909090995788574 0.32156863808631897 0.30980393290519714 0.29019609093666077
0.04088670015335083 0.49265751242637634 0.00909090880304575 0.6196078658103943 0.615686297416687 0.545098066329956
0.005418719258159399 0.626717209815979 0.5928853750228882 0.6784313917160034 0.6823529601097107 0.6509804129600525
0.12536945939064026 0.5690825581550598 0.9905138611793518 0.3450980484485626 0.33725491166114807 0.29019609093666077
0.004926108289510012 0.5667140483856201 0.9604743123054504 0.3490196168422699 0.33725491166114807 0.3019607961177826
0.0950738936662674 0.551397442817688 0.007905138656497002 0.6274510025978088 0.6196078658103943 0.5372549295425415
0.20788177847862244 0.5697141885757446 0.0071146246045827866 0.6078431606292725 0.6274510025978088 0.5411764979362488
0.23128078877925873 0.5067108869552612 0.006719367578625679 0.6470588445663452 0.6509804129600525 0.5960784554481506
0.20763546228408813 0.5076583027839661 0.9901185631752014 0.4117647111415863 0.40392157435417175 0.35686275362968445
0.14532019197940826 0.573661744594574 0.007509881630539894 0.6196078658103943 0.6509804129600525 0.5568627715110779
0.053694579750299454 0.6009789705276489 0.9909090995788574 0.3137255012989044 0.3019607961177826 0.2823529541492462
0.005172413773834705 0.49013105034828186 0.313043475151062 0.6235294342041016 0.6392157077789307 0.572549045085907
0.00665024621412158 0.567977249622345 0.16482213139533997 0.6823529601097107 0.6745098233222961 0.6235294342041016
0.00665024621412158 0.5008684396743774 0.046640317887067795 0.24705882370471954 0.21960784494876862 0.18039216101169586
0.21231527626514435 0.6139270663261414 0.007905138656497002 0.4941176474094391 0.501960813999176 0.45098039507865906
0.004679802805185318 0.5000789761543274 0.9426877498626709 0.3843137323856354 0.37254902720451355 0.3450980484485626
0.004433497320860624 0.5043423175811768 0.6316205263137817 0.572549045085907 0.5803921818733215 0.49803921580314636
0.11748768389225006 0.5428707003593445 0.007509881630539894 0.47843137383461 0.5137255191802979 0.4313725531101227
0.19236452877521515 0.5423969626426697 0.006719367578625679 0.5529412031173706 0.5686274766921997 0.47843137383461
0.004926108289510012 0.5861361026763916 0.6810276508331299 0.6745098233222961 0.6784313917160034 0.6549019813537598
0.19187192618846893 0.5758724212646484 0.0071146246045827866 0.501960813999176 0.5215686559677124 0.4313725531101227
0.0071428571827709675 0.6063476800918579 0.09565217047929764 0.6980392336845398 0.7098039388656616 0.6431372761726379
0.005911330226808786 0.6312963962554932 0.5158102512359619 0.6666666865348816 0.6901960968971252 0.6431372761726379
0.22709359228610992 0.49202588200569153 0.9901185631752014 0.3490196168422699 0.33725491166114807 0.30980393290519714
0.04137931019067764 0.6254539489746094 0.009881422854959965 0.5803921818733215 0.5803921818733215 0.5411764979362488
0.11059113591909409 0.534975528717041 0.9905138611793518 0.3450980484485626 0.33725491166114807 0.27843138575553894
0.0064039407297968864 0.5180798768997192 0.09249012172222137 0.6705882549285889 0.6627451181411743 0.615686297416687
0.004679802805185318 0.5329228043556213 0.8383399248123169 0.5176470875740051 0.5098039507865906 0.45098039507865906
0.005911330226808786 0.6226117014884949 0.42924901843070984 0.6823529601097107 0.686274528503418 0.6549019813537598
0.03842364624142647 0.616295576095581 0.9909090995788574 0.32549020648002625 0.3137255012989044 0.2862745225429535
0.17660097777843475 0.5937154293060303 0.007509881630539894 0.5843137502670288 0.5921568870544434 0.49803921580314636
0.004926108289510012 0.47876203060150146 0.3498023748397827 0.6000000238418579 0.615686297416687 0.5254902243614197
0.005911330226808786 0.5670298337936401 0.33596837520599365 0.6392157077789307 0.6352941393852234 0.5568627715110779
0.004926108289510012 0.5226590633392334 0.4794466495513916 0.6039215922355652 0.6117647290229797 0.5568627715110779
0.005665024742484093 0.6257697939872742 0.5126482248306274 0.6705882549285889 0.6941176652908325 0.6549019813537598
0.006896551698446274 0.6172429919242859 0.18537549674510956 0.6784313917160034 0.6941176652908325 0.6352941393852234
0.004926108289510012 0.6017684936523438 0.8102766871452332 0.615686297416687 0.6196078658103943 0.5882353186607361
0.004679802805185318 0.5630822777748108 0.8162055611610413 0.5490196347236633 0.5411764979362488 0.4941176474094391
0.006896551698446274 0.6074530482292175 0.15335968136787415 0.6823529601097107 0.6941176652908325 0.6274510025978088
0.15640394389629364 0.507500410079956 0.007509881630539894 0.5568627715110779 0.5803921818733215 0.47843137383461
0.17684729397296906 0.5813990235328674 0.9909090995788574 0.3686274588108063 0.35686275362968445 0.32156863808631897
0.005665024742484093 0.5555028915405273 0.39802372455596924 0.6196078658103943 0.6274510025978088 0.5843137502670288
0.013054187409579754 0.5687667727470398 0.9897233247756958 0.2549019753932953 0.24313725531101227 0.21568627655506134
0.005911330226808786 0.5602400302886963 0.30355730652809143 0.6470588445663452 0.658823549747467 0.5921568870544434
0.0753694549202919 0.5368703603744507 0.9905138611793518 0.3450980484485626 0.3333333432674408 0.2980392277240753
0.005665024742484093 0.5386072993278503 0.3494071066379547 0.6274510025978088 0.6431372761726379 0.5882353186607361
0.004433497320860624 0.5123953819274902 0.7715414762496948 0.545098066329956 0.5333333611488342 0.4745098054409027
0.004679802805185318 0.5370282530784607 0.7762845754623413 0.5411764979362488 0.545098066329956 0.4745098054409027
0.00665024621412158 0.5689246654510498 0.14743083715438843 0.6823529601097107 0.6745098233222961 0.6235294342041016
0.004433497320860624 0.4883941113948822 0.9407114386558533 0.40784314274787903 0.3803921639919281 0.3490196168422699
0.007881773635745049 0.6243486404418945 0.05928853899240494 0.7372549176216125 0.7333333492279053 0.6627451181411743
0.11453201621770859 0.5657666325569153 0.007905138656497002 0.5960784554481506 0.6117647290229797 0.5215686559677124
0.21625615656375885 0.6183483600616455 0.9924901127815247 0.34117648005485535 0.33725491166114807 0.32156863808631897
0.004679802805185318 0.5480814576148987 0.8810276389122009 0.4941176474094391 0.48235294222831726 0.4470588266849518
0.004433497320860624 0.4964471757411957 0.6134387254714966 0.5764706134796143 0.5803921818733215 0.5098039507865906
0.1985221654176712 0.5689246654510498 0.0071146246045827866 0.5921568870544434 0.6000000238418579 0.5137255191802979
0.19556650519371033 0.5911890268325806 0.007509881630539894 0.6000000238418579 0.615686297416687 0.5607843399047852
0.004926108289510012 0.5439760088920593 0.9553359746932983 0.3490196168422699 0.3333333432674408 0.29019609093666077
0.02980295568704605 0.476077675819397 0.009486165829002857 0.4627451002597809 0.45490196347236633 0.3960784375667572
0.12438423931598663 0.5452392101287842 0.007509881630539894 0.5764706134796143 0.5843137502670288 0.49803921580314636
0.004926108289510012 0.5345017910003662 0.5343873500823975 0.6000000238418579 0.615686297416687 0.5607843399047852
0.004679802805185318 0.5419232845306396 0.634782612323761 0.6000000238418579 0.6000000238418579 0.5607843399047852
0.06453201919794083 0.5063951015472412 0.9901185631752014 0.3450980484485626 0.33725491166114807 0.29019609093666077
0.005911330226808786 0.48128849267959595 0.13162055611610413 0.6627451181411743 0.6627451181411743 0.615686297416687
0.004679802805185318 0.5441339015960693 0.8134387135505676 0.5411764979362488 0.5333333611488342 0.4745098054409027
0.004926108289510012 0.556450366973877 0.5667984485626221 0.6196078658103943 0.6235294342041016 0.6000000238418579
0.005172413773834705 0.6090320348739624 0.6588932871818542 0.686274528503418 0.6901960968971252 0.6666666865348816
0.004187192302197218 0.48444655537605286 0.7482213377952576 0.5607843399047852 0.5490196347236633 0.4901960790157318
0.2463054209947586 0.4942365288734436 0.0071146246045827866 0.48235294222831726 0.4941176474094391 0.4274509847164154
0.1743842363357544 0.5430285930633545 0.9905138611793518 0.38823530077934265 0.3803921639919281 0.3294117748737335
0.2455665022134781 0.5728722810745239 0.9909090995788574 0.3764705955982208 0.3686274588108063 0.32156863808631897
0.005172413773834705 0.48381492495536804 0.2592885494232178 0.6627451181411743 0.6784313917160034 0.6196078658103943
0.004926108289510012 0.573345959186554 0.9229248762130737 0.4470588266849518 0.4313725531101227 0.41960784792900085
0.1551724076271057 0.6199273467063904 0.00830039568245411 0.7058823704719543 0.6980392336845398 0.6078431606292725
0.21773399412631989 0.5119217038154602 0.9901185631752014 0.4274509847164154 0.4156862795352936 0.3803921639919281
0.004433497320860624 0.5340281128883362 0.7418972253799438 0.5490196347236633 0.5607843399047852 0.4941176474094391
0.004926108289510012 0.610137403011322 0.7743083238601685 0.6666666865348816 0.6705882549285889 0.6392157077789307
0.005172413773834705 0.5896099805831909 0.9498023986816406 0.4000000059604645 0.3803921639919281 0.35686275362968445
0.004187192302197218 0.4740249514579773 0.7968379259109497 0.5490196347236633 0.5411764979362488 0.4941176474094391
0.05073891580104828 0.494710236787796 0.008695651777088642 0.5490196347236633 0.545098066329956 0.46666666865348816
0.13325123488903046 0.5965577363967896 0.9909090995788574 0.3490196168422699 0.33725491166114807 0.3019607961177826
0.18325123190879822 0.5171324610710144 0.9901185631752014 0.3960784375667572 0.38823530077934265 0.34117648005485535
0.0064039407297968864 0.5602400302886963 0.1715414971113205 0.6823529601097107 0.6745098233222961 0.6235294342041016
0.004926108289510012 0.4776567220687866 0.34624505043029785 0.6117647290229797 0.6196078658103943 0.5333333611488342
0.18349753320217133 0.5720827579498291 0.9909090995788574 0.3529411852359772 0.3450980484485626 0.2980392277240753
0.005172413773834705 0.5191852450370789 0.42490118741989136 0.6117647290229797 0.6196078658103943 0.5647059082984924
0.028817733749747276 0.5657666325569153 0.9905138611793518 0.24313725531101227 0.2235294133424759 0.20000000298023224
0.004679802805185318 0.556450366973877 0.6822134256362915 0.615686297416687 0.6196078658103943 0.5960784554481506
0.14975368976593018 0.5692405104637146 0.9905138611793518 0.3137255012989044 0.3137255012989044 0.27450981736183167
0.1465517282485962 0.5213958621025085 0.007509881630539894 0.5333333611488342 0.5843137502670288 0.5176470875740051
0.2416256219148636 0.5782409310340881 0.0071146246045827866 0.658823549747467 0.6705882549285889 0.5960784554481506
0.23916256427764893 0.6300331354141235 0.007905138656497002 0.5843137502670288 0.5764706134796143 0.5254902243614197
0.004433497320860624 0.5032370090484619 0.582608699798584 0.5882353186607361 0.5921568870544434 0.5372549295425415
0.004187192302197218 0.4980262219905853 0.6584980487823486 0.5607843399047852 0.5686274766921997 0.48627451062202454
0.005418719258159399 0.529133141040802 0.4019762873649597 0.6117647290229797 0.6196078658103943 0.5764706134796143
0.005172413773834705 0.5141323208808899 0.39407113194465637 0.6039215922355652 0.6117647290229797 0.5568627715110779
0.06108374521136284 0.5373440980911255 0.9905138611793518 0.32549020648002625 0.3137255012989044 0.2862745225429535
0.20837438106536865 0.6054002642631531 0.007905138656497002 0.529411792755127 0.5333333611488342 0.47843137383461
0.006157635245472193 0.615979790687561 0.3897233307361603 0.6745098233222961 0.686274528503418 0.6509804129600525
0.007389162667095661 0.6167693138122559 0.0940711498260498 0.6784313917160034 0.686274528503418 0.6313725709915161
0.006157635245472193 0.5215537548065186 0.14505928754806519 0.658823549747467 0.6627451181411743 0.5921568870544434
0.014778325334191322 0.5763460993766785 0.009486165829002857 0.45098039507865906 0.45098039507865906 0.41960784792900085
0.035467978566884995 0.4804989695549011 0.9897233247756958 0.3333333432674408 0.32156863808631897 0.2862745225429535
0.02733990177512169 0.5278698801994324 0.9901185631752014 0.30980393290519714 0.2980392277240753 0.26274511218070984
0.004679802805185318 0.5049739480018616 0.5478261113166809 0.5843137502670288 0.5960784554481506 0.529411792755127
0.04605911299586296 0.4939207434654236 0.9901185631752014 0.3019607961177826 0.29411765933036804 0.24705882370471954
0.10541871935129166 0.5588188767433167 0.007905138656497002 0.5921568870544434 0.6000000238418579 0.5176470875740051
0.0517241396009922 0.6185062527656555 0.9909090995788574 0.3019607961177826 0.29019609093666077 0.2705882489681244
0.005418719258159399 0.567977249622345 0.48260870575904846 0.6313725709915161 0.6274510025978088 0.6117647290229797
0.14753694832324982 0.5229749083518982 0.007509881630539894 0.5372549295425415 0.5882353186607361 0.5490196347236633
0.007635468151420355 0.6249802708625793 0.08735177665948868 0.6784313917160034 0.6941176652908325 0.6274510025978088
0.06650245934724808 0.5024474859237671 0.00830039568245411 0.5882353186607361 0.6000000238418579 0.5333333611488342
0.004926108289510012 0.5531343817710876 0.926877498626709 0.40784314274787903 0.3960784375667572 0.3686274588108063
0.09704433381557465 0.48397284746170044 0.9901185631752014 0.364705890417099 0.35686275362968445 0.30980393290519714
0.029064038768410683 0.5275540947914124 0.9901185631752014 0.30588236451148987 0.29411765933036804 0.2666666805744171
0.0674876868724823 0.5022895932197571 0.9901185631752014 0.3450980484485626 0.3333333432674408 0.2980392277240753
0.031527094542980194 0.5922943353652954 0.009486165829002857 0.5529412031173706 0.5372549295425415 0.4941176474094391
0.004433497320860624 0.4921838045120239 0.747035562992096 0.5529412031173706 0.5490196347236633 0.46666666865348816
0.07364532351493835 0.5801358222961426 0.9905138611793518 0.27843138575553894 0.2666666805744171 0.23137255012989044
0.04162561520934105 0.6243486404418945 0.9909090995788574 0.3294117748737335 0.3176470696926117 0.29019609093666077
0.2460591197013855 0.6235591173171997 0.9932806491851807 0.3803921639919281 0.3803921639919281 0.3803921639919281
0.005172413773834705 0.48176220059394836 0.26245060563087463 0.6627451181411743 0.6705882549285889 0.615686297416687
0.005172413773834705 0.627032995223999 0.7430830001831055 0.6901960968971252 0.6901960968971252 0.6431372761726379
0.004679802805185318 0.5430285930633545 0.8750988245010376 0.501960813999176 0.48627451062202454 0.45098039507865906
0.004433497320860624 0.48965734243392944 0.5517786741256714 0.5882353186607361 0.5960784554481506 0.5411764979362488
0.00665024621412158 0.5813990235328674 0.16758893430233002 0.6823529601097107 0.6941176652908325 0.6196078658103943
0.12832511961460114 0.5941891670227051 0.9909090995788574 0.32156863808631897 0.32156863808631897 0.27450981736183167
0.21970443427562714 0.6189799308776855 0.007905138656497002 0.5843137502670288 0.5803921818733215 0.501960813999176
0.004679802805185318 0.5630822777748108 0.7039525508880615 0.6274510025978088 0.6274510025978088 0.6196078658103943
0.004679802805185318 0.5174483060836792 0.5426877737045288 0.5882353186607361 0.5960784554481506 0.5411764979362488
0.21330049633979797 0.4853939712047577 0.9901185631752014 0.40784314274787903 0.3960784375667572 0.3686274588108063
0.005665024742484093 0.5528185963630676 0.39249011874198914 0.6235294342041016 0.6313725709915161 0.5882353186607361
0.10147783160209656 0.5561345219612122 0.9905138611793518 0.3490196168422699 0.33725491166114807 0.3019607961177826
0.14950738847255707 0.5305542349815369 0.007509881630539894 0.615686297416687 0.5882353186607361 0.5137255191802979
0.15640394389629364 0.5447655320167542 0.0071146246045827866 0.6078431606292725 0.6117647290229797 0.5568627715110779
0.004433497320860624 0.5090793967247009 0.6707509756088257 0.5490196347236633 0.5607843399047852 0.47843137383461
0.005911330226808786 0.5990841388702393 0.38181817531585693 0.6549019813537598 0.6549019813537598 0.6078431606292725
0.02413793094456196 0.5356071591377258 0.9901185631752014 0.2823529541492462 0.2705882489681244 0.23529411852359772
0.0278325118124485 0.5575556755065918 0.00909090880304575 0.6313725709915161 0.6431372761726379 0.6000000238418579
0.0064039407297968864 0.579030454158783 0.25256916880607605 0.6784313917160034 0.6784313917160034 0.6313725709915161
0.004926108289510012 0.5469761490821838 0.6007905006408691 0.6078431606292725 0.6117647290229797 0.5803921818733215
0.00665024621412158 0.5098689198493958 0.050197627395391464 0.22745098173618317 0.21568627655506134 0.19607843458652496
0.07093595713376999 0.6147165894508362 0.009486165829002857 0.5960784554481506 0.5843137502670288 0.5647059082984924
0.006157635245472193 0.6264013648033142 0.4075098931789398 0.6784313917160034 0.6901960968971252 0.6549019813537598
0.04605911299586296 0.4939207434654236 0.9901185631752014 0.3019607961177826 0.29411765933036804 0.24705882370471954
0.004926108289510012 0.5930838584899902 0.700790524482727 0.6823529601097107 0.686274528503418 0.6627451181411743
0.037931036204099655 0.5101847648620605 0.9901185631752014 0.3333333432674408 0.32156863808631897 0.2862745225429535
0.004926108289510012 0.5853465795516968 0.9229248762130737 0.45098039507865906 0.43529412150382996 0.3921568691730499
0.00665024621412158 0.6019264459609985 0.21501976251602173 0.6666666865348816 0.6784313917160034 0.6117647290229797
0.17906403541564941 0.6006631851196289 0.991304337978363 0.3607843220233917 0.3450980484485626 0.30980393290519714
0.004926108289510012 0.568135142326355 0.5932806134223938 0.6431372761726379 0.6431372761726379 0.6117647290229797
0.005418719258159399 0.5900837182998657 0.5067193508148193 0.6549019813537598 0.658823549747467 0.6274510025978088
0.0672413781285286 0.4740249514579773 0.00830039568245411 0.5529412031173706 0.545098066329956 0.48627451062202454
0.005172413773834705 0.6248223781585693 0.8944664001464844 0.5333333611488342 0.5333333611488342 0.48627451062202454
0.08793103694915771 0.5171324610710144 0.9905138611793518 0.35686275362968445 0.3450980484485626 0.3176470696926117
0.24310344457626343 0.5026053786277771 0.0071146246045827866 0.529411792755127 0.545098066329956 0.45490196347236633
0.007881773635745049 0.6230854392051697 0.0731225311756134 0.6784313917160034 0.6901960968971252 0.615686297416687
0.0714285746216774 0.5959261059761047 0.9909090995788574 0.30588236451148987 0.29411765933036804 0.27450981736183167
0.006157635245472193 0.5261329412460327 0.14347825944423676 0.6627451181411743 0.6666666865348816 0.5960784554481506
0.0064039407297968864 0.4825517237186432 0.09249012172222137 0.6666666865348816 0.6784313917160034 0.6039215922355652
0.004679802805185318 0.5531343817710876 0.8300395011901855 0.529411792755127 0.5254902243614197 0.45490196347236633
0.15394088625907898 0.4912363886833191 0.9901185631752014 0.37254902720451355 0.3607843220233917 0.32549020648002625
0.006157635245472193 0.4795515537261963 0.1142292469739914 0.6627451181411743 0.6627451181411743 0.615686297416687
0.11182265728712082 0.5019738078117371 0.00830039568245411 0.5058823823928833 0.5176470875740051 0.45098039507865906
0.004926108289510012 0.6025580167770386 0.6893280744552612 0.6941176652908325 0.7019608020782471 0.658823549747467
0.005911330226808786 0.5828201770782471 0.35612648725509644 0.6313725709915161 0.6431372761726379 0.5764706134796143
0.005665024742484093 0.551713228225708 0.34150198101997375 0.6274510025978088 0.6431372761726379 0.5764706134796143
0.00665024621412158 0.5971893072128296 0.19169960916042328 0.6705882549285889 0.686274528503418 0.6196078658103943
0.004679802805185318 0.5482394099235535 0.7011857628822327 0.5843137502670288 0.5843137502670288 0.545098066329956
0.04039409011602402 0.5210800766944885 0.9901185631752014 0.32156863808631897 0.30980393290519714 0.2823529541492462
0.16847290098667145 0.5575556755065918 0.9905138611793518 0.37254902720451355 0.37254902720451355 0.3333333432674408
0.004679802805185318 0.5916627049446106 0.7620553374290466 0.6509804129600525 0.6549019813537598 0.6235294342041016
0.1901477873325348 0.5381335616111755 0.006719367578625679 0.5254902243614197 0.5490196347236633 0.4941176474094391
0.005418719258159399 0.5686088800430298 0.469565212726593 0.6313725709915161 0.6352941393852234 0.6039215922355652
0.005172413773834705 0.6264013648033142 0.9051383137702942 0.5137255191802979 0.5137255191802979 0.46666666865348816
0.005665024742484093 0.6314542889595032 0.560869574546814 0.6705882549285889 0.6941176652908325 0.6470588445663452
0.11995074152946472 0.48997315764427185 0.9901185631752014 0.38823530077934265 0.3803921639919281 0.3333333432674408
0.0475369468331337 0.6084004640579224 0.009486165829002857 0.5411764979362488 0.529411792755127 0.4941176474094391
0.004679802805185318 0.4966050982475281 0.9316205382347107 0.4156862795352936 0.40392157435417175 0.3686274588108063
0.005665024742484093 0.49897363781929016 0.17035573720932007 0.6549019813537598 0.6705882549285889 0.6117647290229797
0.005418719258159399 0.5319753885269165 0.36166009306907654 0.615686297416687 0.6313725709915161 0.572549045085907
0.08669950813055038 0.5862939953804016 0.9909090995788574 0.25882354378700256 0.24705882370471954 0.21960784494876862
0.17290639877319336 0.5308700203895569 0.0071146246045827866 0.5372549295425415 0.5490196347236633 0.4431372582912445
0.185960590839386 0.6016106009483337 0.991304337978363 0.364705890417099 0.3529411852359772 0.3333333432674408
0.004679802805185318 0.49628928303718567 0.5241106748580933 0.5921568870544434 0.6039215922355652 0.5372549295425415
0.004679802805185318 0.5176061987876892 0.6158102750778198 0.5882353186607361 0.5803921818733215 0.5215686559677124
0.004926108289510012 0.5742933750152588 0.6505928635597229 0.6549019813537598 0.6549019813537598 0.6470588445663452
0.0517241396009922 0.5209221243858337 0.008695651777088642 0.5490196347236633 0.5411764979362488 0.48235294222831726
0.00665024621412158 0.6052423715591431 0.24268774688243866 0.6627451181411743 0.6784313917160034 0.6196078658103943
0.005418719258159399 0.6080846190452576 0.5363636612892151 0.658823549747467 0.6705882549285889 0.6274510025978088
0.004433497320860624 0.518395721912384 0.8229249119758606 0.5254902243614197 0.5137255191802979 0.4470588266849518
0.004926108289510012 0.507342517375946 0.46126481890678406 0.6000000238418579 0.615686297416687 0.5568627715110779
0.18546797335147858 0.6151902675628662 0.9916995763778687 0.3529411852359772 0.3529411852359772 0.32156863808631897
0.24359606206417084 0.5881888270378113 0.991304337978363 0.3686274588108063 0.3686274588108063 0.3294117748737335
0.17536945641040802 0.5656087398529053 0.9905138611793518 0.33725491166114807 0.3294117748737335 0.2823529541492462
0.00665024621412158 0.6172429919242859 0.24347825348377228 0.6627451181411743 0.6784313917160034 0.6196078658103943
0.07758620381355286 0.573661744594574 0.9905138611793518 0.3137255012989044 0.3019607961177826 0.2666666805744171
0.006157635245472193 0.5019738078117371 0.11383399367332458 0.6627451181411743 0.6666666865348816 0.6117647290229797
0.11330049484968185 0.6252960562705994 0.008695651777088642 0.5647059082984924 0.5803921818733215 0.5215686559677124
0.1302955597639084 0.6289278268814087 0.991304337978363 0.2980392277240753 0.3019607961177826 0.2705882489681244
0.004187192302197218 0.4921838045120239 0.6498023867607117 0.5647059082984924 0.572549045085907 0.4901960790157318
0.005911330226808786 0.5373440980911255 0.25138339400291443 0.6666666865348816 0.6823529601097107 0.615686297416687
0.004433497320860624 0.48949944972991943 0.760869562625885 0.5568627715110779 0.5529412031173706 0.48235294222831726
0.005172413773834705 0.6071372032165527 0.6553359627723694 0.6901960968971252 0.6941176652908325 0.6705882549285889
0.0064039407297968864 0.6172429919242859 0.2857707440853119 0.6549019813537598 0.6705882549285889 0.615686297416687
0.004679802805185318 0.5618190169334412 0.7671936750411987 0.5803921818733215 0.5803921818733215 0.5490196347236633
0.18817734718322754 0.4880783259868622 0.007509881630539894 0.5607843399047852 0.5568627715110779 0.48627451062202454
0.0064039407297968864 0.5698720812797546 0.21106719970703125 0.686274528503418 0.6901960968971252 0.6274510025978088
0.006157635245472193 0.5607137084007263 0.24347825348377228 0.6784313917160034 0.6941176652908325 0.6352941393852234
0.1268472969532013 0.5804516077041626 0.007905138656497002 0.6470588445663452 0.6470588445663452 0.5529412031173706
0.0064039407297968864 0.5321332812309265 0.11778656393289566 0.6627451181411743 0.6666666865348816 0.5960784554481506
0.004926108289510012 0.5506079196929932 0.9225296378135681 0.42352941632270813 0.4117647111415863 0.3843137323856354
0.005665024742484093 0.5941891670227051 0.4316205680370331 0.6627451181411743 0.6666666865348816 0.6352941393852234
0.21650245785713196 0.6298752427101135 0.007905138656497002 0.47843137383461 0.48235294222831726 0.4274509847164154
0.02857142873108387 0.5973471999168396 0.009881422854959965 0.42352941632270813 0.42352941632270813 0.3764705955982208
0.0064039407297968864 0.5534501671791077 0.18498024344444275 0.6745098233222961 0.6784313917160034 0.6235294342041016
0.005172413773834705 0.5507658123970032 0.4798418879508972 0.6078431606292725 0.6196078658103943 0.5921568870544434
0.004679802805185318 0.48744669556617737 0.43992096185684204 0.6117647290229797 0.615686297416687 0.5529412031173706
0.005911330226808786 0.562134861946106 0.31383398175239563 0.6470588445663452 0.658823549747467 0.5921568870544434
0.0064039407297968864 0.6245065331459045 0.313043475151062 0.6666666865348816 0.6745098233222961 0.6313725709915161
0.13177339732646942 0.5398705005645752 0.007509881630539894 0.5333333611488342 0.5411764979362488 0.4470588266849518
0.006157635245472193 0.6300331354141235 0.4367589056491852 0.686274528503418 0.6901960968971252 0.6666666865348816
0.05714285746216774 0.5851886868476868 0.00909090880304575 0.545098066329956 0.5372549295425415 0.48627451062202454
0.00665024621412158 0.6077688336372375 0.21106719970703125 0.6705882549285889 0.6823529601097107 0.615686297416687
0.10197044163942337 0.5753986835479736 0.00830039568245411 0.6117647290229797 0.6000000238418579 0.5411764979362488
0.006157635245472193 0.5963997840881348 0.3063241243362427 0.6509804129600525 0.6627451181411743 0.5960784554481506
0.0753694549202919 0.5376598834991455 0.9905138611793518 0.3529411852359772 0.34117648005485535 0.30588236451148987
0.005665024742484093 0.5302384495735168 0.2853755056858063 0.6431372761726379 0.658823549747467 0.5921568870544434
0.005172413773834705 0.6151902675628662 0.9067193865776062 0.4941176474094391 0.5058823823928833 0.43921568989753723
0.004433497320860624 0.4997631311416626 0.730434775352478 0.545098066329956 0.5529412031173706 0.46666666865348816
0.18743842840194702 0.49628928303718567 0.9901185631752014 0.40392157435417175 0.3960784375667572 0.3490196168422699
0.07339901477098465 0.5171324610710144 0.9905138611793518 0.3529411852359772 0.34117648005485535 0.30588236451148987
0.12093596160411835 0.5030791163444519 0.9901185631752014 0.3960784375667572 0.3843137323856354 0.3490196168422699
0.10665024816989899 0.5924522280693054 0.00830039568245411 0.6078431606292725 0.6000000238418579 0.5176470875740051
0.010098522529006004 0.599242091178894 0.03596837818622589 0.250980406999588 0.21568627655506134 0.18039216101169586
0.004679802805185318 0.47907784581184387 0.41304346919059753 0.615686297416687 0.6078431606292725 0.5490196347236633
0.005172413773834705 0.604926586151123 0.6743083000183105 0.6980392336845398 0.7019608020782471 0.6705882549285889
0.008128078654408455 0.4743407666683197 0.015415019355714321 0.38823530077934265 0.3803921639919281 0.3333333432674408
0.005911330226808786 0.47544607520103455 0.14466403424739838 0.6627451181411743 0.6705882549285889 0.6274510025978088
0.190640389919281 0.562766432762146 0.9905138611793518 0.3686274588108063 0.35686275362968445 0.3294117748737335
0.004926108289510012 0.49328911304473877 0.4150197505950928 0.6078431606292725 0.615686297416687 0.5607843399047852
0.004433497320860624 0.5065529942512512 0.7154150009155273 0.545098066329956 0.5529412031173706 0.47058823704719543
0.04334975406527519 0.5591346621513367 0.9905138611793518 0.3019607961177826 0.29019609093666077 0.26274511218070984
0.06256157904863358 0.5221853852272034 0.008695651777088642 0.40392157435417175 0.4156862795352936 0.3490196168422699
0.21674877405166626 0.47797253727912903 0.0071146246045827866 0.686274528503418 0.6823529601097107 0.6039215922355652
0.005911330226808786 0.5948207974433899 0.3889327943325043 0.6627451181411743 0.6549019813537598 0.6039215922355652
0.006157635245472193 0.599399983882904 0.3229249119758606 0.6470588445663452 0.6627451181411743 0.6039215922355652
0.0064039407297968864 0.5545554757118225 0.1774703562259674 0.6823529601097107 0.686274528503418 0.6235294342041016
0.0674876868724823 0.6282961964607239 0.009881422854959965 0.4901960790157318 0.47843137383461 0.4431372582912445
0.0064039407297968864 0.6306647658348083 0.3596837818622589 0.6745098233222961 0.686274528503418 0.6509804129600525
0.004433497320860624 0.507342517375946 0.6359683871269226 0.5686274766921997 0.5803921818733215 0.49803921580314636
0.08793103694915771 0.5062371492385864 0.9905138611793518 0.3607843220233917 0.3490196168422699 0.3137255012989044
0.005665024742484093 0.4969208836555481 0.17865613102912903 0.6549019813537598 0.6705882549285889 0.615686297416687
0.21280787885189056 0.6058740019798279 0.991304337978363 0.364705890417099 0.364705890417099 0.3333333432674408
0.005418719258159399 0.5935575366020203 0.507905125617981 0.658823549747467 0.6627451181411743 0.6392157077789307
0.004433497320860624 0.4748144745826721 0.864426851272583 0.47843137383461 0.46666666865348816 0.4313725531101227
0.1315270960330963 0.4861834943294525 0.9901185631752014 0.4156862795352936 0.40784314274787903 0.35686275362968445
0.0064039407297968864 0.5586609840393066 0.20711462199687958 0.6784313917160034 0.6901960968971252 0.615686297416687
0.005172413773834705 0.6192957758903503 0.8952569365501404 0.5215686559677124 0.5215686559677124 0.4745098054409027
0.23571428656578064 0.6145586371421814 0.007509881630539894 0.5411764979362488 0.5215686559677124 0.4431372582912445
0.08694580942392349 0.5146060585975647 0.9905138611793518 0.35686275362968445 0.3450980484485626 0.30980393290519714
0.12044335156679153 0.5798199772834778 0.007905138656497002 0.5529412031173706 0.5529412031173706 0.5215686559677124
0.004926108289510012 0.5818727016448975 0.64861661195755 0.6627451181411743 0.6627451181411743 0.6313725709915161
0.03645320236682892 0.48176220059394836 0.9897233247756958 0.33725491166114807 0.32549020648002625 0.29019609093666077
0.004679802805185318 0.5610295534133911 0.6482213735580444 0.6313725709915161 0.6313725709915161 0.6392157077789307
0.004926108289510012 0.4849202632904053 0.38300395011901855 0.5960784554481506 0.6078431606292725 0.5254902243614197
0.004679802805185318 0.5485551953315735 0.7909091114997864 0.5568627715110779 0.5490196347236633 0.501960813999176
0.2224137932062149 0.54034423828125 0.006719367578625679 0.5411764979362488 0.5490196347236633 0.4627451002597809
0.20098522305488586 0.5945049524307251 0.007509881630539894 0.4470588266849518 0.47058823704719543 0.42352941632270813
0.006157635245472193 0.5090793967247009 0.10039525479078293 0.6745098233222961 0.6666666865348816 0.6196078658103943
0.2381773442029953 0.6183483600616455 0.992094874382019 0.3803921639919281 0.3764705955982208 0.3607843220233917
0.24532020092010498 0.5979788303375244 0.007509881630539894 0.5058823823928833 0.5137255191802979 0.4627451002597809
0.007881773635745049 0.6172429919242859 0.048616599291563034 0.24705882370471954 0.23529411852359772 0.16078431904315948
0.23891626298427582 0.5547134280204773 0.9905138611793518 0.40784314274787903 0.4000000059604645 0.3529411852359772
0.004679802805185318 0.5280277729034424 0.9332015514373779 0.4000000059604645 0.38823530077934265 0.3529411852359772
0.006157635245472193 0.5008684396743774 0.1039525717496872 0.6784313917160034 0.6823529601097107 0.6274510025978088
0.08497536927461624 0.6128216981887817 0.00909090880304575 0.529411792755127 0.5333333611488342 0.501960813999176
0.004926108289510012 0.5970314145088196 0.8482213616371155 0.5764706134796143 0.5647059082984924 0.529411792755127
0.18128079175949097 0.5760303139686584 0.9909090995788574 0.3490196168422699 0.33725491166114807 0.3019607961177826
0.00665024621412158 0.567819356918335 0.16007904708385468 0.686274528503418 0.6784313917160034 0.6274510025978088
0.0064039407297968864 0.6289278268814087 0.3482213318347931 0.6745098233222961 0.6823529601097107 0.6392157077789307
0.021182265132665634 0.5041844248771667 0.009486165829002857 0.4941176474094391 0.5098039507865906 0.45098039507865906
0.08448275923728943 0.5555028915405273 0.00830039568245411 0.5686274766921997 0.5607843399047852 0.47058823704719543
0.11650246381759644 0.6012948155403137 0.00830039568245411 0.5176470875740051 0.5333333611488342 0.4431372582912445
0.004433497320860624 0.5078161954879761 0.7731225490570068 0.5411764979362488 0.5490196347236633 0.46666666865348816
0.12807881832122803 0.5782409310340881 0.9909090995788574 0.33725491166114807 0.32549020648002625 0.29019609093666077
0.005418719258159399 0.626559317111969 0.9644268751144409 0.3960784375667572 0.3843137323856354 0.3176470696926117
0.005172413773834705 0.5965577363967896 0.9743083119392395 0.3294117748737335 0.3137255012989044 0.27843138575553894
0.00665024621412158 0.6279804110527039 0.25217390060424805 0.6549019813537598 0.6784313917160034 0.6235294342041016
0.005172413773834705 0.6194536685943604 0.7288537621498108 0.6941176652908325 0.6941176652908325 0.6470588445663452
0.0064039407297968864 0.5578714609146118 0.16916996240615845 0.6823529601097107 0.6745098233222961 0.6235294342041016
0.005418719258159399 0.6200852394104004 0.6328063011169434 0.6823529601097107 0.686274528503418 0.6627451181411743
0.005418719258159399 0.5916627049446106 0.5130434632301331 0.6509804129600525 0.6549019813537598 0.6235294342041016
0.005172413773834705 0.6079267263412476 0.9339920878410339 0.4627451002597809 0.4431372582912445 0.3686274588108063
0.0064039407297968864 0.5741354823112488 0.23122529685497284 0.6823529601097107 0.6901960968971252 0.6352941393852234
0.004926108289510012 0.5888204574584961 0.8849802613258362 0.5058823823928833 0.49803921580314636 0.4470588266849518
0.23152709007263184 0.5367124676704407 0.9905138611793518 0.35686275362968445 0.35686275362968445 0.30980393290519714
0.004926108289510012 0.5885046720504761 0.6731225252151489 0.6823529601097107 0.686274528503418 0.6627451181411743
0.0064039407297968864 0.5452392101287842 0.11936759203672409 0.6745098233222961 0.6666666865348816 0.615686297416687
0.005172413773834705 0.6123480200767517 0.8786561489105225 0.5411764979362488 0.5411764979362488 0.501960813999176
0.1032019704580307 0.5894520878791809 0.9909090995788574 0.3176470696926117 0.3176470696926117 0.27843138575553894
0.009852216579020023 0.5905573964118958 0.03913043439388275 0.250980406999588 0.2078431397676468 0.18431372940540314
0.004433497320860624 0.5101847648620605 0.6794466376304626 0.5529412031173706 0.5647059082984924 0.48235294222831726
0.004679802805185318 0.545870840549469 0.6075099110603333 0.6078431606292725 0.615686297416687 0.572549045085907
0.10935960710048676 0.6044528484344482 0.008695651777088642 0.48627451062202454 0.48235294222831726 0.4745098054409027
0.05467980355024338 0.6060318946838379 0.9909090995788574 0.30588236451148987 0.29411765933036804 0.27450981736183167
0.03423645347356796 0.4975525140762329 0.9897233247756958 0.32549020648002625 0.3137255012989044 0.27843138575553894
0.2460591197013855 0.5795041918754578 0.0071146246045827866 0.4627451002597809 0.45098039507865906 0.3843137323856354
