0.017241379246115685 0.6903521418571472 0.011857707053422928 0.43921568989753723 0.4431372582912445 0.38823530077934265
0.006896551698446274 0.6594031453132629 0.30869564414024353 0.6470588445663452 0.6745098233222961 0.6117647290229797
0.0064039407297968864 0.5649771094322205 0.17984189093112946 0.6901960968971252 0.6823529601097107 0.6313725709915161
0.05443349853157997 0.6054002642631531 0.009486165829002857 0.6039215922355652 0.6039215922355652 0.572549045085907
0.0278325118124485 0.6404547691345215 0.9909090995788574 0.3490196168422699 0.33725491166114807 0.3176470696926117
0.24334976077079773 0.6739302277565002 0.007905138656497002 0.545098066329956 0.5333333611488342 0.46666666865348816
0.005665024742484093 0.5629243850708008 0.395256906747818 0.6274510025978088 0.6274510025978088 0.5803921818733215
0.004679802805185318 0.5589767694473267 0.8422924876213074 0.5098039507865906 0.5098039507865906 0.47058823704719543
0.0071428571827709675 0.6944575905799866 0.3905138373374939 0.6666666865348816 0.6705882549285889 0.6470588445663452
0.0064039407297968864 0.5580293536186218 0.21067193150520325 0.686274528503418 0.6980392336845398 0.6235294342041016
0.005172413773834705 0.6174009442329407 0.887747049331665 0.529411792755127 0.529411792755127 0.48235294222831726
0.17339901626110077 0.5793462991714478 0.007509881630539894 0.6313725709915161 0.6470588445663452 0.5921568870544434
0.1302955597639084 0.6537185907363892 0.9909090995788574 0.4000000059604645 0.3843137323856354 0.38823530077934265
0.004926108289510012 0.5801358222961426 0.6833992004394531 0.6705882549285889 0.6745098233222961 0.6549019813537598
0.009359605610370636 0.7056687474250793 0.09090909361839294 0.6784313917160034 0.6980392336845398 0.6196078658103943
0.01034482754766941 0.6897205114364624 0.013833992183208466 0.41960784792900085 0.4117647111415863 0.3607843220233917
0.08497536927461624 0.6358755826950073 0.009486165829002857 0.6196078658103943 0.6117647290229797 0.5647059082984924
0.0064039407297968864 0.7096163034439087 0.6976284384727478 0.7137255072593689 0.7176470756530762 0.6627451181411743
0.12192118167877197 0.6744039058685303 0.9909090995788574 0.42352941632270813 0.40784314274787903 0.3960784375667572
0.0716748759150505 0.6999841928482056 0.9905138611793518 0.47058823704719543 0.45490196347236633 0.4117647111415863
0.21206896007061005 0.5690825581550598 0.9909090995788574 0.38823530077934265 0.3803921639919281 0.3333333432674408
0.06527093797922134 0.6742460131645203 0.9905138611793518 0.43529412150382996 0.4274509847164154 0.3764705955982208
0.1830049306154251 0.6837201714515686 0.00830039568245411 0.6392157077789307 0.6235294342041016 0.5764706134796143
0.005911330226808786 0.5711353421211243 0.3747035562992096 0.6352941393852234 0.6235294342041016 0.5647059082984924
0.02857142873108387 0.6687194108963013 0.9905138611793518 0.3176470696926117 0.30980393290519714 0.26274511218070984
0.01945812813937664 0.6425074934959412 0.01067193690687418 0.5058823823928833 0.4941176474094391 0.46666666865348816
0.20960591733455658 0.6003473997116089 0.007509881630539894 0.5529412031173706 0.5607843399047852 0.4745098054409027
0.005418719258159399 0.6633507013320923 0.8241106867790222 0.6392157077789307 0.6470588445663452 0.6039215922355652
0.006896551698446274 0.5839254856109619 0.13913042843341827 0.6784313917160034 0.6901960968971252 0.615686297416687
0.05911330133676529 0.7050371170043945 0.010276679880917072 0.5058823823928833 0.49803921580314636 0.4470588266849518
0.007389162667095661 0.6901942491531372 0.30553358793258667 0.6392157077789307 0.6549019813537598 0.6000000238418579
0.005172413773834705 0.6421917080879211 0.8169960379600525 0.6313725709915161 0.6431372761726379 0.6000000238418579
0.2418719232082367 0.5921364426612854 0.991304337978363 0.38823530077934265 0.38823530077934265 0.34117648005485535
0.23103448748588562 0.6804042458534241 0.9952569007873535 0.95686274766922 0.9686274528503418 0.9882352948188782
0.07906404137611389 0.5894520878791809 0.008695651777088642 0.6509804129600525 0.6392157077789307 0.5803921818733215
0.13399015367031097 0.6980893611907959 0.9905138611793518 0.3960784375667572 0.3921568691730499 0.3843137323856354
0.004926108289510012 0.604768693447113 0.7573122382164001 0.6705882549285889 0.6823529601097107 0.6470588445663452
0.09679803252220154 0.6181904077529907 0.00909090880304575 0.5529412031173706 0.5568627715110779 0.5254902243614197
0.009359605610370636 0.6080846190452576 0.03913043439388275 0.2705882489681244 0.23137255012989044 0.19607843458652496
0.006157635245472193 0.7040897011756897 0.9106719493865967 0.5372549295425415 0.545098066329956 0.501960813999176
0.005172413773834705 0.6080846190452576 0.918181836605072 0.48235294222831726 0.47843137383461 0.40784314274787903
0.198029562830925 0.6560871601104736 0.9968379735946655 0.9960784316062927 1.0 1.0
0.10073891282081604 0.6954050064086914 0.00909090880304575 0.5058823823928833 0.49803921580314636 0.4470588266849518
0.2145320177078247 0.5526606440544128 0.9905138611793518 0.3843137323856354 0.3764705955982208 0.3294117748737335
0.006157635245472193 0.6898784041404724 0.6992095112800598 0.7176470756530762 0.7215686440467834 0.658823549747467
0.006157635245472193 0.6879835724830627 0.7252964377403259 0.7176470756530762 0.7215686440467834 0.6509804129600525
0.007389162667095661 0.6505605578422546 0.21778656542301178 0.6549019813537598 0.686274528503418 0.6274510025978088
0.00665024621412158 0.5591346621513367 0.14743083715438843 0.686274528503418 0.6784313917160034 0.6313725709915161
0.007389162667095661 0.7034580707550049 0.2652173936367035 0.6352941393852234 0.6666666865348816 0.6078431606292725
0.19926108419895172 0.648823618888855 0.9972332119941711 1.0 1.0 1.0
0.005172413773834705 0.6125059127807617 0.9632411003112793 0.3960784375667572 0.3803921639919281 0.33725491166114807
0.007881773635745049 0.6414021849632263 0.13201580941677094 0.6784313917160034 0.6941176652908325 0.6274510025978088
0.11354679614305496 0.6234012246131897 0.008695651777088642 0.545098066329956 0.5529412031173706 0.5098039507865906
0.22044335305690765 0.7031422853469849 0.007905138656497002 0.545098066329956 0.5137255191802979 0.4627451002597809
0.00665024621412158 0.6658771634101868 0.34703558683395386 0.6745098233222961 0.686274528503418 0.6431372761726379
0.1669950783252716 0.6349281668663025 0.00830039568245411 0.7647058963775635 0.7647058963775635 0.7254902124404907
0.005418719258159399 0.6534028053283691 0.7434782385826111 0.7019608020782471 0.7098039388656616 0.658823549747467
0.004926108289510012 0.5891362428665161 0.7193675637245178 0.6705882549285889 0.6745098233222961 0.6509804129600525
0.007389162667095661 0.6354018449783325 0.17588932812213898 0.6745098233222961 0.6901960968971252 0.6313725709915161
0.21699507534503937 0.5670298337936401 0.0071146246045827866 0.501960813999176 0.5411764979362488 0.4470588266849518
0.00665024621412158 0.6178746223449707 0.22490118443965912 0.6666666865348816 0.6823529601097107 0.6235294342041016
0.13669951260089874 0.6358755826950073 0.00830039568245411 0.5254902243614197 0.5372549295425415 0.501960813999176
0.01945812813937664 0.6988788843154907 0.011857707053422928 0.49803921580314636 0.4901960790157318 0.4313725531101227
0.005911330226808786 0.6625611782073975 0.6169960498809814 0.6980392336845398 0.7098039388656616 0.6745098233222961
0.18916256725788116 0.6753513216972351 0.00830039568245411 0.5921568870544434 0.5921568870544434 0.545098066329956
0.006896551698446274 0.6778777837753296 0.2905138432979584 0.6392157077789307 0.6549019813537598 0.6000000238418579
0.2064039409160614 0.6338228583335876 0.007905138656497002 0.5333333611488342 0.5254902243614197 0.4745098054409027
0.0071428571827709675 0.6311385035514832 0.1932806372642517 0.6745098233222961 0.6901960968971252 0.6313725709915161
0.1315270960330963 0.5589767694473267 0.9905138611793518 0.3450980484485626 0.33725491166114807 0.29019609093666077
0.005665024742484093 0.6658771634101868 0.6660078763961792 0.7137255072593689 0.7176470756530762 0.686274528503418
0.023891625925898552 0.5714511275291443 0.00909090880304575 0.4941176474094391 0.48627451062202454 0.43529412150382996
0.007389162667095661 0.6638244390487671 0.21541501581668854 0.6431372761726379 0.6784313917160034 0.6117647290229797
0.005172413773834705 0.6442444324493408 0.8383399248123169 0.615686297416687 0.6235294342041016 0.5803921818733215
0.10221675038337708 0.6137691736221313 0.991304337978363 0.32156863808631897 0.30980393290519714 0.2823529541492462
0.13177339732646942 0.637612521648407 0.991304337978363 0.3450980484485626 0.3450980484485626 0.3137255012989044
0.13374383747577667 0.6714037656784058 0.00830039568245411 0.6196078658103943 0.6039215922355652 0.5607843399047852
0.17389161884784698 0.5798199772834778 0.007509881630539894 0.6000000238418579 0.6078431606292725 0.5529412031173706
0.005665024742484093 0.6777198910713196 0.8588932752609253 0.5921568870544434 0.6039215922355652 0.5686274766921997
0.005172413773834705 0.6200852394104004 0.7126482129096985 0.6901960968971252 0.7058823704719543 0.6470588445663452
0.006157635245472193 0.627348780632019 0.3798418939113617 0.6823529601097107 0.6784313917160034 0.6627451181411743
0.008620689623057842 0.6729828119277954 0.10830039530992508 0.6941176652908325 0.7058823704719543 0.6392157077789307
0.005665024742484093 0.6522974967956543 0.9517786502838135 0.43529412150382996 0.4313725531101227 0.3607843220233917
0.006157635245472193 0.6998263001441956 0.7027667760848999 0.7176470756530762 0.7254902124404907 0.6431372761726379
0.0071428571827709675 0.6243486404418945 0.16245059669017792 0.686274528503418 0.6941176652908325 0.6392157077789307
0.006157635245472193 0.6019264459609985 0.3383399248123169 0.6509804129600525 0.658823549747467 0.6039215922355652
0.008374384604394436 0.6636664867401123 0.12608695030212402 0.6784313917160034 0.7058823704719543 0.6352941393852234
0.019950738176703453 0.6873519420623779 0.9905138611793518 0.3686274588108063 0.3607843220233917 0.3137255012989044
0.006157635245472193 0.7050371170043945 0.8399209380149841 0.6235294342041016 0.6313725709915161 0.5803921818733215
0.0071428571827709675 0.6931943893432617 0.4150197505950928 0.6784313917160034 0.6784313917160034 0.6470588445663452
0.004926108289510012 0.5855044722557068 0.7964426875114441 0.6117647290229797 0.6117647290229797 0.5803921818733215
0.005172413773834705 0.5933996438980103 0.6177865862846375 0.6627451181411743 0.6666666865348816 0.6470588445663452
0.006157635245472193 0.6336649060249329 0.3944664001464844 0.6823529601097107 0.686274528503418 0.6666666865348816
0.004926108289510012 0.5888204574584961 0.8849802613258362 0.5058823823928833 0.49803921580314636 0.4470588266849518
0.1467980295419693 0.638086199760437 0.00830039568245411 0.6313725709915161 0.6352941393852234 0.6117647290229797
0.006157635245472193 0.6650876402854919 0.5363636612892151 0.686274528503418 0.7098039388656616 0.6627451181411743
0.0064039407297968864 0.6331912279129028 0.31897231936454773 0.6549019813537598 0.686274528503418 0.6431372761726379
0.01625615730881691 0.6840360164642334 0.011462450958788395 0.42352941632270813 0.42352941632270813 0.3764705955982208
0.21921181678771973 0.6684036254882812 0.00830039568245411 0.6000000238418579 0.6196078658103943 0.529411792755127
0.0071428571827709675 0.6982472538948059 0.3494071066379547 0.6470588445663452 0.658823549747467 0.615686297416687
0.10517241060733795 0.6691930890083313 0.9909090995788574 0.4313725531101227 0.41960784792900085 0.3843137323856354
0.00665024621412158 0.5891362428665161 0.1932806372642517 0.686274528503418 0.6941176652908325 0.6392157077789307
0.0064039407297968864 0.6573503613471985 0.4802371561527252 0.6784313917160034 0.6941176652908325 0.6392157077789307
0.20098522305488586 0.6385599374771118 0.007905138656497002 0.5176470875740051 0.5215686559677124 0.46666666865348816
0.08694580942392349 0.6294015645980835 0.9909090995788574 0.3490196168422699 0.33725491166114807 0.30980393290519714
0.005172413773834705 0.6301910877227783 0.7426877617835999 0.6941176652908325 0.6941176652908325 0.6470588445663452
0.22044335305690765 0.6835622787475586 0.00830039568245411 0.6470588445663452 0.658823549747467 0.5921568870544434
0.20295566320419312 0.6669824719429016 0.9956521987915039 0.95686274766922 0.9725490212440491 0.9843137264251709
0.005172413773834705 0.6147165894508362 0.6553359627723694 0.6941176652908325 0.6980392336845398 0.6745098233222961
0.005418719258159399 0.5975051522254944 0.5280632376670837 0.6549019813537598 0.658823549747467 0.6274510025978088
0.008128078654408455 0.7096163034439087 0.17905138432979584 0.6705882549285889 0.6980392336845398 0.6352941393852234
0.005172413773834705 0.5869256258010864 0.6031620502471924 0.6627451181411743 0.6666666865348816 0.6431372761726379
0.005172413773834705 0.627032995223999 0.7292490005493164 0.6980392336845398 0.6980392336845398 0.6509804129600525
0.005911330226808786 0.5684509873390198 0.35098814964294434 0.6352941393852234 0.6313725709915161 0.5490196347236633
0.008128078654408455 0.6998263001441956 0.18893280625343323 0.658823549747467 0.6823529601097107 0.6274510025978088
0.18793103098869324 0.7064582109451294 0.007905138656497002 0.5843137502670288 0.572549045085907 0.5137255191802979
0.008866994641721249 0.6518237590789795 0.03399209305644035 0.2549019753932953 0.2235294133424759 0.1725490242242813
0.20763546228408813 0.6281383037567139 0.007905138656497002 0.48235294222831726 0.48627451062202454 0.42352941632270813
0.026354679837822914 0.6090320348739624 0.9909090995788574 0.2980392277240753 0.2862745225429535 0.2666666805744171
0.005665024742484093 0.637928307056427 0.6296442747116089 0.7019608020782471 0.7058823704719543 0.6745098233222961
0.23546798527240753 0.6222959160804749 0.007509881630539894 0.5764706134796143 0.5568627715110779 0.48235294222831726
0.16379310190677643 0.5902416110038757 0.9909090995788574 0.3686274588108063 0.3607843220233917 0.3137255012989044
0.205911323428154 0.5782409310340881 0.9909090995788574 0.3764705955982208 0.3803921639919281 0.3490196168422699
0.005172413773834705 0.5668719410896301 0.5407114624977112 0.6274510025978088 0.6313725709915161 0.6000000238418579
0.005665024742484093 0.6766145825386047 0.9450592994689941 0.45490196347236633 0.4588235318660736 0.40392157435417175
0.21354679763317108 0.5528185963630676 0.9905138611793518 0.3921568691730499 0.3843137323856354 0.33725491166114807
0.005418719258159399 0.62134850025177 0.603557288646698 0.6745098233222961 0.6784313917160034 0.6470588445663452
0.006896551698446274 0.6183483600616455 0.1826086938381195 0.6784313917160034 0.6941176652908325 0.6352941393852234
0.19359606504440308 0.7070898413658142 0.9916995763778687 0.9490196108818054 0.9647058844566345 0.9686274528503418
0.004926108289510012 0.6145586371421814 0.8264822363853455 0.6039215922355652 0.615686297416687 0.5803921818733215
0.004926108289510012 0.5692405104637146 0.8549407124519348 0.5254902243614197 0.5176470875740051 0.47058823704719543
0.007389162667095661 0.6971419453620911 0.26245060563087463 0.6313725709915161 0.6666666865348816 0.6000000238418579
0.008128078654408455 0.6262434720993042 0.04980237036943436 0.2078431397676468 0.20000000298023224 0.1411764770746231
0.005418719258159399 0.6508763432502747 0.7889328002929688 0.6705882549285889 0.6784313917160034 0.6352941393852234
0.22931034862995148 0.6275067329406738 0.007905138656497002 0.5960784554481506 0.5882353186607361 0.529411792755127
0.004926108289510012 0.5921364426612854 0.7288537621498108 0.6666666865348816 0.6705882549285889 0.6470588445663452
0.1032019704580307 0.6864045262336731 0.9905138611793518 0.43921568989753723 0.4274509847164154 0.3921568691730499
0.06576354801654816 0.5771356225013733 0.008695651777088642 0.5333333611488342 0.5490196347236633 0.4901960790157318
0.004926108289510012 0.5744512677192688 0.5885375738143921 0.6431372761726379 0.6470588445663452 0.6235294342041016
0.10837438702583313 0.6718774437904358 0.00909090880304575 0.4431372582912445 0.4431372582912445 0.3960784375667572
0.004926108289510012 0.5902416110038757 0.7865612506866455 0.6274510025978088 0.6274510025978088 0.5960784554481506
0.006896551698446274 0.7018790245056152 0.4897233247756958 0.658823549747467 0.6901960968971252 0.6313725709915161
0.04605911299586296 0.6466130018234253 0.010276679880917072 0.43529412150382996 0.42352941632270813 0.38823530077934265
0.0071428571827709675 0.6982472538948059 0.39249011874198914 0.6627451181411743 0.6705882549285889 0.6509804129600525
0.0064039407297968864 0.5948207974433899 0.2664031684398651 0.6666666865348816 0.6745098233222961 0.6196078658103943
0.005172413773834705 0.6450339555740356 0.8011857867240906 0.6509804129600525 0.658823549747467 0.615686297416687
0.16822659969329834 0.6977735757827759 0.9909090995788574 0.9058823585510254 0.9176470637321472 0.9372549057006836
0.21551723778247833 0.62134850025177 0.9928853511810303 0.30980393290519714 0.30980393290519714 0.30980393290519714
0.1310344785451889 0.6196115612983704 0.00830039568245411 0.5333333611488342 0.5176470875740051 0.47058823704719543
0.1588670015335083 0.5818727016448975 0.007509881630539894 0.501960813999176 0.5058823823928833 0.45098039507865906
0.004926108289510012 0.5813990235328674 0.6837944388389587 0.6666666865348816 0.6745098233222961 0.6549019813537598
0.1467980295419693 0.5795041918754578 0.007509881630539894 0.501960813999176 0.5137255191802979 0.4470588266849518
0.005665024742484093 0.62103271484375 0.5466403365135193 0.6705882549285889 0.6823529601097107 0.6392157077789307
0.005665024742484093 0.6181904077529907 0.5300395488739014 0.6627451181411743 0.686274528503418 0.6470588445663452
0.006157635245472193 0.6227695941925049 0.35691699385643005 0.6705882549285889 0.6784313917160034 0.6352941393852234
0.006157635245472193 0.5532922744750977 0.2075098752975464 0.6823529601097107 0.6941176652908325 0.6196078658103943
0.00665024621412158 0.6425074934959412 0.29367589950561523 0.6509804129600525 0.6745098233222961 0.6196078658103943
0.005911330226808786 0.6614558696746826 0.6256917119026184 0.7058823704719543 0.7176470756530762 0.6823529601097107
0.0064039407297968864 0.610611081123352 0.2960474193096161 0.6431372761726379 0.658823549747467 0.6039215922355652
0.005911330226808786 0.6355597376823425 0.5355731248855591 0.6745098233222961 0.6901960968971252 0.6352941393852234
0.004926108289510012 0.5779251456260681 0.8687747120857239 0.5176470875740051 0.5098039507865906 0.45098039507865906
0.005172413773834705 0.6170850992202759 0.7252964377403259 0.6941176652908325 0.6980392336845398 0.6431372761726379
0.004679802805185318 0.5667140483856201 0.7083004117012024 0.6274510025978088 0.6274510025978088 0.6274510025978088
0.0071428571827709675 0.6837201714515686 0.29407113790512085 0.6235294342041016 0.6392157077789307 0.5803921818733215
0.07413793355226517 0.6303489804267883 0.9909090995788574 0.3529411852359772 0.34117648005485535 0.3137255012989044
0.050246305763721466 0.6628770232200623 0.01067193690687418 0.5137255191802979 0.5137255191802979 0.46666666865348816
0.005911330226808786 0.5956103205680847 0.3790513873100281 0.6470588445663452 0.6549019813537598 0.6117647290229797
0.008620689623057842 0.7067740559577942 0.14743083715438843 0.686274528503418 0.7019608020782471 0.6431372761726379
0.0071428571827709675 0.691299557685852 0.36600789427757263 0.6666666865348816 0.6705882549285889 0.6470588445663452
0.030295565724372864 0.6363492608070374 0.9909090995788574 0.2980392277240753 0.2862745225429535 0.25882354378700256
0.006896551698446274 0.6145586371421814 0.18853755295276642 0.6745098233222961 0.6901960968971252 0.6313725709915161
0.07807882130146027 0.7099320888519287 0.009486165829002857 0.40392157435417175 0.4000000059604645 0.32156863808631897
0.2182265967130661 0.5859782099723816 0.9909090995788574 0.34117648005485535 0.3490196168422699 0.2980392277240753
0.13349753618240356 0.7018790245056152 0.9905138611793518 0.4117647111415863 0.40784314274787903 0.4000000059604645
0.06625615805387497 0.5949786901473999 0.00909090880304575 0.5333333611488342 0.5490196347236633 0.4941176474094391
0.19310344755649567 0.6568766832351685 0.9964426755905151 0.9450980424880981 0.9607843160629272 0.95686274766922
0.0064039407297968864 0.7031422853469849 0.6225296258926392 0.7058823704719543 0.7058823704719543 0.658823549747467
0.12216749042272568 0.6780356764793396 0.008695651777088642 0.5764706134796143 0.5647059082984924 0.529411792755127
0.005665024742484093 0.6846675872802734 0.8671936988830566 0.5764706134796143 0.5882353186607361 0.5529412031173706
0.0064039407297968864 0.6549818515777588 0.40355730056762695 0.6823529601097107 0.686274528503418 0.6549019813537598
0.00665024621412158 0.616295576095581 0.2754940688610077 0.6627451181411743 0.6745098233222961 0.6313725709915161
0.004926108289510012 0.5945049524307251 0.731225311756134 0.6705882549285889 0.6745098233222961 0.6509804129600525
0.043103449046611786 0.5979788303375244 0.009486165829002857 0.6196078658103943 0.5921568870544434 0.5529412031173706
0.0064039407297968864 0.6041370630264282 0.3067193627357483 0.6392157077789307 0.6666666865348816 0.5960784554481506
0.00665024621412158 0.5738196969032288 0.14822134375572205 0.6823529601097107 0.6745098233222961 0.615686297416687
0.19137930870056152 0.6657192707061768 0.9956521987915039 0.9529411792755127 0.9686274528503418 0.9725490212440491
0.15615764260292053 0.6453497409820557 0.00830039568245411 0.6274510025978088 0.6392157077789307 0.6117647290229797
0.23226600885391235 0.5750828981399536 0.9909090995788574 0.35686275362968445 0.35686275362968445 0.3176470696926117
0.10197044163942337 0.5825043320655823 0.00830039568245411 0.5490196347236633 0.545098066329956 0.4627451002597809
0.005172413773834705 0.562292754650116 0.5146244764328003 0.6313725709915161 0.6274510025978088 0.6078431606292725
0.043842364102602005 0.5542396903038025 0.9905138611793518 0.2862745225429535 0.27450981736183167 0.24705882370471954
0.08891625702381134 0.562766432762146 0.00830039568245411 0.501960813999176 0.5137255191802979 0.43921568989753723
0.0064039407297968864 0.6363492608070374 0.3588932752609253 0.6784313917160034 0.6823529601097107 0.6509804129600525
0.06896551698446274 0.5960839986801147 0.9909090995788574 0.29411765933036804 0.2823529541492462 0.26274511218070984
0.004926108289510012 0.5791884064674377 0.9150197505950928 0.4627451002597809 0.4470588266849518 0.40392157435417175
0.18004925549030304 0.557239830493927 0.9905138611793518 0.37254902720451355 0.35686275362968445 0.3137255012989044
0.005911330226808786 0.6903521418571472 0.8675889372825623 0.5764706134796143 0.5921568870544434 0.5372549295425415
0.00665024621412158 0.5899257659912109 0.9841897487640381 0.2980392277240753 0.2823529541492462 0.24705882370471954
0.009605911560356617 0.691299557685852 0.07154150307178497 0.6941176652908325 0.7215686440467834 0.6509804129600525
0.08645319938659668 0.5922943353652954 0.9909090995788574 0.3176470696926117 0.30588236451148987 0.27843138575553894
0.007389162667095661 0.7047212719917297 0.31067192554473877 0.6313725709915161 0.6627451181411743 0.6196078658103943
0.05467980355024338 0.5774514675140381 0.9909090995788574 0.27450981736183167 0.26274511218070984 0.24313725531101227
0.23990148305892944 0.7010895013809204 0.007905138656497002 0.5372549295425415 0.545098066329956 0.4588235318660736
0.0064039407297968864 0.5984525680541992 0.25335967540740967 0.6745098233222961 0.6784313917160034 0.6235294342041016
0.022906403988599777 0.6624032855033875 0.9905138611793518 0.33725491166114807 0.3294117748737335 0.2823529541492462
0.009605911560356617 0.6917732357978821 0.06916996091604233 0.7215686440467834 0.7333333492279053 0.658823549747467
0.005418719258159399 0.6693510413169861 0.7893280386924744 0.6705882549285889 0.6784313917160034 0.6235294342041016
0.05467980355024338 0.6453497409820557 0.010276679880917072 0.5686274766921997 0.5607843399047852 0.5137255191802979
0.21551723778247833 0.6519817113876343 0.007905138656497002 0.572549045085907 0.5647059082984924 0.5137255191802979
0.0064039407297968864 0.6312963962554932 0.33083003759384155 0.658823549747467 0.6823529601097107 0.6431372761726379
0.004679802805185318 0.5701879262924194 0.7355731129646301 0.6274510025978088 0.6235294342041016 0.615686297416687
0.008866994641721249 0.7031422853469849 0.11620553582906723 0.6784313917160034 0.7058823704719543 0.6352941393852234
0.006157635245472193 0.6985630989074707 0.9383399486541748 0.4745098054409027 0.47843137383461 0.42352941632270813
0.008620689623057842 0.6519817113876343 0.04743082821369171 0.2666666805744171 0.22745098173618317 0.18039216101169586
0.006157635245472193 0.7015632390975952 0.9584980010986328 0.4431372582912445 0.4313725531101227 0.364705890417099
0.0064039407297968864 0.6090320348739624 0.29407113790512085 0.6470588445663452 0.6627451181411743 0.6078431606292725
0.00665024621412158 0.6409284472465515 0.3185770809650421 0.658823549747467 0.6823529601097107 0.6431372761726379
0.004926108289510012 0.6025580167770386 0.7411067485809326 0.6745098233222961 0.6823529601097107 0.6392157077789307
0.056896552443504333 0.7093005180358887 0.010276679880917072 0.48235294222831726 0.47058823704719543 0.3960784375667572
0.00665024621412158 0.6128216981887817 0.26877471804618835 0.6470588445663452 0.6705882549285889 0.615686297416687
0.14876846969127655 0.6251381635665894 0.991304337978363 0.35686275362968445 0.35686275362968445 0.32549020648002625
0.006157635245472193 0.5866098403930664 0.290909081697464 0.658823549747467 0.6745098233222961 0.615686297416687
0.00665024621412158 0.5553449988365173 0.12450592964887619 0.6784313917160034 0.6705882549285889 0.6196078658103943
0.11453201621770859 0.5823464393615723 0.9909090995788574 0.30980393290519714 0.30980393290519714 0.2705882489681244
0.006157635245472193 0.70219486951828 0.8723320364952087 0.5843137502670288 0.5960784554481506 0.5607843399047852
0.00665024621412158 0.6510342359542847 0.3067193627357483 0.6666666865348816 0.6784313917160034 0.6352941393852234
0.007881773635745049 0.6319279670715332 0.09762845933437347 0.6901960968971252 0.7058823704719543 0.6470588445663452
0.11822660267353058 0.5717669129371643 0.9905138611793518 0.24705882370471954 0.23529411852359772 0.20000000298023224
0.005418719258159399 0.6191378235816956 0.9691699743270874 0.3803921639919281 0.364705890417099 0.3176470696926117
0.007635468151420355 0.7053529024124146 0.2592885494232178 0.6470588445663452 0.6784313917160034 0.6196078658103943
0.008374384604394436 0.6906679272651672 0.15770751237869263 0.6666666865348816 0.6980392336845398 0.6392157077789307
0.004926108289510012 0.5913469195365906 0.7877470254898071 0.6313725709915161 0.6313725709915161 0.6000000238418579
0.006157635245472193 0.6526132822036743 0.5173913240432739 0.6823529601097107 0.6941176652908325 0.6509804129600525
0.1551724076271057 0.6462971568107605 0.00830039568245411 0.5137255191802979 0.5176470875740051 0.48627451062202454
0.11576354503631592 0.5539239048957825 0.9905138611793518 0.3490196168422699 0.3529411852359772 0.2980392277240753
0.004926108289510012 0.6074530482292175 0.8260869383811951 0.6039215922355652 0.6078431606292725 0.5843137502670288
0.006896551698446274 0.654034435749054 0.2920948565006256 0.6509804129600525 0.6745098233222961 0.6196078658103943
0.007635468151420355 0.6642981171607971 0.20395256578922272 0.6627451181411743 0.6705882549285889 0.615686297416687
0.004679802805185318 0.5675035715103149 0.8383399248123169 0.545098066329956 0.5333333611488342 0.49803921580314636
0.004926108289510012 0.6208747625350952 0.769565224647522 0.6705882549285889 0.6784313917160034 0.6352941393852234
0.07216748595237732 0.5599241852760315 0.9905138611793518 0.3137255012989044 0.3019607961177826 0.27450981736183167
0.2302955687046051 0.5701879262924194 0.0071146246045827866 0.48627451062202454 0.5215686559677124 0.4470588266849518
0.008128078654408455 0.6530870199203491 0.10790514200925827 0.6784313917160034 0.7058823704719543 0.6352941393852234
0.006157635245472193 0.6982472538948059 0.8735178112983704 0.572549045085907 0.5843137502670288 0.5411764979362488
0.005418719258159399 0.6635085940361023 0.8047431111335754 0.6549019813537598 0.6705882549285889 0.615686297416687
0.1862068921327591 0.6372966766357422 0.9964426755905151 0.9960784316062927 1.0 1.0
0.19605910778045654 0.6925627589225769 0.9932806491851807 0.9529411792755127 0.95686274766922 0.9725490212440491
0.004926108289510012 0.5686088800430298 0.9343873262405396 0.40392157435417175 0.3921568691730499 0.35686275362968445
0.0071428571827709675 0.557239830493927 0.03992094844579697 0.20392157137393951 0.1725490242242813 0.16078431904315948
0.013054187409579754 0.7086688876152039 0.9853755235671997 0.27450981736183167 0.26274511218070984 0.23529411852359772
0.0064039407297968864 0.6976156830787659 0.6739130616188049 0.7137255072593689 0.7215686440467834 0.6666666865348816
0.006157635245472193 0.6052423715591431 0.3743082880973816 0.658823549747467 0.6666666865348816 0.6235294342041016
0.005665024742484093 0.6084004640579224 0.4727272689342499 0.6666666865348816 0.6705882549285889 0.6392157077789307
0.008620689623057842 0.6526132822036743 0.06403162330389023 0.6980392336845398 0.686274528503418 0.6274510025978088
0.1549261063337326 0.6005052924156189 0.991304337978363 0.30588236451148987 0.30588236451148987 0.2666666805744171
0.004926108289510012 0.5550292134284973 0.6086956262588501 0.6196078658103943 0.6235294342041016 0.6000000238418579
0.005665024742484093 0.6518237590789795 0.6845849752426147 0.7137255072593689 0.7176470756530762 0.686274528503418
0.005172413773834705 0.6071372032165527 0.8790513873100281 0.5372549295425415 0.5372549295425415 0.49803921580314636
0.005418719258159399 0.6289278268814087 0.6154150366783142 0.6901960968971252 0.6901960968971252 0.658823549747467
0.007881773635745049 0.62166428565979 0.06324110925197601 0.6980392336845398 0.7019608020782471 0.6392157077789307
0.1108374372124672 0.579030454158783 0.00830039568245411 0.5529412031173706 0.5647059082984924 0.48235294222831726
0.00665024621412158 0.6063476800918579 0.24703557789325714 0.6666666865348816 0.6823529601097107 0.6235294342041016
0.0064039407297968864 0.5859782099723816 0.26363635063171387 0.6627451181411743 0.6784313917160034 0.6196078658103943
0.05246305465698242 0.6726669669151306 0.9905138611793518 0.3960784375667572 0.38823530077934265 0.34117648005485535
0.005665024742484093 0.6522974967956543 0.9517786502838135 0.43529412150382996 0.4313725531101227 0.3607843220233917
0.07980295270681381 0.6942996978759766 0.009881422854959965 0.4901960790157318 0.48235294222831726 0.42352941632270813
0.12438423931598663 0.6838781237602234 0.9909090995788574 0.4156862795352936 0.40392157435417175 0.3843137323856354
0.09187192469835281 0.5630822777748108 0.00830039568245411 0.5568627715110779 0.5882353186607361 0.49803921580314636
0.007389162667095661 0.6805621385574341 0.22055335342884064 0.6470588445663452 0.6705882549285889 0.615686297416687
0.005911330226808786 0.567661464214325 0.36640316247940063 0.6313725709915161 0.6235294342041016 0.5647059082984924
0.0064039407297968864 0.5693984031677246 0.2541502118110657 0.686274528503418 0.6784313917160034 0.6274510025978088
0.18029557168483734 0.6605084538459778 0.00830039568245411 0.6470588445663452 0.6470588445663452 0.6078431606292725
0.005172413773834705 0.6335070133209229 0.7592885494232178 0.6784313917160034 0.686274528503418 0.6352941393852234
0.004926108289510012 0.573661744594574 0.6233201622962952 0.6509804129600525 0.6549019813537598 0.6352941393852234
0.006896551698446274 0.5777672529220581 0.14861659705638885 0.6745098233222961 0.6784313917160034 0.6078431606292725
0.12044335156679153 0.6121901273727417 0.991304337978363 0.3019607961177826 0.2862745225429535 0.250980406999588
0.005911330226808786 0.6916153430938721 0.8383399248123169 0.6196078658103943 0.6274510025978088 0.5843137502670288
0.12118226289749146 0.6573503613471985 0.008695651777088642 0.46666666865348816 0.4627451002597809 0.4470588266849518
0.1864532083272934 0.648823618888855 0.00830039568245411 0.5882353186607361 0.5764706134796143 0.5411764979362488
0.21182265877723694 0.5637139081954956 0.0071146246045827866 0.5803921818733215 0.6117647290229797 0.529411792755127
0.20270936191082 0.6028738617897034 0.991304337978363 0.3490196168422699 0.3450980484485626 0.32549020648002625
0.006157635245472193 0.6995105147361755 0.8778656125068665 0.572549045085907 0.5843137502670288 0.5411764979362488
0.08128079026937485 0.6687194108963013 0.9909090995788574 0.4156862795352936 0.40392157435417175 0.3686274588108063
0.005665024742484093 0.632401704788208 0.5549407005310059 0.6745098233222961 0.686274528503418 0.6431372761726379
0.1391625553369522 0.6415600776672363 0.00830039568245411 0.5490196347236633 0.5607843399047852 0.5176470875740051
0.006157635245472193 0.70235276222229 0.9794466495513916 0.3764705955982208 0.37254902720451355 0.3019607961177826
0.13694581389427185 0.5594505071640015 0.9905138611793518 0.37254902720451355 0.364705890417099 0.3176470696926117
0.14556650817394257 0.5933996438980103 0.007905138656497002 0.46666666865348816 0.49803921580314636 0.4156862795352936
0.019950738176703453 0.5787146687507629 0.9905138611793518 0.27843138575553894 0.2666666805744171 0.239215686917305
0.10394088923931122 0.5637139081954956 0.9905138611793518 0.3529411852359772 0.34117648005485535 0.30588236451148987
0.052216749638319016 0.6518237590789795 0.9909090995788574 0.3803921639919281 0.3803921639919281 0.3333333432674408
0.13226601481437683 0.6529291272163391 0.00830039568245411 0.7686274647712708 0.7686274647712708 0.7215686440467834
0.004679802805185318 0.567819356918335 0.852173924446106 0.5254902243614197 0.5176470875740051 0.47058823704719543
0.005911330226808786 0.6917732357978821 0.8541501760482788 0.5921568870544434 0.6039215922355652 0.5686274766921997
0.00665024621412158 0.6995105147361755 0.5411067008972168 0.6784313917160034 0.6980392336845398 0.6196078658103943
0.16871921718120575 0.6418758630752563 0.9968379735946655 0.8313725590705872 0.8470588326454163 0.8509804010391235
0.006157635245472193 0.6965103149414062 0.9233201742172241 0.5058823823928833 0.5098039507865906 0.45490196347236633
0.18128079175949097 0.5785567760467529 0.007509881630539894 0.5254902243614197 0.5529412031173706 0.4901960790157318
0.1701970398426056 0.7104058265686035 0.9905138611793518 0.9137254953384399 0.9176470637321472 0.9333333373069763
0.1830049306154251 0.6137691736221313 0.007905138656497002 0.529411792755127 0.5137255191802979 0.5176470875740051
0.006157635245472193 0.6807200312614441 0.5936759114265442 0.6941176652908325 0.7058823704719543 0.6627451181411743
0.19975370168685913 0.6368229985237122 0.007905138656497002 0.5764706134796143 0.5803921818733215 0.5254902243614197
0.1866995096206665 0.649139404296875 0.9972332119941711 1.0 1.0 1.0
0.15935960412025452 0.5667140483856201 0.9905138611793518 0.30980393290519714 0.30980393290519714 0.26274511218070984
0.16206896305084229 0.6035054326057434 0.991304337978363 0.33725491166114807 0.32549020648002625 0.30588236451148987
0.02980295568704605 0.6859308481216431 0.9905138611793518 0.3764705955982208 0.3686274588108063 0.32156863808631897
0.12463054060935974 0.5752407908439636 0.007905138656497002 0.6000000238418579 0.6117647290229797 0.529411792755127
0.06059113144874573 0.5771356225013733 0.008695651777088642 0.529411792755127 0.5333333611488342 0.47843137383461
0.008620689623057842 0.6192957758903503 0.041897233575582504 0.250980406999588 0.21960784494876862 0.1764705926179886
0.0064039407297968864 0.626717209815979 0.3027667999267578 0.6627451181411743 0.6784313917160034 0.6235294342041016
0.13374383747577667 0.7034580707550049 0.9905138611793518 0.42352941632270813 0.4156862795352936 0.41960784792900085
0.17192117869853973 0.6428232789039612 0.9972332119941711 0.8509804010391235 0.8666666746139526 0.8705882430076599
0.0064039407297968864 0.5902416110038757 0.27786561846733093 0.6627451181411743 0.6784313917160034 0.6196078658103943
0.19384236633777618 0.707879364490509 0.007905138656497002 0.6196078658103943 0.6078431606292725 0.5490196347236633
0.0064039407297968864 0.7067740559577942 0.6770750880241394 0.7098039388656616 0.7176470756530762 0.6627451181411743
0.004926108289510012 0.573188066482544 0.8691699504852295 0.5176470875740051 0.5098039507865906 0.4627451002597809
0.19507388770580292 0.6576662063598633 0.9964426755905151 0.9529411792755127 0.9686274528503418 0.9647058844566345
0.20344828069210052 0.6003473997116089 0.991304337978363 0.3294117748737335 0.3176470696926117 0.2980392277240753
0.005418719258159399 0.5769777297973633 0.48102766275405884 0.6352941393852234 0.6470588445663452 0.6196078658103943
0.005665024742484093 0.5682930946350098 0.37707510590553284 0.6352941393852234 0.6235294342041016 0.5647059082984924
0.10911329835653305 0.5616611242294312 0.9905138611793518 0.3333333432674408 0.32156863808631897 0.2862745225429535
0.032758619636297226 0.578872561454773 0.00909090880304575 0.40392157435417175 0.3960784375667572 0.3450980484485626
0.006896551698446274 0.7069319486618042 0.47667983174324036 0.6627451181411743 0.686274528503418 0.6392157077789307
0.19162560999393463 0.6402968764305115 0.9976284503936768 1.0 1.0 1.0
0.05837438255548477 0.643297016620636 0.010276679880917072 0.5058823823928833 0.49803921580314636 0.45098039507865906
0.24113300442695618 0.6361913681030273 0.9968379735946655 1.0 1.0 0.9921568632125854
0.0064039407297968864 0.7051950097084045 0.7051383256912231 0.7176470756530762 0.7215686440467834 0.658823549747467
0.006157635245472193 0.5747671127319336 0.31620553135871887 0.6431372761726379 0.6549019813537598 0.5882353186607361
0.0716748759150505 0.5804516077041626 0.9905138611793518 0.3176470696926117 0.30588236451148987 0.2705882489681244
0.005665024742484093 0.6515079736709595 0.6577075123786926 0.7098039388656616 0.7137255072593689 0.6823529601097107
0.005418719258159399 0.5555028915405273 0.47114625573158264 0.6196078658103943 0.6196078658103943 0.6117647290229797
0.005418719258159399 0.6131375432014465 0.9810276627540588 0.34117648005485535 0.3137255012989044 0.29019609093666077
0.015763547271490097 0.5537660121917725 0.9905138611793518 0.2823529541492462 0.2705882489681244 0.24313725531101227
0.029556650668382645 0.5719248652458191 0.9905138611793518 0.29019609093666077 0.27843138575553894 0.250980406999588
0.0064039407297968864 0.5785567760467529 0.23003952205181122 0.6784313917160034 0.686274528503418 0.6313725709915161
0.005418719258159399 0.6469287872314453 0.7071146368980408 0.7098039388656616 0.7098039388656616 0.6705882549285889
0.0064039407297968864 0.6041370630264282 0.2810276746749878 0.6627451181411743 0.6705882549285889 0.6196078658103943
0.005665024742484093 0.6472445726394653 0.5790513753890991 0.6941176652908325 0.7098039388656616 0.6549019813537598
0.005418719258159399 0.6393494606018066 0.8841897249221802 0.5490196347236633 0.5568627715110779 0.5137255191802979
0.09802955389022827 0.6511921882629395 0.9909090995788574 0.3921568691730499 0.3803921639919281 0.3529411852359772
0.005172413773834705 0.5978209376335144 0.9490118622779846 0.4117647111415863 0.3960784375667572 0.3529411852359772
0.006896551698446274 0.6993526220321655 0.47826087474823 0.6627451181411743 0.686274528503418 0.6313725709915161
0.04482758790254593 0.6530870199203491 0.9909090995788574 0.3803921639919281 0.37254902720451355 0.32549020648002625
0.04532019793987274 0.6125059127807617 0.009881422854959965 0.5411764979362488 0.529411792755127 0.4941176474094391
0.006157635245472193 0.659876823425293 0.4956521689891815 0.6784313917160034 0.7019608020782471 0.6549019813537598
0.2221674919128418 0.5668719410896301 0.9909090995788574 0.3686274588108063 0.3686274588108063 0.32156863808631897
0.07832512259483337 0.5795041918754578 0.008695651777088642 0.5568627715110779 0.5647059082984924 0.47843137383461
0.006157635245472193 0.6868782639503479 0.7063241004943848 0.7254902124404907 0.729411780834198 0.6666666865348816
0.01945812813937664 0.6425074934959412 0.01067193690687418 0.5058823823928833 0.4941176474094391 0.46666666865348816
0.09975369274616241 0.5918205976486206 0.00830039568245411 0.5843137502670288 0.5921568870544434 0.5490196347236633
0.23990148305892944 0.6800884008407593 0.9956521987915039 0.9764705896377563 0.9803921580314636 0.9960784316062927
0.1788177341222763 0.6150323748588562 0.9916995763778687 0.33725491166114807 0.33725491166114807 0.30588236451148987
0.005665024742484093 0.6557713747024536 0.6806324124336243 0.7176470756530762 0.7137255072593689 0.6941176652908325
0.004926108289510012 0.5712932348251343 0.6739130616188049 0.6627451181411743 0.658823549747467 0.6509804129600525
0.004926108289510012 0.5701879262924194 0.8703557252883911 0.5058823823928833 0.4941176474094391 0.4588235318660736
0.005172413773834705 0.6221380233764648 0.7434782385826111 0.686274528503418 0.6941176652908325 0.6509804129600525
0.13669951260089874 0.6949313282966614 0.9905138611793518 0.40392157435417175 0.40392157435417175 0.40392157435417175
0.006896551698446274 0.6093478798866272 0.17944663763046265 0.6745098233222961 0.686274528503418 0.6196078658103943
0.00665024621412158 0.6601926684379578 0.3644268810749054 0.6784313917160034 0.6901960968971252 0.6627451181411743
0.023891625925898552 0.6917732357978821 0.011462450958788395 0.5137255191802979 0.501960813999176 0.4745098054409027
0.013546798378229141 0.6515079736709595 0.011067193932831287 0.6196078658103943 0.6078431606292725 0.572549045085907
0.005172413773834705 0.5753986835479736 0.5545454621315002 0.6392157077789307 0.6431372761726379 0.6117647290229797
0.12364532053470612 0.5780830383300781 0.007905138656497002 0.5647059082984924 0.5529412031173706 0.48627451062202454
0.004679802805185318 0.5561345219612122 0.7245059013366699 0.5882353186607361 0.5921568870544434 0.5686274766921997
0.005172413773834705 0.5774514675140381 0.5565217137336731 0.6392157077789307 0.6431372761726379 0.6117647290229797
0.005172413773834705 0.6085583567619324 0.8758893013000488 0.5529412031173706 0.5411764979362488 0.5058823823928833
0.006896551698446274 0.5686088800430298 0.10632411390542984 0.6666666865348816 0.658823549747467 0.6078431606292725
0.00665024621412158 0.7039318084716797 0.5371541380882263 0.6745098233222961 0.6901960968971252 0.6313725709915161
0.006157635245472193 0.6996684074401855 0.7822134494781494 0.6823529601097107 0.6901960968971252 0.5960784554481506
0.006157635245472193 0.6924048662185669 0.7375494241714478 0.7019608020782471 0.7137255072593689 0.6313725709915161
0.005172413773834705 0.6243486404418945 0.8391304612159729 0.6078431606292725 0.6078431606292725 0.5607843399047852
0.12339901179075241 0.6898784041404724 0.00830039568245411 0.5176470875740051 0.4901960790157318 0.4588235318660736
0.13349753618240356 0.6650876402854919 0.00830039568245411 0.6274510025978088 0.6274510025978088 0.5960784554481506
0.1665024608373642 0.665561318397522 0.00830039568245411 0.6784313917160034 0.6784313917160034 0.6313725709915161
0.2460591197013855 0.5828201770782471 0.9909090995788574 0.364705890417099 0.3529411852359772 0.3176470696926117
0.09852216392755508 0.6895626187324524 0.9905138611793518 0.41960784792900085 0.40784314274787903 0.37254902720451355
0.005665024742484093 0.6811937689781189 0.8924900889396667 0.5372549295425415 0.545098066329956 0.4941176474094391
0.2376847267150879 0.573661744594574 0.0071146246045827866 0.545098066329956 0.5333333611488342 0.4745098054409027
0.004679802805185318 0.5545554757118225 0.6430829763412476 0.615686297416687 0.615686297416687 0.6078431606292725
0.0064039407297968864 0.643454909324646 0.40276679396629333 0.6784313917160034 0.6901960968971252 0.6627451181411743
0.0064039407297968864 0.6069793105125427 0.26798418164253235 0.6470588445663452 0.6549019813537598 0.6000000238418579
0.005665024742484093 0.6309805512428284 0.5596837997436523 0.6784313917160034 0.6901960968971252 0.6470588445663452
0.006157635245472193 0.6346123218536377 0.4110671877861023 0.6745098233222961 0.6980392336845398 0.658823549747467
0.15640394389629364 0.5913469195365906 0.007905138656497002 0.529411792755127 0.5411764979362488 0.4588235318660736
0.007635468151420355 0.7026685476303101 0.23636363446712494 0.6549019813537598 0.6784313917160034 0.6235294342041016
0.007635468151420355 0.7104058265686035 0.2399209439754486 0.6509804129600525 0.6823529601097107 0.6235294342041016
0.20541872084140778 0.6391915082931519 0.9976284503936768 1.0 1.0 1.0
0.005665024742484093 0.6456655859947205 0.5660079121589661 0.6745098233222961 0.6980392336845398 0.6509804129600525
0.0071428571827709675 0.5910311341285706 0.09762845933437347 0.6941176652908325 0.6980392336845398 0.6274510025978088
0.006157635245472193 0.6240328550338745 0.40948617458343506 0.6784313917160034 0.6901960968971252 0.6549019813537598
0.006157635245472193 0.5902416110038757 0.29920947551727295 0.6549019813537598 0.6627451181411743 0.6078431606292725
0.20443350076675415 0.5943470597267151 0.991304337978363 0.3607843220233917 0.3529411852359772 0.30588236451148987
0.008866994641721249 0.6990367770195007 0.11620553582906723 0.686274528503418 0.7019608020782471 0.6352941393852234
0.0064039407297968864 0.6439286470413208 0.41936758160591125 0.686274528503418 0.6901960968971252 0.658823549747467
0.005172413773834705 0.5956103205680847 0.9802371263504028 0.30588236451148987 0.2862745225429535 0.26274511218070984
0.006896551698446274 0.6772461533546448 0.3237154185771942 0.6509804129600525 0.6627451181411743 0.6196078658103943
0.00665024621412158 0.6560871601104736 0.30869564414024353 0.658823549747467 0.6705882549285889 0.6274510025978088
0.006157635245472193 0.6884573101997375 0.6940711736679077 0.7098039388656616 0.7254902124404907 0.658823549747467
0.005665024742484093 0.6624032855033875 0.6897233128547668 0.7215686440467834 0.7215686440467834 0.6823529601097107
0.00665024621412158 0.6245065331459045 0.2505928874015808 0.6549019813537598 0.6784313917160034 0.6235294342041016
0.007635468151420355 0.6447181701660156 0.14743083715438843 0.6745098233222961 0.6901960968971252 0.6352941393852234
0.005665024742484093 0.6155060529708862 0.4798418879508972 0.6666666865348816 0.6823529601097107 0.6274510025978088
0.005172413773834705 0.5885046720504761 0.9446640610694885 0.40784314274787903 0.3921568691730499 0.35686275362968445
0.07068965584039688 0.6084004640579224 0.00909090880304575 0.6196078658103943 0.6196078658103943 0.5803921818733215
0.17192117869853973 0.6748776435852051 0.9944664239883423 0.8941176533699036 0.9137254953384399 0.929411768913269
0.00665024621412158 0.7088267803192139 0.5790513753890991 0.6901960968971252 0.6980392336845398 0.6431372761726379
0.005418719258159399 0.5662403106689453 0.49683794379234314 0.6274510025978088 0.6313725709915161 0.6078431606292725
0.14778324961662292 0.6972998380661011 0.9905138611793518 0.4000000059604645 0.4000000059604645 0.40784314274787903
0.010098522529006004 0.6988788843154907 0.03280632570385933 0.24705882370471954 0.21960784494876862 0.14901961386203766
0.16034482419490814 0.7105637192726135 0.007905138656497002 0.5568627715110779 0.5490196347236633 0.49803921580314636
0.0064039407297968864 0.6576662063598633 0.4687747061252594 0.6901960968971252 0.6941176652908325 0.6392157077789307
0.23719212412834167 0.6991946697235107 0.007905138656497002 0.4901960790157318 0.49803921580314636 0.4156862795352936
0.00665024621412158 0.6478762030601501 0.30869564414024353 0.658823549747467 0.6823529601097107 0.6431372761726379
