0.14532019197940826 0.24474972486495972 0.007905138656497002 0.5568627715110779 0.5647059082984924 0.5137255191802979
0.16896551847457886 0.16248223185539246 0.0071146246045827866 0.4901960790157318 0.49803921580314636 0.4470588266849518
0.14876846969127655 0.2992262840270996 0.9897233247756958 0.46666666865348816 0.4470588266849518 0.47058823704719543
0.21970443427562714 0.2186957150697708 0.0071146246045827866 0.5137255191802979 0.5098039507865906 0.4274509847164154
0.34778323769569397 0.2355913519859314 0.29525691270828247 0.5607843399047852 0.5960784554481506 0.5843137502670288
0.31083744764328003 0.2295910269021988 0.9885375499725342 0.45490196347236633 0.4470588266849518 0.45098039507865906
0.24802955985069275 0.2651192247867584 0.2660079002380371 0.15294118225574493 0.15294118225574493 0.14509804546833038
0.14556650817394257 0.26306647062301636 0.007509881630539894 0.5411764979362488 0.5254902243614197 0.47843137383461
0.2507389187812805 0.2673298716545105 0.20118577778339386 0.0941176488995552 0.0941176488995552 0.0941176488995552
0.25591132044792175 0.2329069972038269 0.17588932812213898 0.24313725531101227 0.250980406999588 0.24705882370471954
0.24753694236278534 0.17400915920734406 0.9972332119941711 0.95686274766922 0.9686274528503418 0.9882352948188782
0.20960591733455658 0.2357492446899414 0.0071146246045827866 0.5058823823928833 0.5058823823928833 0.4588235318660736
0.3332512378692627 0.23638086020946503 0.9885375499725342 0.35686275362968445 0.3529411852359772 0.3450980484485626
0.31576353311538696 0.2635401785373688 0.29446640610694885 0.5568627715110779 0.5647059082984924 0.5529412031173706
0.3263546824455261 0.22643296420574188 0.9889327883720398 0.35686275362968445 0.3607843220233917 0.34117648005485535
0.16921181976795197 0.2153797596693039 0.9916995763778687 1.0 1.0 1.0
0.2896551787853241 0.2984367609024048 0.15533596277236938 0.5372549295425415 0.529411792755127 0.43921568989753723
0.13300491869449615 0.19927364587783813 0.9897233247756958 0.32549020648002625 0.32549020648002625 0.2862745225429535
0.15000000596046448 0.2070108950138092 0.007509881630539894 0.5215686559677124 0.5098039507865906 0.45098039507865906
0.27931034564971924 0.22659087181091309 0.9932806491851807 0.95686274766922 0.9607843160629272 0.9764705896377563
0.2665024697780609 0.24648666381835938 0.27984189987182617 0.15294118225574493 0.1568627506494522 0.1764705926179886
0.16009852290153503 0.2469603717327118 0.007509881630539894 0.6313725709915161 0.6117647290229797 0.5882353186607361
0.3221674859523773 0.2666982412338257 0.9881423115730286 0.3764705955982208 0.37254902720451355 0.364705890417099
0.15738916397094727 0.19437864422798157 0.9909090995788574 0.6784313917160034 0.7019608020782471 0.686274528503418
0.12931033968925476 0.15916627645492554 0.007509881630539894 0.6196078658103943 0.6274510025978088 0.545098066329956
0.3564039468765259 0.31422707438468933 0.006719367578625679 0.09019608050584793 0.10588235408067703 0.10196078568696976
0.29507389664649963 0.24364440143108368 0.9905138611793518 0.8901960849761963 0.8980392217636108 0.9490196108818054
0.2344827651977539 0.2240644246339798 0.992094874382019 0.9686274528503418 0.9803921580314636 1.0
0.278817743062973 0.22943313419818878 0.22569170594215393 0.47843137383461 0.45098039507865906 0.4117647111415863
0.1869458109140396 0.22801199555397034 0.007509881630539894 0.4627451002597809 0.46666666865348816 0.3960784375667572
0.2098522186279297 0.21743249893188477 0.9924901127815247 0.9725490212440491 0.9843137264251709 1.0
0.1899014711380005 0.28596243262290955 0.0071146246045827866 0.6196078658103943 0.5960784554481506 0.5411764979362488
0.3650246262550354 0.2468024641275406 0.1715414971113205 0.07058823853731155 0.0784313753247261 0.07450980693101883
0.30714285373687744 0.23132796585559845 0.9889327883720398 0.40784314274787903 0.4000000059604645 0.40392157435417175
0.12980295717716217 0.22911731898784637 0.9893280863761902 0.40392157435417175 0.3960784375667572 0.3490196168422699
0.28004926443099976 0.16042949259281158 0.0063241105526685715 0.5921568870544434 0.6078431606292725 0.5411764979362488
0.14458128809928894 0.16516658663749695 0.007509881630539894 0.4627451002597809 0.4941176474094391 0.4117647111415863
0.34458127617836 0.27206695079803467 0.29486167430877686 0.501960813999176 0.5098039507865906 0.49803921580314636
0.29975369572639465 0.27680402994155884 0.0071146246045827866 0.3921568691730499 0.3764705955982208 0.27843138575553894
0.16921181976795197 0.1583767533302307 0.9956521987915039 0.9411764740943909 0.9686274528503418 1.0
0.1669950783252716 0.275698721408844 0.9897233247756958 0.8901960849761963 0.8941176533699036 0.9098039269447327
0.185960590839386 0.2038528323173523 0.007509881630539894 0.5607843399047852 0.5647059082984924 0.501960813999176
0.16945812106132507 0.18632559478282928 0.0071146246045827866 0.6509804129600525 0.6549019813537598 0.5843137502670288
0.2736453115940094 0.2906995117664337 0.20632411539554596 0.250980406999588 0.2705882489681244 0.29411765933036804
0.1423645317554474 0.17590399086475372 0.9901185631752014 0.37254902720451355 0.3607843220233917 0.32549020648002625
0.1990147829055786 0.28833097219467163 0.9889327883720398 0.95686274766922 0.9607843160629272 0.9764705896377563
0.1344827562570572 0.1841149479150772 0.007905138656497002 0.48627451062202454 0.48627451062202454 0.45490196347236633
0.24802955985069275 0.28296226263046265 0.9889327883720398 0.9764705896377563 0.9803921580314636 1.0
0.36625614762306213 0.20558977127075195 0.0063241105526685715 0.4274509847164154 0.41960784792900085 0.3686274588108063
0.26354679465293884 0.19153639674186707 0.0063241105526685715 0.545098066329956 0.5529412031173706 0.47058823704719543
0.1470443308353424 0.29685771465301514 0.007509881630539894 0.545098066329956 0.5372549295425415 0.4901960790157318
0.36748769879341125 0.2793304920196533 0.9881423115730286 0.2823529541492462 0.2862745225429535 0.26274511218070984
0.2140394151210785 0.21206378936767578 0.0071146246045827866 0.40784314274787903 0.40392157435417175 0.32549020648002625
0.23866994678974152 0.2695404887199402 0.0071146246045827866 0.4745098054409027 0.48235294222831726 0.4000000059604645
0.13349753618240356 0.31185850501060486 0.007509881630539894 0.5372549295425415 0.5333333611488342 0.4627451002597809
0.14162561297416687 0.16627191007137299 0.9905138611793518 0.3803921639919281 0.3686274588108063 0.3333333432674408
0.27610838413238525 0.2905416190624237 0.0071146246045827866 0.4313725531101227 0.41960784792900085 0.2980392277240753
0.23497536778450012 0.27396178245544434 0.0071146246045827866 0.658823549747467 0.6509804129600525 0.5607843399047852
0.18546797335147858 0.22311700880527496 0.007509881630539894 0.4627451002597809 0.47058823704719543 0.38823530077934265
0.2736453115940094 0.2993841767311096 0.0071146246045827866 0.20000000298023224 0.20392157137393951 0.1411764770746231
0.2568965554237366 0.16437707841396332 0.0063241105526685715 0.3803921639919281 0.4117647111415863 0.32156863808631897
0.3086206912994385 0.18174640834331512 0.0063241105526685715 0.6745098233222961 0.6784313917160034 0.615686297416687
0.32783252000808716 0.21727459132671356 0.0063241105526685715 0.6431372761726379 0.6352941393852234 0.5764706134796143
0.1669950783252716 0.28880468010902405 0.007509881630539894 0.6352941393852234 0.6196078658103943 0.6078431606292725
0.36206895112991333 0.24269698560237885 0.16877470910549164 0.0784313753247261 0.07450980693101883 0.06666667014360428
0.30418717861175537 0.21995894610881805 0.9901185631752014 0.4745098054409027 0.4745098054409027 0.48235294222831726
0.143349751830101 0.29780516028404236 0.007509881630539894 0.4941176474094391 0.48235294222831726 0.42352941632270813
0.3305418789386749 0.29701563715934753 0.17470355331897736 0.07450980693101883 0.07450980693101883 0.07450980693101883
0.16847290098667145 0.2583293914794922 0.007509881630539894 0.6431372761726379 0.6352941393852234 0.5882353186607361
0.17980295419692993 0.19122059643268585 0.0071146246045827866 0.5764706134796143 0.5764706134796143 0.46666666865348816
0.24113300442695618 0.28912046551704407 0.9885375499725342 0.9607843160629272 0.9647058844566345 0.9803921580314636
0.13620689511299133 0.16721932590007782 0.007509881630539894 0.501960813999176 0.4941176474094391 0.4117647111415863
0.24778325855731964 0.2673298716545105 0.26166006922721863 0.1568627506494522 0.16078431904315948 0.1411764770746231
0.2495073825120926 0.2180641144514084 0.006719367578625679 0.5333333611488342 0.5411764979362488 0.4588235318660736
0.2568965554237366 0.2728564739227295 0.29407113790512085 0.1882352977991104 0.20000000298023224 0.22745098173618317
0.30369457602500916 0.20195800065994263 0.0063241105526685715 0.572549045085907 0.5647059082984924 0.5058823823928833
0.19729064404964447 0.22043265402317047 0.9916995763778687 0.9529411792755127 0.9647058844566345 0.9921568632125854
0.27955666184425354 0.2960682213306427 0.0071146246045827866 0.3176470696926117 0.32549020648002625 0.24313725531101227
0.2539408802986145 0.20827412605285645 0.9940711259841919 0.9529411792755127 0.9647058844566345 0.9843137264251709
0.34655171632766724 0.2123796045780182 0.9889327883720398 0.3019607961177826 0.2862745225429535 0.2823529541492462
0.3179802894592285 0.29954206943511963 0.9881423115730286 0.3529411852359772 0.3490196168422699 0.34117648005485535
0.2660098373889923 0.2611716389656067 0.16561265289783478 0.19607843458652496 0.21960784494876862 0.20392157137393951
0.277339905500412 0.2878572642803192 0.9897233247756958 0.9803921580314636 0.9843137264251709 1.0
0.2830049395561218 0.2523290812969208 0.992094874382019 0.9803921580314636 0.9960784316062927 1.0
0.1268472969532013 0.25690826773643494 0.007905138656497002 0.5607843399047852 0.5490196347236633 0.4745098054409027
0.27167487144470215 0.2992262840270996 0.1616600751876831 0.08235294371843338 0.0784313753247261 0.05882352963089943
0.33128079771995544 0.21759040653705597 0.0063241105526685715 0.5529412031173706 0.545098066329956 0.48627451062202454
0.22118227183818817 0.21601137518882751 0.9924901127815247 0.9725490212440491 0.9843137264251709 1.0
0.24334976077079773 0.3045949637889862 0.9885375499725342 0.9372549057006836 0.9411764740943909 0.95686274766922
0.278817743062973 0.26038211584091187 0.006719367578625679 0.3843137323856354 0.364705890417099 0.27843138575553894
0.1544335037469864 0.1954839676618576 0.007509881630539894 0.529411792755127 0.5176470875740051 0.48235294222831726
0.20024630427360535 0.2551713287830353 0.0071146246045827866 0.48235294222831726 0.48627451062202454 0.4156862795352936
0.13349753618240356 0.2043265402317047 0.007905138656497002 0.5333333611488342 0.5411764979362488 0.49803921580314636
0.285221666097641 0.23401232063770294 0.006719367578625679 0.3294117748737335 0.3019607961177826 0.26274511218070984
0.34310343861579895 0.25169745087623596 0.17865613102912903 0.0784313753247261 0.07450980693101883 0.06666667014360428
0.1780788153409958 0.18616768717765808 0.9944664239883423 0.9372549057006836 0.95686274766922 0.9725490212440491
0.27536946535110474 0.23906521499156952 0.20553359389305115 0.11372549086809158 0.11764705926179886 0.0941176488995552
0.2187192142009735 0.27490919828414917 0.0071146246045827866 0.5490196347236633 0.5411764979362488 0.48235294222831726
0.3179802894592285 0.27759355306625366 0.9881423115730286 0.37254902720451355 0.3686274588108063 0.3529411852359772
0.3298029601573944 0.2679614722728729 0.17905138432979584 0.09803921729326248 0.09803921729326248 0.09019608050584793
0.24482758343219757 0.19595767557621002 0.006719367578625679 0.6470588445663452 0.6549019813537598 0.5686274766921997
0.3283251225948334 0.30001577734947205 0.29407113790512085 0.43529412150382996 0.4470588266849518 0.41960784792900085
0.19926108419895172 0.281225323677063 0.9889327883720398 0.9529411792755127 0.95686274766922 0.9764705896377563
0.14014779031276703 0.3128059506416321 0.9897233247756958 0.4588235318660736 0.45490196347236633 0.43921568989753723
0.17684729397296906 0.2327490895986557 0.9901185631752014 1.0 1.0 1.0
0.3605911433696747 0.3020685315132141 0.29486167430877686 0.501960813999176 0.5215686559677124 0.5058823823928833
0.253201961517334 0.23385441303253174 0.006719367578625679 0.43529412150382996 0.43529412150382996 0.3333333432674408
0.3007389307022095 0.22027474641799927 0.991304337978363 0.37254902720451355 0.364705890417099 0.3764705955982208
0.36625614762306213 0.1634296476840973 0.9901185631752014 0.29019609093666077 0.27843138575553894 0.250980406999588
0.2731527090072632 0.29180482029914856 0.2035573124885559 0.239215686917305 0.250980406999588 0.2705882489681244
0.15024630725383759 0.22232748568058014 0.9897233247756958 0.3803921639919281 0.40392157435417175 0.364705890417099
0.33571428060531616 0.3099636733531952 0.0071146246045827866 0.501960813999176 0.5333333611488342 0.45098039507865906
0.2931034564971924 0.23511764407157898 0.18102766573429108 0.16078431904315948 0.16470588743686676 0.1725490242242813
0.2847290635108948 0.18348334729671478 0.0063241105526685715 0.5647059082984924 0.5843137502670288 0.5058823823928833
0.16527093946933746 0.16200852394104004 0.0071146246045827866 0.5803921818733215 0.5764706134796143 0.5058823823928833
0.12758620083332062 0.1640612632036209 0.9901185631752014 0.37254902720451355 0.364705890417099 0.3176470696926117
0.2940886616706848 0.25201326608657837 0.9909090995788574 0.9411764740943909 0.9764705896377563 1.0
0.3280788064002991 0.2329069972038269 0.9885375499725342 0.3607843220233917 0.35686275362968445 0.3490196168422699
0.2862069010734558 0.25738197565078735 0.17430830001831055 0.1764705926179886 0.1921568661928177 0.19607843458652496
0.3300492465496063 0.25975051522254944 0.17826086282730103 0.09019608050584793 0.09803921729326248 0.08627451211214066
0.1748768538236618 0.3077530264854431 0.007509881630539894 0.6431372761726379 0.6352941393852234 0.5764706134796143
0.254679799079895 0.27711984515190125 0.19169960916042328 0.10980392247438431 0.10980392247438431 0.10980392247438431
0.12586206197738647 0.19753670692443848 0.9897233247756958 0.37254902720451355 0.37254902720451355 0.32549020648002625
0.19605910778045654 0.2963840067386627 0.9893280863761902 0.95686274766922 0.9607843160629272 0.9764705896377563
0.22857142984867096 0.2764882445335388 0.9885375499725342 0.9960784316062927 1.0 1.0
0.3694581389427185 0.2984367609024048 0.29486167430877686 0.529411792755127 0.5372549295425415 0.5333333611488342
0.14014779031276703 0.18537817895412445 0.9901185631752014 0.3960784375667572 0.3960784375667572 0.364705890417099
0.2623152732849121 0.25422391295433044 0.991304337978363 0.95686274766922 0.9686274528503418 0.9882352948188782
0.1268472969532013 0.2709616422653198 0.9893280863761902 0.4588235318660736 0.43921568989753723 0.42352941632270813
0.24088670313358307 0.2212221622467041 0.9924901127815247 0.9647058844566345 0.9764705896377563 0.9960784316062927
0.14408867061138153 0.25990840792655945 0.007509881630539894 0.4745098054409027 0.4745098054409027 0.4274509847164154
0.34778323769569397 0.26575082540512085 0.006719367578625679 0.25882354378700256 0.26274511218070984 0.2078431397676468
0.12512315809726715 0.2212221622467041 0.9893280863761902 0.4117647111415863 0.4000000059604645 0.364705890417099
0.31871920824050903 0.3104373812675476 0.9881423115730286 0.364705890417099 0.3529411852359772 0.3333333432674408
0.3657635450363159 0.2498026192188263 0.17391304671764374 0.07450980693101883 0.07450980693101883 0.08235294371843338
0.20738916099071503 0.25438180565834045 0.0071146246045827866 0.43921568989753723 0.43529412150382996 0.3529411852359772
0.19532020390033722 0.22848570346832275 0.007509881630539894 0.5372549295425415 0.529411792755127 0.47058823704719543
0.33497536182403564 0.3039633631706238 0.0071146246045827866 0.43529412150382996 0.4156862795352936 0.3019607961177826
0.35467979311943054 0.20037896931171417 0.9893280863761902 0.27450981736183167 0.2705882489681244 0.250980406999588
0.25197044014930725 0.2498026192188263 0.17312252521514893 0.16862745583057404 0.1764705926179886 0.1725490242242813
0.16822659969329834 0.24206537008285522 0.007509881630539894 0.5490196347236633 0.5372549295425415 0.47843137383461
0.2497536987066269 0.26322439312934875 0.2339920997619629 0.15294118225574493 0.15294118225574493 0.14509804546833038
0.1830049306154251 0.26859307289123535 0.9893280863761902 0.9137254953384399 0.9176470637321472 0.9333333373069763
0.24926108121871948 0.2562766373157501 0.269565224647522 0.1568627506494522 0.1568627506494522 0.1568627506494522
0.3100985288619995 0.16516658663749695 0.0063241105526685715 0.5960784554481506 0.6000000238418579 0.529411792755127
0.2576354742050171 0.16311384737491608 0.9988142251968384 0.929411768913269 0.9411764740943909 0.9607843160629272
0.14827586710453033 0.16216643154621124 0.007509881630539894 0.6196078658103943 0.6235294342041016 0.5607843399047852
0.1633004993200302 0.24774987995624542 0.9893280863761902 0.8666666746139526 0.8823529481887817 0.8941176533699036
0.341379314661026 0.23780198395252228 0.9885375499725342 0.32549020648002625 0.32156863808631897 0.3019607961177826
0.26699507236480713 0.29717352986335754 0.22648221254348755 0.250980406999588 0.2705882489681244 0.29411765933036804
0.22561576962471008 0.20622138679027557 0.0071146246045827866 0.6313725709915161 0.6235294342041016 0.5411764979362488
0.1751231551170349 0.24017053842544556 0.9897233247756958 0.9921568632125854 1.0 0.9960784316062927
0.24359606206417084 0.29780516028404236 0.0071146246045827866 0.3294117748737335 0.3450980484485626 0.34117648005485535
0.33177340030670166 0.1842728555202484 0.0063241105526685715 0.6470588445663452 0.6235294342041016 0.5607843399047852
0.17266009747982025 0.2842254936695099 0.9893280863761902 0.9215686321258545 0.9254902005195618 0.9411764740943909
0.2778325080871582 0.2936996817588806 0.0071146246045827866 0.49803921580314636 0.4941176474094391 0.3764705955982208
0.2463054209947586 0.275698721408844 0.26324111223220825 0.1764705926179886 0.1725490242242813 0.1568627506494522
0.3096058964729309 0.22627507150173187 0.29486167430877686 0.7176470756530762 0.7529411911964417 0.7490196228027344
0.2862069010734558 0.21601137518882751 0.006719367578625679 0.45098039507865906 0.4627451002597809 0.3490196168422699
0.309359610080719 0.23653876781463623 0.1719367653131485 0.13725490868091583 0.14509804546833038 0.1411764770746231
0.30788177251815796 0.16627191007137299 0.0063241105526685715 0.6705882549285889 0.6823529601097107 0.615686297416687
0.36625614762306213 0.2182220071554184 0.0063241105526685715 0.125490203499794 0.11372549086809158 0.08627451211214066
0.23743842542171478 0.28880468010902405 0.9885375499725342 0.9607843160629272 0.9647058844566345 0.9803921580314636
0.14581280946731567 0.30064740777015686 0.007509881630539894 0.5137255191802979 0.5058823823928833 0.45490196347236633
0.19211822748184204 0.23953892290592194 0.0071146246045827866 0.5215686559677124 0.49803921580314636 0.43529412150382996
0.1751231551170349 0.1755881905555725 0.0071146246045827866 0.6431372761726379 0.6549019813537598 0.5803921818733215
0.29605910181999207 0.19390493631362915 0.0063241105526685715 0.6823529601097107 0.6784313917160034 0.6078431606292725
0.15147782862186432 0.2679614722728729 0.007509881630539894 0.501960813999176 0.47843137383461 0.4313725531101227
0.3684729039669037 0.2899099886417389 0.9881423115730286 0.27843138575553894 0.2823529541492462 0.26274511218070984
0.14359605312347412 0.22295910120010376 0.9893280863761902 0.4000000059604645 0.40392157435417175 0.3803921639919281
0.24679802358150482 0.1612190157175064 0.9984189867973328 0.9254902005195618 0.9411764740943909 0.9529411792755127
0.27093595266342163 0.26559293270111084 0.17075099050998688 0.12941177189350128 0.12941177189350128 0.12156862765550613
0.26034483313560486 0.2963840067386627 0.2509881556034088 0.1411764770746231 0.1411764770746231 0.1411764770746231
0.2608374357223511 0.16611400246620178 0.9984189867973328 0.9411764740943909 0.9450980424880981 0.9607843160629272
0.22142857313156128 0.3094899654388428 0.0071146246045827866 0.7058823704719543 0.6980392336845398 0.6078431606292725
0.2928571403026581 0.28343597054481506 0.9905138611793518 0.7882353067398071 0.8588235378265381 0.9137254953384399
0.34458127617836 0.20243170857429504 0.0063241105526685715 0.5098039507865906 0.5058823823928833 0.42352941632270813
0.12610837817192078 0.28059372305870056 0.9893280863761902 0.45098039507865906 0.4431372582912445 0.3960784375667572
0.3017241358757019 0.2880151569843292 0.9885375499725342 0.4274509847164154 0.43529412150382996 0.42352941632270813
0.33916255831718445 0.16832464933395386 0.9901185631752014 0.3333333432674408 0.3137255012989044 0.29019609093666077
0.2652709484100342 0.2728564739227295 0.2758893370628357 0.12941177189350128 0.14509804546833038 0.1568627506494522
0.3618226647377014 0.1981683224439621 0.9893280863761902 0.3137255012989044 0.3019607961177826 0.27450981736183167
0.2665024697780609 0.17195641994476318 0.0063241105526685715 0.5098039507865906 0.5254902243614197 0.43529412150382996
0.2825123071670532 0.264803409576416 0.17391304671764374 0.18039216101169586 0.20392157137393951 0.20392157137393951
0.17709359526634216 0.24490763247013092 0.9893280863761902 0.9921568632125854 0.9960784316062927 1.0
0.24137930572032928 0.15963998436927795 0.0063241105526685715 0.5960784554481506 0.5921568870544434 0.5098039507865906
0.3421182334423065 0.2501184344291687 0.1774703562259674 0.0784313753247261 0.07450980693101883 0.06666667014360428
0.3293103575706482 0.18222011625766754 0.0063241105526685715 0.615686297416687 0.6078431606292725 0.5098039507865906
0.2928571403026581 0.29464709758758545 0.0071146246045827866 0.3921568691730499 0.3921568691730499 0.2980392277240753
0.3532019555568695 0.22659087181091309 0.29525691270828247 0.5803921818733215 0.6274510025978088 0.6274510025978088
0.20492610335350037 0.264645516872406 0.9889327883720398 0.95686274766922 0.9607843160629272 0.9686274528503418
0.19236452877521515 0.2982788681983948 0.9893280863761902 0.9411764740943909 0.9450980424880981 0.9607843160629272
0.3522167503833771 0.3154902756214142 0.28972330689430237 0.0784313753247261 0.0784313753247261 0.0784313753247261
0.3519704341888428 0.24632875621318817 0.9881423115730286 0.3176470696926117 0.32156863808631897 0.3019607961177826
0.23522166907787323 0.25138166546821594 0.9905138611793518 0.9764705896377563 0.9803921580314636 1.0
0.2746305465698242 0.22848570346832275 0.22766798734664917 0.054901961237192154 0.054901961237192154 0.054901961237192154
0.2667487561702728 0.25090792775154114 0.006719367578625679 0.16470588743686676 0.13725490868091583 0.09803921729326248
0.2337438464164734 0.23464392125606537 0.9916995763778687 0.9686274528503418 0.9803921580314636 1.0
0.33078816533088684 0.30096322298049927 0.17035573720932007 0.0941176488995552 0.08627451211214066 0.09019608050584793
0.22561576962471008 0.2910153269767761 0.0071146246045827866 0.5607843399047852 0.5490196347236633 0.5215686559677124
0.30320197343826294 0.22643296420574188 0.9901185631752014 0.364705890417099 0.364705890417099 0.364705890417099
0.1825123131275177 0.30570030212402344 0.9893280863761902 0.9176470637321472 0.9215686321258545 0.9372549057006836
0.15812808275222778 0.1806410849094391 0.991304337978363 0.5647059082984924 0.5803921818733215 0.5764706134796143
0.31551724672317505 0.21048475801944733 0.0063241105526685715 0.48235294222831726 0.48627451062202454 0.42352941632270813
0.2608374357223511 0.2576977610588074 0.29328063130378723 0.1882352977991104 0.1882352977991104 0.21960784494876862
0.15344826877117157 0.2523290812969208 0.9897233247756958 0.48627451062202454 0.501960813999176 0.5372549295425415
0.2263546735048294 0.2409600466489792 0.0071146246045827866 0.4470588266849518 0.4431372582912445 0.37254902720451355
0.2699507474899292 0.2558029294013977 0.2596837878227234 0.20000000298023224 0.21568627655506134 0.21176470816135406
0.20172414183616638 0.30838465690612793 0.0071146246045827866 0.5333333611488342 0.5372549295425415 0.46666666865348816
0.35492610931396484 0.24317069351673126 0.1719367653131485 0.07450980693101883 0.07058823853731155 0.062745101749897
0.23620688915252686 0.3094899654388428 0.9885375499725342 1.0 1.0 1.0
0.34236451983451843 0.2816990315914154 0.29486167430877686 0.49803921580314636 0.5058823823928833 0.4941176474094391
0.3403940796852112 0.16264013946056366 0.9901185631752014 0.32549020648002625 0.3137255012989044 0.2862745225429535
0.25147783756256104 0.2693825960159302 0.19525691866874695 0.12156862765550613 0.13725490868091583 0.13333334028720856
0.3406403958797455 0.22516974806785583 0.29525691270828247 0.5921568870544434 0.6313725709915161 0.6352941393852234
0.3133004903793335 0.1640612632036209 0.9905138611793518 0.3764705955982208 0.35686275362968445 0.3450980484485626
0.14852216839790344 0.2360650599002838 0.9893280863761902 0.40392157435417175 0.3921568691730499 0.364705890417099
0.21921181678771973 0.20558977127075195 0.0071146246045827866 0.5254902243614197 0.5254902243614197 0.4313725531101227
0.126600980758667 0.19595767557621002 0.9897233247756958 0.3960784375667572 0.3960784375667572 0.3490196168422699
0.30689653754234314 0.2780672609806061 0.9881423115730286 0.4470588266849518 0.4313725531101227 0.41960784792900085
0.3576354682445526 0.20322121679782867 0.9893280863761902 0.32156863808631897 0.3176470696926117 0.2980392277240753
0.19261083006858826 0.17716722190380096 0.9956521987915039 0.9529411792755127 0.9725490212440491 0.9960784316062927
0.14039409160614014 0.27443549036979675 0.9897233247756958 0.4470588266849518 0.4431372582912445 0.42352941632270813
0.2780788242816925 0.22548554837703705 0.16442687809467316 0.1411764770746231 0.1411764770746231 0.13333334028720856
0.1630541831254959 0.17937786877155304 0.0071146246045827866 0.5882353186607361 0.5960784554481506 0.5137255191802979
0.24827586114406586 0.25785568356513977 0.2853755056858063 0.14509804546833038 0.16078431904315948 0.1725490242242813
0.3098522126674652 0.17021948099136353 0.9909090995788574 0.4000000059604645 0.3764705955982208 0.3764705955982208
0.2701970338821411 0.1951681673526764 0.9960474371910095 0.9607843160629272 0.9764705896377563 0.9882352948188782
0.19556650519371033 0.2842254936695099 0.9889327883720398 0.9529411792755127 0.95686274766922 0.9725490212440491
0.29236453771591187 0.2870677411556244 0.9905138611793518 0.800000011920929 0.8274509906768799 0.8980392217636108
0.31083744764328003 0.30317384004592896 0.29367589950561523 0.4627451002597809 0.48235294222831726 0.4588235318660736
0.12635467946529388 0.21459023654460907 0.00830039568245411 0.48235294222831726 0.48627451062202454 0.45490196347236633
0.20123152434825897 0.24206537008285522 0.0071146246045827866 0.29411765933036804 0.3019607961177826 0.250980406999588
0.15147782862186432 0.2679614722728729 0.007509881630539894 0.501960813999176 0.47843137383461 0.4313725531101227
0.27684730291366577 0.22785410284996033 0.18458497524261475 0.18431372940540314 0.1921568661928177 0.1882352977991104
0.16502462327480316 0.24948681890964508 0.007509881630539894 0.4627451002597809 0.45490196347236633 0.3960784375667572
0.314039409160614 0.3158060908317566 0.0071146246045827866 0.5921568870544434 0.5764706134796143 0.47843137383461
0.2458128035068512 0.25485551357269287 0.006719367578625679 0.4117647111415863 0.4000000059604645 0.3333333432674408
0.1349753737449646 0.19643139839172363 0.007905138656497002 0.46666666865348816 0.4627451002597809 0.3843137323856354
0.2544334828853607 0.2761724293231964 0.19446639716625214 0.10980392247438431 0.10980392247438431 0.10980392247438431
0.25665023922920227 0.2910153269767761 0.18418972194194794 0.1568627506494522 0.15294118225574493 0.13725490868091583
0.22733990848064423 0.21601137518882751 0.0071146246045827866 0.7450980544090271 0.7215686440467834 0.6274510025978088
0.3568965494632721 0.2726985514163971 0.18537549674510956 0.06666667014360428 0.06666667014360428 0.07450980693101883
0.3463054299354553 0.21964314579963684 0.0063241105526685715 0.5254902243614197 0.5176470875740051 0.46666666865348816
0.2549261152744293 0.2384335994720459 0.21660079061985016 0.21176470816135406 0.21176470816135406 0.21176470816135406
0.3086206912994385 0.3068056106567383 0.0071146246045827866 0.4000000059604645 0.4274509847164154 0.35686275362968445
0.19753694534301758 0.2583293914794922 0.9889327883720398 1.0 1.0 1.0
0.1270935982465744 0.3139112591743469 0.007509881630539894 0.6431372761726379 0.6274510025978088 0.5843137502670288
0.21551723778247833 0.206695094704628 0.0071146246045827866 0.5058823823928833 0.48627451062202454 0.4000000059604645
0.27118226885795593 0.3153323829174042 0.9881423115730286 1.0 1.0 1.0
0.1785714328289032 0.2936996817588806 0.9893280863761902 0.9254902005195618 0.929411768913269 0.9450980424880981
0.2704433500766754 0.2850149869918823 0.16916996240615845 0.11372549086809158 0.11372549086809158 0.10588235408067703
0.3280788064002991 0.22753828763961792 0.9885375499725342 0.35686275362968445 0.3529411852359772 0.33725491166114807
0.19137930870056152 0.17874625325202942 0.9956521987915039 0.9450980424880981 0.9647058844566345 0.9803921580314636
0.1507389098405838 0.264803409576416 0.007509881630539894 0.5607843399047852 0.5529412031173706 0.5058823823928833
0.3253694474697113 0.29464709758758545 0.9881423115730286 0.3294117748737335 0.3333333432674408 0.3137255012989044
0.3532019555568695 0.24222327768802643 0.006719367578625679 0.27843138575553894 0.26274511218070984 0.21960784494876862
0.2982758581638336 0.29701563715934753 0.15217390656471252 0.501960813999176 0.48235294222831726 0.3686274588108063
0.14433497190475464 0.27411970496177673 0.007509881630539894 0.5254902243614197 0.49803921580314636 0.4588235318660736
0.3288177251815796 0.27175113558769226 0.17944663763046265 0.10588235408067703 0.10588235408067703 0.09803921729326248
0.35541871190071106 0.2665403485298157 0.18458497524261475 0.0784313753247261 0.0784313753247261 0.07058823853731155
0.25566503405570984 0.2638559937477112 0.29841896891593933 0.16862745583057404 0.18431372940540314 0.21960784494876862
0.3206896483898163 0.22564345598220825 0.0063241105526685715 0.364705890417099 0.3686274588108063 0.3450980484485626
0.2778325080871582 0.3015948235988617 0.9889327883720398 1.0 1.0 1.0
0.27118226885795593 0.2695404887199402 0.21739129722118378 0.07058823853731155 0.09019608050584793 0.07450980693101883
0.23078817129135132 0.23922312259674072 0.006719367578625679 0.5372549295425415 0.529411792755127 0.4313725531101227
0.22142857313156128 0.2302226424217224 0.991304337978363 0.9725490212440491 0.9843137264251709 1.0
0.2583743929862976 0.23353861272335052 0.24071146547794342 0.05098039284348488 0.05098039284348488 0.05098039284348488
0.15270936489105225 0.18490447103977203 0.007509881630539894 0.5058823823928833 0.5098039507865906 0.43921568989753723
0.15812808275222778 0.19437864422798157 0.007509881630539894 0.545098066329956 0.5607843399047852 0.5058823823928833
0.2495073825120926 0.29701563715934753 0.1612648218870163 0.0784313753247261 0.0941176488995552 0.10588235408067703
0.32266008853912354 0.28864675760269165 0.18023715913295746 0.13333334028720856 0.13333334028720856 0.13333334028720856
0.36650246381759644 0.25959262251853943 0.18379446864128113 0.14509804546833038 0.1411764770746231 0.12156862765550613
0.25295567512512207 0.26243487000465393 0.3027667999267578 0.1764705926179886 0.19607843458652496 0.21960784494876862
0.14359605312347412 0.31154271960258484 0.007509881630539894 0.5529412031173706 0.545098066329956 0.48627451062202454
0.27118226885795593 0.25959262251853943 0.2509881556034088 0.14901961386203766 0.15294118225574493 0.12941177189350128
0.1667487621307373 0.1582188606262207 0.0071146246045827866 0.5490196347236633 0.5372549295425415 0.4627451002597809
0.24113300442695618 0.2985946536064148 0.9885375499725342 0.9529411792755127 0.95686274766922 0.9725490212440491
0.17266009747982025 0.30333176255226135 0.9897233247756958 0.9058823585510254 0.9098039269447327 0.9254902005195618
0.36798030138015747 0.21743249893188477 0.0063241105526685715 0.20392157137393951 0.1921568661928177 0.1568627506494522
0.32339900732040405 0.2498026192188263 0.29486167430877686 0.5843137502670288 0.5921568870544434 0.5803921818733215
0.2657635509967804 0.16264013946056366 0.9988142251968384 0.9490196108818054 0.9450980424880981 0.9647058844566345
0.16970443725585938 0.2210642695426941 0.007509881630539894 0.38823530077934265 0.3921568691730499 0.33725491166114807
0.26773399114608765 0.27396178245544434 0.2592885494232178 0.07450980693101883 0.0784313753247261 0.0941176488995552
0.3337438404560089 0.30001577734947205 0.0071146246045827866 0.06666667014360428 0.07450980693101883 0.054901961237192154
0.13201969861984253 0.23101216554641724 0.9893280863761902 0.41960784792900085 0.4117647111415863 0.364705890417099
0.36699506640434265 0.19864203035831451 0.9893280863761902 0.3176470696926117 0.30588236451148987 0.27843138575553894
0.2775862216949463 0.29212063550949097 0.9897233247756958 1.0 1.0 1.0
0.23891626298427582 0.30854254961013794 0.9885375499725342 1.0 1.0 1.0
0.3403940796852112 0.30348965525627136 0.29446640610694885 0.47843137383461 0.48627451062202454 0.48235294222831726
0.13990147411823273 0.2835938632488251 0.007509881630539894 0.545098066329956 0.545098066329956 0.49803921580314636
0.26330047845840454 0.22911731898784637 0.19525691866874695 0.3450980484485626 0.35686275362968445 0.3294117748737335
0.33497536182403564 0.16721932590007782 0.005928853526711464 0.5686274766921997 0.5803921818733215 0.5137255191802979
0.21108373999595642 0.23780198395252228 0.0071146246045827866 0.06666667014360428 0.06666667014360428 0.019607843831181526
0.2662561535835266 0.2299068421125412 0.2652173936367035 0.05882352963089943 0.05882352963089943 0.05098039284348488
0.32044336199760437 0.2586452066898346 0.006719367578625679 0.3019607961177826 0.27843138575553894 0.21568627655506134
0.24433498084545135 0.27680402994155884 0.0071146246045827866 0.18039216101169586 0.1921568661928177 0.1568627506494522
0.2507389187812805 0.26590871810913086 0.29920947551727295 0.1764705926179886 0.19607843458652496 0.21960784494876862
0.36748769879341125 0.22295910120010376 0.9889327883720398 0.30588236451148987 0.29411765933036804 0.2666666805744171
0.14901477098464966 0.3069635331630707 0.9897233247756958 0.43921568989753723 0.43529412150382996 0.4274509847164154
0.341379314661026 0.1894836574792862 0.0063241105526685715 0.5372549295425415 0.5333333611488342 0.4627451002597809
0.3098522126674652 0.3014369308948517 0.9881423115730286 0.3490196168422699 0.3450980484485626 0.3294117748737335
0.1899014711380005 0.23432812094688416 0.9905138611793518 0.9764705896377563 0.9921568632125854 1.0
0.2497536987066269 0.259276807308197 0.2509881556034088 0.14509804546833038 0.14509804546833038 0.13725490868091583
0.3342364430427551 0.22232748568058014 0.9889327883720398 0.3529411852359772 0.34117648005485535 0.32156863808631897
0.3603448271751404 0.30585819482803345 0.9877470135688782 0.32156863808631897 0.30980393290519714 0.29019609093666077
0.27093595266342163 0.206695094704628 0.006719367578625679 0.5411764979362488 0.5490196347236633 0.4627451002597809
0.27980294823646545 0.26006633043289185 0.17470355331897736 0.1764705926179886 0.1921568661928177 0.20392157137393951
0.16059114038944244 0.23227538168430328 0.9897233247756958 0.8313725590705872 0.8588235378265381 0.8980392217636108
0.253201961517334 0.28012001514434814 0.1826086938381195 0.20392157137393951 0.21176470816135406 0.2078431397676468
0.2704433500766754 0.21316911280155182 0.006719367578625679 0.5137255191802979 0.5137255191802979 0.41960784792900085
0.2689655125141144 0.26875099539756775 0.9905138611793518 0.9725490212440491 0.9764705896377563 0.9921568632125854
0.25197044014930725 0.25438180565834045 0.22094862163066864 0.13725490868091583 0.13725490868091583 0.13725490868091583
0.30000001192092896 0.24774987995624542 0.006719367578625679 0.32156863808631897 0.2980392277240753 0.24313725531101227
0.3369458019733429 0.28833097219467163 0.9881423115730286 0.32156863808631897 0.32549020648002625 0.30588236451148987
0.3613300621509552 0.2733301818370819 0.18142291903495789 0.0470588244497776 0.0470588244497776 0.0470588244497776
0.3214285671710968 0.1695878803730011 0.9901185631752014 0.3529411852359772 0.34117648005485535 0.32156863808631897
0.21724137663841248 0.20558977127075195 0.0071146246045827866 0.5058823823928833 0.49803921580314636 0.40784314274787903
0.314039409160614 0.31122690439224243 0.29367589950561523 0.4470588266849518 0.45490196347236633 0.43529412150382996
0.2704433500766754 0.2955945134162903 0.22727273404598236 0.2705882489681244 0.2823529541492462 0.3019607961177826
0.20492610335350037 0.27175113558769226 0.0071146246045827866 0.5254902243614197 0.5137255191802979 0.43921568989753723
0.17758621275424957 0.2872256338596344 0.007509881630539894 0.5764706134796143 0.5607843399047852 0.5176470875740051
0.2701970338821411 0.2618032395839691 0.2501976191997528 0.12941177189350128 0.13333334028720856 0.11372549086809158
0.25246304273605347 0.25153955817222595 0.22173912823200226 0.14509804546833038 0.14509804546833038 0.13725490868091583
0.3615763485431671 0.29733145236968994 0.007509881630539894 0.0784313753247261 0.0784313753247261 0.0470588244497776
0.3007389307022095 0.19027316570281982 0.9924901127815247 0.3843137323856354 0.3764705955982208 0.3803921639919281
0.25123152136802673 0.2793304920196533 0.24782608449459076 0.1764705926179886 0.1725490242242813 0.15294118225574493
0.27586206793785095 0.2269066721200943 0.1770751029253006 0.18431372940540314 0.20000000298023224 0.19607843458652496
0.3293103575706482 0.30364754796028137 0.29407113790512085 0.43921568989753723 0.4470588266849518 0.4274509847164154
0.36773398518562317 0.22895942628383636 0.9885375499725342 0.2980392277240753 0.2823529541492462 0.2705882489681244
0.27906402945518494 0.264803409576416 0.17430830001831055 0.1882352977991104 0.20392157137393951 0.2078431397676468
0.33128079771995544 0.28248855471611023 0.0071146246045827866 0.23529411852359772 0.2235294133424759 0.16470588743686676
0.2586206793785095 0.22595925629138947 0.006719367578625679 0.45490196347236633 0.4588235318660736 0.40392157435417175
0.16379310190677643 0.19737881422042847 0.9928853511810303 0.8549019694328308 0.8823529481887817 0.9058823585510254
0.34285715222358704 0.2502763271331787 0.29486167430877686 0.5372549295425415 0.5529412031173706 0.5490196347236633
0.3059113323688507 0.275698721408844 0.17549407482147217 0.25882354378700256 0.27450981736183167 0.2862745225429535
0.254679799079895 0.19090478122234344 0.006719367578625679 0.5921568870544434 0.5843137502670288 0.501960813999176
0.27536946535110474 0.22927522659301758 0.21976284682750702 0.6274510025978088 0.6039215922355652 0.5490196347236633
0.35443350672721863 0.2869098484516144 0.9881423115730286 0.2823529541492462 0.2862745225429535 0.2666666805744171
0.16009852290153503 0.20069476962089539 0.007509881630539894 0.5098039507865906 0.4941176474094391 0.4470588266849518
0.13965517282485962 0.21743249893188477 0.007905138656497002 0.4313725531101227 0.43529412150382996 0.3803921639919281
0.17684729397296906 0.305068701505661 0.9893280863761902 0.9098039269447327 0.9137254953384399 0.929411768913269
0.3448275923728943 0.19137848913669586 0.0063241105526685715 0.5372549295425415 0.5411764979362488 0.47058823704719543
0.31871920824050903 0.2760145366191864 0.29407113790512085 0.5215686559677124 0.5254902243614197 0.5058823823928833
0.3054187297821045 0.178430438041687 0.9916995763778687 0.42352941632270813 0.41960784792900085 0.4117647111415863
0.35591134428977966 0.1864835023880005 0.9897233247756958 0.2980392277240753 0.2862745225429535 0.2666666805744171
0.338177353143692 0.2730143666267395 0.0071146246045827866 0.32549020648002625 0.3176470696926117 0.25882354378700256
0.2573891580104828 0.2902258038520813 0.28893280029296875 0.1725490242242813 0.1882352977991104 0.20000000298023224
0.3561576306819916 0.2965419292449951 0.007509881630539894 0.21568627655506134 0.21568627655506134 0.1764705926179886
0.1633004993200302 0.1954839676618576 0.9928853511810303 0.8313725590705872 0.8588235378265381 0.8823529481887817
0.16182266175746918 0.26338228583335876 0.9897233247756958 0.8666666746139526 0.8627451062202454 0.8823529481887817
0.22438423335552216 0.30285805463790894 0.9889327883720398 0.9647058844566345 0.9686274528503418 0.9843137264251709
0.17241379618644714 0.1637454628944397 0.9964426755905151 0.95686274766922 0.9764705896377563 1.0
0.3022167384624481 0.1639033704996109 0.9932806491851807 0.37254902720451355 0.3921568691730499 0.3686274588108063
0.3221674859523773 0.27427759766578674 0.0071146246045827866 0.32549020648002625 0.32156863808631897 0.250980406999588
0.31945812702178955 0.30301594734191895 0.0071146246045827866 0.4313725531101227 0.4431372582912445 0.32156863808631897
0.15221674740314484 0.20480024814605713 0.007509881630539894 0.4941176474094391 0.4941176474094391 0.4470588266849518
0.28694581985473633 0.20069476962089539 0.0063241105526685715 0.5490196347236633 0.5568627715110779 0.47058823704719543
0.23916256427764893 0.16327175498008728 0.0063241105526685715 0.6039215922355652 0.6196078658103943 0.529411792755127
0.2985221743583679 0.24001263082027435 0.17865613102912903 0.16862745583057404 0.1725490242242813 0.18039216101169586
0.2731527090072632 0.2613295316696167 0.991304337978363 0.9686274528503418 0.9725490212440491 0.9882352948188782
0.20960591733455658 0.2474340796470642 0.9901185631752014 0.9882352948188782 0.9921568632125854 1.0
0.3251231610774994 0.20795831084251404 0.9893280863761902 0.38823530077934265 0.35686275362968445 0.3450980484485626
0.27167487144470215 0.29448917508125305 0.22569170594215393 0.5176470875740051 0.5411764979362488 0.5254902243614197
0.25 0.2584872841835022 0.24584980309009552 0.14901961386203766 0.14901961386203766 0.1411764770746231
0.1822660118341446 0.2125374972820282 0.992094874382019 0.9647058844566345 0.9843137264251709 1.0
0.341379314661026 0.31406915187835693 0.0071146246045827866 0.07058823853731155 0.05882352963089943 0.03921568766236305
0.26773399114608765 0.2897520959377289 0.25691699981689453 0.4941176474094391 0.501960813999176 0.4901960790157318
0.20911329984664917 0.17037738859653473 0.9968379735946655 0.9686274528503418 0.9843137264251709 0.9960784316062927
0.27561575174331665 0.23653876781463623 0.21541501581668854 0.5333333611488342 0.5215686559677124 0.4627451002597809
0.1704433560371399 0.20353703200817108 0.007509881630539894 0.5254902243614197 0.5137255191802979 0.43921568989753723
0.3660098612308502 0.16532449424266815 0.005928853526711464 0.5960784554481506 0.6078431606292725 0.5254902243614197
0.20541872084140778 0.23369650542736053 0.9909090995788574 0.9803921580314636 0.9843137264251709 1.0
0.32019704580307007 0.2981209456920624 0.29407113790512085 0.4588235318660736 0.46666666865348816 0.4470588266849518
0.16748768091201782 0.16500867903232574 0.9948616623878479 0.9843137264251709 1.0 0.9960784316062927
0.3251231610774994 0.3099636733531952 0.0071146246045827866 0.529411792755127 0.5254902243614197 0.45490196347236633
0.27931034564971924 0.16153481602668762 0.9996047616004944 1.0 1.0 1.0
0.25591132044792175 0.2150639444589615 0.006719367578625679 0.4470588266849518 0.4470588266849518 0.3529411852359772
0.3527093529701233 0.26890888810157776 0.0071146246045827866 0.21960784494876862 0.21960784494876862 0.1882352977991104
0.23891626298427582 0.19343122839927673 0.006719367578625679 0.5058823823928833 0.5254902243614197 0.43921568989753723
0.27684730291366577 0.24569714069366455 0.20909090340137482 0.10980392247438431 0.10588235408067703 0.08627451211214066
0.28694581985473633 0.2790146768093109 0.9905138611793518 0.9803921580314636 0.9803921580314636 0.9882352948188782
0.34359607100486755 0.235275536775589 0.9885375499725342 0.32549020648002625 0.32156863808631897 0.3019607961177826
0.1908867061138153 0.25469762086868286 0.0071146246045827866 0.5764706134796143 0.5490196347236633 0.4745098054409027
0.3408867120742798 0.2504342198371887 0.006719367578625679 0.27843138575553894 0.2666666805744171 0.23137255012989044
0.15394088625907898 0.17400915920734406 0.007509881630539894 0.545098066329956 0.5607843399047852 0.501960813999176
0.2780788242816925 0.2981209456920624 0.16363635659217834 0.09019608050584793 0.09019608050584793 0.09019608050584793
0.2701970338821411 0.2610137462615967 0.006719367578625679 0.3019607961177826 0.29019609093666077 0.23137255012989044
0.21970443427562714 0.28896257281303406 0.0071146246045827866 0.5686274766921997 0.5607843399047852 0.47843137383461
0.3302955627441406 0.27727773785591125 0.18023715913295746 0.10588235408067703 0.10588235408067703 0.09803921729326248
0.20295566320419312 0.2155376672744751 0.9924901127815247 0.9686274528503418 0.9803921580314636 1.0
0.27586206793785095 0.28612032532691956 0.9897233247756958 0.9803921580314636 0.9843137264251709 1.0
0.2630541920661926 0.25122374296188354 0.28260868787765503 0.16470588743686676 0.16862745583057404 0.1882352977991104
0.2692118287086487 0.2532764971256256 0.991304337978363 0.9764705896377563 0.9803921580314636 1.0
0.2894088625907898 0.23353861272335052 0.1822134405374527 0.16862745583057404 0.18431372940540314 0.1882352977991104
0.14556650817394257 0.23085425794124603 0.9893280863761902 0.4156862795352936 0.40392157435417175 0.3764705955982208
0.29187193512916565 0.2439602017402649 0.17588932812213898 0.16470588743686676 0.18039216101169586 0.1764705926179886
0.2615763545036316 0.2894362807273865 0.0071146246045827866 0.2666666805744171 0.24313725531101227 0.19607843458652496
0.36330050230026245 0.2850149869918823 0.29486167430877686 0.49803921580314636 0.5176470875740051 0.4941176474094391
0.26379311084747314 0.2696984112262726 0.1762845814228058 0.11372549086809158 0.11372549086809158 0.10588235408067703
0.29950737953186035 0.30048948526382446 0.0071146246045827866 0.13725490868091583 0.1411764770746231 0.10980392247438431
0.36798030138015747 0.20353703200817108 0.0063241105526685715 0.4274509847164154 0.4313725531101227 0.3764705955982208
0.2586206793785095 0.19311542809009552 0.006719367578625679 0.5921568870544434 0.5921568870544434 0.49803921580314636
0.12487684935331345 0.25675034523010254 0.007905138656497002 0.47058823704719543 0.4588235318660736 0.3921568691730499
0.17783251404762268 0.17069318890571594 0.006719367578625679 0.5372549295425415 0.5411764979362488 0.47058823704719543
0.19532020390033722 0.22848570346832275 0.007509881630539894 0.5372549295425415 0.529411792755127 0.47058823704719543
0.3014778196811676 0.25453969836235046 0.9889327883720398 0.3490196168422699 0.34117648005485535 0.3529411852359772
0.2731527090072632 0.2666982412338257 0.2185770720243454 0.0941176488995552 0.0941176488995552 0.0941176488995552
0.12955665588378906 0.20211590826511383 0.9897233247756958 0.3803921639919281 0.3803921639919281 0.34117648005485535
0.3578817844390869 0.3154902756214142 0.28893280029296875 0.07450980693101883 0.07450980693101883 0.07450980693101883
0.28399014472961426 0.24332860112190247 0.1766798347234726 0.1764705926179886 0.1921568661928177 0.1882352977991104
0.36231526732444763 0.27759355306625366 0.9881423115730286 0.2823529541492462 0.2862745225429535 0.26274511218070984
0.2692118287086487 0.22469604015350342 0.006719367578625679 0.43529412150382996 0.4274509847164154 0.3764705955982208
