0.88768470287323 0.7686720490455627 0.9881423115730286 0.41960784792900085 0.40784314274787903 0.37254902720451355
0.9450739026069641 0.7685141563415527 0.007509881630539894 0.49803921580314636 0.4745098054409027 0.41960784792900085
0.8970443606376648 0.7582504153251648 0.005928853526711464 0.4117647111415863 0.40392157435417175 0.32156863808631897
0.9775862097740173 0.7217748165130615 0.46007904410362244 0.7176470756530762 0.7372549176216125 0.7490196228027344
0.9002463221549988 0.6744039058685303 0.005533596966415644 0.4000000059604645 0.38823530077934265 0.3137255012989044
0.7497537136077881 0.6571924686431885 0.9924901127815247 0.7960784435272217 0.8117647171020508 0.8549019694328308
0.9770935773849487 0.6892467737197876 0.5332015752792358 0.6901960968971252 0.7098039388656616 0.7333333492279053
0.9605911374092102 0.7217748165130615 0.9901185631752014 0.4156862795352936 0.40392157435417175 0.3686274588108063
0.881280779838562 0.7183009386062622 0.005928853526711464 0.5686274766921997 0.5686274766921997 0.4588235318660736
0.9330049157142639 0.7809884548187256 0.0063241105526685715 0.501960813999176 0.4745098054409027 0.37254902720451355
0.8342364430427551 0.7358282208442688 0.9897233247756958 0.45490196347236633 0.4431372582912445 0.42352941632270813
0.8980295658111572 0.7435654401779175 0.005928853526711464 0.48235294222831726 0.47058823704719543 0.3960784375667572
0.7697044610977173 0.6319279670715332 0.007905138656497002 0.3529411852359772 0.3490196168422699 0.27843138575553894
0.9817733764648438 0.6557713747024536 0.26916995644569397 0.6901960968971252 0.6941176652908325 0.6235294342041016
0.740394115447998 0.6578240990638733 0.24782608449459076 0.10588235408067703 0.10588235408067703 0.10588235408067703
0.9736453294754028 0.7347228527069092 0.012648221105337143 0.41960784792900085 0.3921568691730499 0.3294117748737335
0.9825122952461243 0.724301278591156 0.22094862163066864 0.7098039388656616 0.7254902124404907 0.6666666865348816
0.815517246723175 0.7771987915039062 0.9901185631752014 0.48627451062202454 0.46666666865348816 0.45490196347236633
0.982758641242981 0.7236696481704712 0.14387351274490356 0.7254902124404907 0.7215686440467834 0.6509804129600525
0.7512315511703491 0.6453497409820557 0.3063241243362427 0.24313725531101227 0.3294117748737335 0.41960784792900085
0.7916256189346313 0.7282488346099854 0.005928853526711464 0.5686274766921997 0.5686274766921997 0.4745098054409027
0.982758641242981 0.7871466875076294 0.7845849990844727 0.6078431606292725 0.6274510025978088 0.6392157077789307
0.7844827771186829 0.6628770232200623 0.9897233247756958 0.4117647111415863 0.4156862795352936 0.3921568691730499
0.8007389307022095 0.7007737159729004 0.9901185631752014 0.42352941632270813 0.42352941632270813 0.3921568691730499
0.9812808036804199 0.7036159634590149 0.7936758995056152 0.6235294342041016 0.6470588445663452 0.6392157077789307
0.7761083841323853 0.7356703281402588 0.0063241105526685715 0.38823530077934265 0.3843137323856354 0.3137255012989044
0.9849753975868225 0.7716721892356873 0.9067193865776062 0.5254902243614197 0.501960813999176 0.4470588266849518
0.9798029661178589 0.7704089879989624 0.7292490005493164 0.658823549747467 0.6627451181411743 0.6823529601097107
0.7738916277885437 0.7014053463935852 0.005928853526711464 0.5411764979362488 0.5529412031173706 0.48627451062202454
0.8288177251815796 0.7072477340698242 0.005928853526711464 0.48627451062202454 0.5058823823928833 0.41960784792900085
0.9820197224617004 0.6511921882629395 0.20513834059238434 0.7098039388656616 0.7176470756530762 0.6352941393852234
0.9413793087005615 0.696668267250061 0.005533596966415644 0.48235294222831726 0.4627451002597809 0.3764705955982208
0.7903940677642822 0.7680404186248779 0.9909090995788574 0.47843137383461 0.46666666865348816 0.4470588266849518
0.9711822867393494 0.6589294075965881 0.33557313680648804 0.6470588445663452 0.7568627595901489 0.8392156958580017
0.8162561655044556 0.7582504153251648 0.9901185631752014 0.4627451002597809 0.4470588266849518 0.43529412150382996
0.9773399233818054 0.6942996978759766 0.5415019989013672 0.6941176652908325 0.7137255072593689 0.729411780834198
0.9785714149475098 0.6889309883117676 0.3529644310474396 0.7176470756530762 0.7568627595901489 0.7647058963775635
0.9773399233818054 0.7213011384010315 0.4960474371910095 0.7254902124404907 0.7450980544090271 0.7568627595901489
0.9780788421630859 0.6319279670715332 0.36166009306907654 0.7058823704719543 0.7254902124404907 0.7372549176216125
0.9002463221549988 0.7708826661109924 0.9885375499725342 0.38823530077934265 0.37254902720451355 0.32549020648002625
0.982758641242981 0.735512375831604 0.1822134405374527 0.7215686440467834 0.7254902124404907 0.6627451181411743
0.9778324961662292 0.6925627589225769 0.4308300316333771 0.6941176652908325 0.7254902124404907 0.7372549176216125
0.9822660088539124 0.707721471786499 0.28300395607948303 0.6274510025978088 0.6470588445663452 0.5607843399047852
0.7958127856254578 0.6881414651870728 0.9897233247756958 0.41960784792900085 0.41960784792900085 0.37254902720451355
0.9773399233818054 0.7094584107398987 0.500790536403656 0.7176470756530762 0.7372549176216125 0.7490196228027344
0.9800492525100708 0.7530396580696106 0.7873517870903015 0.6196078658103943 0.6313725709915161 0.6509804129600525
0.9830049276351929 0.7541449666023254 0.14703556895256042 0.7215686440467834 0.7254902124404907 0.6627451181411743
0.9788177609443665 0.735354483127594 0.6458498239517212 0.7529411911964417 0.7568627595901489 0.7647058963775635
0.9775862097740173 0.6349281668663025 0.6612648367881775 0.6431372761726379 0.6627451181411743 0.6745098233222961
0.9009852409362793 0.7607768774032593 0.005928853526711464 0.42352941632270813 0.4156862795352936 0.3333333432674408
0.8083744049072266 0.7006158232688904 0.9897233247756958 0.34117648005485535 0.3294117748737335 0.30980393290519714
0.9852216839790344 0.6916153430938721 0.8774703741073608 0.5568627715110779 0.5490196347236633 0.46666666865348816
0.9770935773849487 0.7044054865837097 0.5090909004211426 0.7137255072593689 0.7333333492279053 0.7450980544090271
0.9766010046005249 0.6445602178573608 0.4679841995239258 0.6901960968971252 0.7019608020782471 0.729411780834198
0.9773399233818054 0.6594031453132629 0.426086962223053 0.6980392336845398 0.7215686440467834 0.7686274647712708
0.9741379022598267 0.6616137623786926 0.9885375499725342 0.32156863808631897 0.30588236451148987 0.2705882489681244
0.9061576128005981 0.6358755826950073 0.9905138611793518 0.43529412150382996 0.41960784792900085 0.3843137323856354
0.7554187178611755 0.7741986513137817 0.991304337978363 0.6549019813537598 0.6549019813537598 0.6941176652908325
0.9822660088539124 0.6349281668663025 0.1881422996520996 0.6784313917160034 0.6941176652908325 0.6039215922355652
0.984236478805542 0.7386704683303833 0.8498023748397827 0.6000000238418579 0.5882353186607361 0.529411792755127
0.9721674919128418 0.7325122356414795 0.011857707053422928 0.6274510025978088 0.6039215922355652 0.5490196347236633
0.982758641242981 0.7801989316940308 0.17865613102912903 0.7529411911964417 0.7490196228027344 0.6784313917160034
0.8847290873527527 0.6470866799354553 0.005928853526711464 0.5254902243614197 0.5215686559677124 0.4117647111415863
0.9394088387489319 0.723985493183136 0.005928853526711464 0.5254902243614197 0.49803921580314636 0.43529412150382996
0.9785714149475098 0.7042475938796997 0.3600790500640869 0.7019608020782471 0.7372549176216125 0.7333333492279053
0.9773399233818054 0.648823618888855 0.4158102869987488 0.686274528503418 0.7137255072593689 0.7450980544090271
0.9778324961662292 0.7025106549263 0.5806323885917664 0.6941176652908325 0.7137255072593689 0.7254902124404907
0.9822660088539124 0.6448760628700256 0.8039525747299194 0.6000000238418579 0.5882353186607361 0.5607843399047852
0.979556679725647 0.7268277406692505 0.7517786622047424 0.6039215922355652 0.6274510025978088 0.6274510025978088
0.7470443248748779 0.7555660605430603 0.0063241105526685715 0.34117648005485535 0.34117648005485535 0.3019607961177826
0.9778324961662292 0.7118269205093384 0.5687747001647949 0.7019608020782471 0.7215686440467834 0.7333333492279053
0.9822660088539124 0.6849834322929382 0.20118577778339386 0.7215686440467834 0.7333333492279053 0.658823549747467
0.9770935773849487 0.6552976369857788 0.4466403126716614 0.686274528503418 0.7137255072593689 0.7529411911964417
0.7477832436561584 0.6747197508811951 0.3083004057407379 0.43529412150382996 0.46666666865348816 0.47843137383461
0.7423645257949829 0.740249514579773 0.0063241105526685715 0.1921568661928177 0.1921568661928177 0.14509804546833038
0.9770935773849487 0.6740881204605103 0.5774703621864319 0.6901960968971252 0.7137255072593689 0.7137255072593689
0.9472906589508057 0.6532449126243591 0.005928853526711464 0.49803921580314636 0.47058823704719543 0.4000000059604645
0.9825122952461243 0.7083530426025391 0.197628453373909 0.729411780834198 0.7411764860153198 0.6745098233222961
0.9832512140274048 0.6908258199691772 0.10711462795734406 0.7098039388656616 0.7098039388656616 0.615686297416687
0.9822660088539124 0.7231959700584412 0.27984189987182617 0.6274510025978088 0.658823549747467 0.5764706134796143
0.7953202128410339 0.632559597492218 0.9897233247756958 0.4156862795352936 0.41960784792900085 0.3490196168422699
0.979556679725647 0.7157745361328125 0.30474308133125305 0.5411764979362488 0.5529412031173706 0.48627451062202454
0.979556679725647 0.7669351100921631 0.6889328360557556 0.6666666865348816 0.658823549747467 0.7019608020782471
0.9825122952461243 0.75714510679245 0.2403162121772766 0.7450980544090271 0.7372549176216125 0.6784313917160034
0.9472906589508057 0.6980893611907959 0.9897233247756958 0.43529412150382996 0.41960784792900085 0.3764705955982208
0.8512315154075623 0.7618821859359741 0.0063241105526685715 0.4745098054409027 0.4745098054409027 0.37254902720451355
0.9325123429298401 0.7369335293769836 0.005928853526711464 0.4588235318660736 0.4588235318660736 0.364705890417099
0.9763546586036682 0.6456655859947205 0.530434787273407 0.6784313917160034 0.7098039388656616 0.7215686440467834
0.742118239402771 0.6726669669151306 0.21541501581668854 0.11764705926179886 0.11764705926179886 0.11764705926179886
0.9822660088539124 0.7097741961479187 0.2553359568119049 0.6901960968971252 0.6980392336845398 0.6431372761726379
0.9847290515899658 0.7536712288856506 0.8727272748947144 0.5843137502670288 0.5647059082984924 0.4901960790157318
0.9268472790718079 0.6993526220321655 0.9897233247756958 0.4470588266849518 0.43921568989753723 0.38823530077934265
0.9546797871589661 0.6843518018722534 0.005533596966415644 0.4000000059604645 0.38823530077934265 0.3294117748737335
0.7642857432365417 0.6985630989074707 0.005928853526711464 0.35686275362968445 0.364705890417099 0.2823529541492462
0.8960590958595276 0.7713564038276672 0.0063241105526685715 0.43529412150382996 0.4274509847164154 0.33725491166114807
0.9852216839790344 0.7334596514701843 0.06126482039690018 0.7019608020782471 0.6980392336845398 0.6274510025978088
0.8054187297821045 0.777672529220581 0.9901185631752014 0.4588235318660736 0.43921568989753723 0.4156862795352936
0.982758641242981 0.7647244334220886 0.1984189748764038 0.7568627595901489 0.7490196228027344 0.6980392336845398
0.9761083722114563 0.6464550495147705 0.3114624619483948 0.5411764979362488 0.5372549295425415 0.45490196347236633
0.8199507594108582 0.691299557685852 0.9897233247756958 0.43921568989753723 0.4313725531101227 0.3843137323856354
0.9780788421630859 0.6894047260284424 0.6332015991210938 0.6627451181411743 0.6823529601097107 0.6941176652908325
0.9780788421630859 0.746407687664032 0.5494071245193481 0.7176470756530762 0.729411780834198 0.7490196228027344
0.7980295419692993 0.6734564900398254 0.9897233247756958 0.3960784375667572 0.4000000059604645 0.3686274588108063
0.7953202128410339 0.7148271203041077 0.9901185631752014 0.4313725531101227 0.4274509847164154 0.4117647111415863
0.9699507355690002 0.6617716550827026 0.32015809416770935 0.4313725531101227 0.3921568691730499 0.38823530077934265
0.9825122952461243 0.6935101747512817 0.023715414106845856 0.239215686917305 0.20392157137393951 0.16862745583057404
0.9773399233818054 0.6890888810157776 0.5418972373008728 0.6901960968971252 0.7098039388656616 0.7254902124404907
0.8302955627441406 0.707563579082489 0.005928853526711464 0.5254902243614197 0.545098066329956 0.4588235318660736
0.9086207151412964 0.6691930890083313 0.9897233247756958 0.4156862795352936 0.40784314274787903 0.35686275362968445
0.9820197224617004 0.6638244390487671 0.26798418164253235 0.6901960968971252 0.6941176652908325 0.6313725709915161
0.9394088387489319 0.7890415191650391 0.03399209305644035 0.09019608050584793 0.1921568661928177 0.8156862854957581
0.7431034445762634 0.6954050064086914 0.005928853526711464 0.3019607961177826 0.29411765933036804 0.23529411852359772
0.9785714149475098 0.7004579305648804 0.39328062534332275 0.6980392336845398 0.7176470756530762 0.729411780834198
0.9849753975868225 0.7347228527069092 0.0830039530992508 0.7254902124404907 0.7176470756530762 0.6666666865348816
0.9775862097740173 0.6522974967956543 0.6438735127449036 0.6745098233222961 0.6823529601097107 0.7411764860153198
0.9793103337287903 0.7074056267738342 0.7442687749862671 0.615686297416687 0.6392157077789307 0.6392157077789307
0.9411330223083496 0.7704089879989624 0.9893280863761902 0.4470588266849518 0.42352941632270813 0.3764705955982208
0.956403911113739 0.7083530426025391 0.005533596966415644 0.49803921580314636 0.47843137383461 0.4000000059604645
0.9780788421630859 0.7689878344535828 0.5063241124153137 0.729411780834198 0.7411764860153198 0.7686274647712708
0.8990147709846497 0.6592452526092529 0.005533596966415644 0.45490196347236633 0.43529412150382996 0.3490196168422699
0.8628078699111938 0.6977735757827759 0.9893280863761902 0.4313725531101227 0.42352941632270813 0.3764705955982208
0.9706896543502808 0.6578240990638733 0.31897231936454773 0.4156862795352936 0.4313725531101227 0.364705890417099
0.9822660088539124 0.6404547691345215 0.12727272510528564 0.6980392336845398 0.7058823704719543 0.6235294342041016
0.8105911612510681 0.7546186447143555 0.0063241105526685715 0.5803921818733215 0.5686274766921997 0.501960813999176
0.9820197224617004 0.642981231212616 0.03754940629005432 0.2823529541492462 0.2666666805744171 0.21960784494876862
0.7945812940597534 0.7045633792877197 0.005928853526711464 0.5176470875740051 0.5098039507865906 0.41960784792900085
0.9204433560371399 0.665245532989502 0.005533596966415644 0.3450980484485626 0.35686275362968445 0.27450981736183167
0.9775862097740173 0.7276172637939453 0.4992094933986664 0.729411780834198 0.7490196228027344 0.7607843279838562
0.7418718934059143 0.724301278591156 0.0063241105526685715 0.2862745225429535 0.27843138575553894 0.22745098173618317
0.9783251285552979 0.6335070133209229 0.7288537621498108 0.6117647290229797 0.6274510025978088 0.6392157077789307
0.8224138021469116 0.7497236728668213 0.0063241105526685715 0.5058823823928833 0.5137255191802979 0.41960784792900085
0.8431034684181213 0.7527238130569458 0.9893280863761902 0.43921568989753723 0.4117647111415863 0.38823530077934265
0.9770935773849487 0.6860887408256531 0.54347825050354 0.6941176652908325 0.7137255072593689 0.729411780834198
0.7758620977401733 0.7850939631462097 0.0063241105526685715 0.4941176474094391 0.49803921580314636 0.4274509847164154
0.982758641242981 0.735354483127594 0.1774703562259674 0.7176470756530762 0.7215686440467834 0.6666666865348816
0.8315271139144897 0.637612521648407 0.9897233247756958 0.4274509847164154 0.41960784792900085 0.3686274588108063
0.7527093887329102 0.7183009386062622 0.9909090995788574 0.9333333373069763 0.9411764740943909 0.8980392217636108
0.8332512378692627 0.7029843926429749 0.9897233247756958 0.4431372582912445 0.45098039507865906 0.4000000059604645
0.9738916158676147 0.7072477340698242 0.00909090880304575 0.37254902720451355 0.3450980484485626 0.27450981736183167
0.7948275804519653 0.6537185907363892 0.005928853526711464 0.40784314274787903 0.4274509847164154 0.3019607961177826
0.982758641242981 0.7825675010681152 0.14940711855888367 0.7607843279838562 0.7450980544090271 0.6980392336845398
0.9773399233818054 0.6807200312614441 0.43478259444236755 0.7058823704719543 0.7176470756530762 0.7372549176216125
0.8032019734382629 0.741038978099823 0.9905138611793518 0.42352941632270813 0.4156862795352936 0.41960784792900085
0.8965517282485962 0.7767251133918762 0.9881423115730286 0.43529412150382996 0.40784314274787903 0.3686274588108063
0.9822660088539124 0.7674087882041931 0.8154150247573853 0.658823549747467 0.6392157077789307 0.5647059082984924
0.7807881832122803 0.6372966766357422 0.9893280863761902 0.42352941632270813 0.42352941632270813 0.3764705955982208
0.9839901328086853 0.7606189846992493 0.8383399248123169 0.6313725709915161 0.6235294342041016 0.5411764979362488
0.9844827651977539 0.713721752166748 0.052173912525177 0.6980392336845398 0.6941176652908325 0.615686297416687
0.9773399233818054 0.6684036254882812 0.5992094874382019 0.6823529601097107 0.7019608020782471 0.7254902124404907
0.9844827651977539 0.7145112752914429 0.05770751088857651 0.7058823704719543 0.6980392336845398 0.6392157077789307
0.979556679725647 0.7738828063011169 0.694861650466919 0.6745098233222961 0.6745098233222961 0.7058823704719543
0.926354706287384 0.6848255395889282 0.9897233247756958 0.45490196347236633 0.4313725531101227 0.3843137323856354
0.834482729434967 0.7737249135971069 0.0063241105526685715 0.45098039507865906 0.4627451002597809 0.4274509847164154
0.9450739026069641 0.7874624729156494 0.09762845933437347 0.05882352963089943 0.0470588244497776 0.12156862765550613
0.9793103337287903 0.7074056267738342 0.7442687749862671 0.615686297416687 0.6392157077789307 0.6392157077789307
0.979556679725647 0.7363018989562988 0.7434782385826111 0.6039215922355652 0.6274510025978088 0.6274510025978088
0.9790640473365784 0.7610926628112793 0.6249011754989624 0.6823529601097107 0.686274528503418 0.7058823704719543
0.9847290515899658 0.6537185907363892 0.8648221492767334 0.5568627715110779 0.5333333611488342 0.4470588266849518
0.8022167682647705 0.7445128560066223 0.9905138611793518 0.4274509847164154 0.41960784792900085 0.42352941632270813
0.7504926323890686 0.6402968764305115 0.3067193627357483 0.19607843458652496 0.21176470816135406 0.2078431397676468
0.9770935773849487 0.6445602178573608 0.6118577122688293 0.6666666865348816 0.686274528503418 0.7098039388656616
0.9822660088539124 0.6647718548774719 0.08221343904733658 0.7098039388656616 0.7019608020782471 0.6431372761726379
0.8384236693382263 0.7213011384010315 0.9897233247756958 0.3921568691730499 0.3921568691730499 0.3607843220233917
0.740394115447998 0.6399810314178467 0.007905138656497002 0.1764705926179886 0.1764705926179886 0.14509804546833038
0.740394115447998 0.6878256797790527 0.0063241105526685715 0.21568627655506134 0.21568627655506134 0.1764705926179886
0.7953202128410339 0.7339333891868591 0.0063241105526685715 0.5490196347236633 0.5529412031173706 0.4901960790157318
0.7433497309684753 0.6393494606018066 0.18102766573429108 0.0941176488995552 0.0941176488995552 0.0941176488995552
0.8697044253349304 0.7719879746437073 0.0063241105526685715 0.5058823823928833 0.501960813999176 0.41960784792900085
0.8953201770782471 0.7749881744384766 0.9881423115730286 0.43921568989753723 0.4156862795352936 0.3686274588108063
0.9135468006134033 0.6369808912277222 0.9905138611793518 0.4470588266849518 0.4313725531101227 0.3960784375667572
0.9788177609443665 0.7069319486618042 0.6739130616188049 0.7803921699523926 0.8039215803146362 0.8039215803146362
0.8802955746650696 0.6848255395889282 0.9893280863761902 0.4274509847164154 0.41960784792900085 0.3607843220233917
0.8635467886924744 0.7277751564979553 0.005928853526711464 0.4313725531101227 0.4156862795352936 0.3176470696926117
0.9770935773849487 0.6955628991127014 0.4727272689342499 0.7058823704719543 0.7254902124404907 0.7372549176216125
0.9566502571105957 0.6642981171607971 0.005533596966415644 0.5921568870544434 0.5803921818733215 0.545098066329956
0.9802955389022827 0.7827253937721252 0.7233201861381531 0.6705882549285889 0.6705882549285889 0.7019608020782471
0.982758641242981 0.6759829521179199 0.0731225311756134 0.7215686440467834 0.7215686440467834 0.6274510025978088
0.982758641242981 0.7677246332168579 0.20553359389305115 0.7529411911964417 0.7450980544090271 0.6980392336845398
0.9783251285552979 0.7318806052207947 0.5841897130012512 0.7058823704719543 0.7098039388656616 0.729411780834198
0.9830049276351929 0.7375651597976685 0.1513833999633789 0.7333333492279053 0.729411780834198 0.658823549747467
0.9768472909927368 0.6736143827438354 0.5501976013183594 0.6980392336845398 0.7137255072593689 0.7254902124404907
0.9822660088539124 0.6439286470413208 0.10237154364585876 0.6901960968971252 0.6941176652908325 0.6235294342041016
0.9817733764648438 0.6519817113876343 0.2924901247024536 0.545098066329956 0.5568627715110779 0.45098039507865906
0.8416256308555603 0.7364597916603088 0.9897233247756958 0.4588235318660736 0.4470588266849518 0.41960784792900085
0.9793103337287903 0.6933522820472717 0.7632411122322083 0.615686297416687 0.6392157077789307 0.6313725709915161
0.9061576128005981 0.6502447724342346 0.005928853526711464 0.4627451002597809 0.43921568989753723 0.33725491166114807
0.982758641242981 0.6687194108963013 0.8083003759384155 0.6117647290229797 0.6196078658103943 0.5764706134796143
0.9332512021064758 0.7670930027961731 0.9889327883720398 0.43529412150382996 0.40784314274787903 0.3686274588108063
0.7507389187812805 0.6736143827438354 0.005928853526711464 0.30588236451148987 0.29019609093666077 0.24705882370471954
0.9775862097740173 0.7304595112800598 0.5173913240432739 0.7333333492279053 0.7450980544090271 0.7647058963775635
0.8753694295883179 0.7844623327255249 0.0063241105526685715 0.5215686559677124 0.5254902243614197 0.4627451002597809
0.7573891878128052 0.6704563498497009 0.005928853526711464 0.3176470696926117 0.30980393290519714 0.26274511218070984
0.8982758522033691 0.6339807510375977 0.005928853526711464 0.4117647111415863 0.3960784375667572 0.2980392277240753
0.9027093648910522 0.7339333891868591 0.9889327883720398 0.45098039507865906 0.4431372582912445 0.3960784375667572
0.7736453413963318 0.6571924686431885 0.0063241105526685715 0.37254902720451355 0.3686274588108063 0.29019609093666077
0.8758620619773865 0.7039318084716797 0.9889327883720398 0.4274509847164154 0.4117647111415863 0.3686274588108063
0.7980295419692993 0.7738828063011169 0.9905138611793518 0.47843137383461 0.4745098054409027 0.45490196347236633
0.8270936012268066 0.7808305621147156 0.0063241105526685715 0.4745098054409027 0.47843137383461 0.4470588266849518
0.9450739026069641 0.7561976909637451 0.9893280863761902 0.43921568989753723 0.4117647111415863 0.37254902720451355
0.982758641242981 0.7606189846992493 0.1873517781496048 0.7529411911964417 0.7450980544090271 0.686274528503418
0.9783251285552979 0.6455076336860657 0.7245059013366699 0.6235294342041016 0.6352941393852234 0.6627451181411743
0.9837438464164734 0.6974577903747559 0.07430829852819443 0.7490196228027344 0.7450980544090271 0.6666666865348816
0.9822660088539124 0.7034580707550049 0.2814229130744934 0.6313725709915161 0.6470588445663452 0.5568627715110779
0.9780788421630859 0.7579346299171448 0.4588932693004608 0.729411780834198 0.7411764860153198 0.7607843279838562
0.9785714149475098 0.6428232789039612 0.739920973777771 0.615686297416687 0.6274510025978088 0.6549019813537598
0.9780788421630859 0.6698247194290161 0.39723318815231323 0.7019608020782471 0.7176470756530762 0.7647058963775635
0.9790640473365784 0.724459171295166 0.6826087236404419 0.7921568751335144 0.8117647171020508 0.8235294222831726
0.9849753975868225 0.7363018989562988 0.874703586101532 0.5803921818733215 0.5529412031173706 0.47843137383461
0.9825122952461243 0.696984052658081 0.21225295960903168 0.7215686440467834 0.7254902124404907 0.6549019813537598
0.9428571462631226 0.7012474536895752 0.9897233247756958 0.4117647111415863 0.4000000059604645 0.364705890417099
0.9834975600242615 0.7083530426025391 0.038735177367925644 0.3607843220233917 0.32549020648002625 0.2666666805744171
0.9800492525100708 0.7740407586097717 0.7628458738327026 0.6509804129600525 0.6549019813537598 0.6745098233222961
0.9763546586036682 0.6726669669151306 0.5134387612342834 0.6980392336845398 0.7176470756530762 0.7333333492279053
0.8416256308555603 0.7866730093955994 0.9893280863761902 0.4470588266849518 0.43529412150382996 0.40784314274787903
0.934482753276825 0.6609821319580078 0.9901185631752014 0.4313725531101227 0.4313725531101227 0.3843137323856354
0.9793103337287903 0.7276172637939453 0.7150197625160217 0.6039215922355652 0.6274510025978088 0.6274510025978088
0.7800492644309998 0.6668245792388916 0.005928853526711464 0.21960784494876862 0.22745098173618317 0.1725490242242813
0.9817733764648438 0.7383546233177185 0.8027667999267578 0.7254902124404907 0.7490196228027344 0.7490196228027344
0.8879310488700867 0.6690351963043213 0.9897233247756958 0.4470588266849518 0.43921568989753723 0.3921568691730499
0.9773399233818054 0.7535133361816406 0.37826088070869446 0.12941177189350128 0.10196078568696976 0.12941177189350128
0.7396551966667175 0.6412442922592163 0.007905138656497002 0.23529411852359772 0.23529411852359772 0.20392157137393951
0.8958128094673157 0.7048792243003845 0.005928853526711464 0.5137255191802979 0.5137255191802979 0.4117647111415863
0.8209359645843506 0.6341386437416077 0.005928853526711464 0.5254902243614197 0.5607843399047852 0.4470588266849518
0.9655172228813171 0.7385125756263733 0.9901185631752014 0.38823530077934265 0.37254902720451355 0.3294117748737335
0.9852216839790344 0.6399810314178467 0.8972331881523132 0.5372549295425415 0.5137255191802979 0.4274509847164154
0.9798029661178589 0.7623559236526489 0.07114624232053757 0.8470588326454163 0.800000011920929 0.7450980544090271
0.9775862097740173 0.7238275408744812 0.4857707619667053 0.729411780834198 0.7490196228027344 0.7607843279838562
0.9731526970863342 0.6811937689781189 0.31581026315689087 0.43921568989753723 0.42352941632270813 0.3803921639919281
0.7391625642776489 0.7310910820960999 0.9932806491851807 0.9686274528503418 0.9843137264251709 0.9960784316062927
0.9785714149475098 0.6791409850120544 0.7225296497344971 0.6235294342041016 0.6392157077789307 0.6431372761726379
0.9766010046005249 0.6371387839317322 0.4648221433162689 0.686274528503418 0.7058823704719543 0.7176470756530762
0.9807881712913513 0.7759355902671814 0.12411066889762878 0.529411792755127 0.5764706134796143 0.7411764860153198
0.9830049276351929 0.7219327092170715 0.8162055611610413 0.6313725709915161 0.6235294342041016 0.5647059082984924
0.9519704580307007 0.6849834322929382 0.005533596966415644 0.48627451062202454 0.45098039507865906 0.3843137323856354
0.9780788421630859 0.7659876942634583 0.4952569305896759 0.7254902124404907 0.7411764860153198 0.7764706015586853
0.8379310369491577 0.7261961102485657 0.9897233247756958 0.40784314274787903 0.3960784375667572 0.3686274588108063
0.875123143196106 0.7607768774032593 0.9885375499725342 0.45098039507865906 0.43529412150382996 0.4000000059604645
0.9822660088539124 0.6794568300247192 0.1407114565372467 0.7215686440467834 0.7176470756530762 0.6352941393852234
0.9780788421630859 0.6691930890083313 0.3849802315235138 0.6941176652908325 0.7215686440467834 0.7607843279838562
0.9637930989265442 0.7561976909637451 0.3328063189983368 0.4588235318660736 0.4470588266849518 0.41960784792900085
0.9364532232284546 0.6535606980323792 0.005928853526711464 0.45490196347236633 0.45098039507865906 0.37254902720451355
0.9798029661178589 0.7723038196563721 0.7150197625160217 0.6666666865348816 0.6666666865348816 0.6980392336845398
0.9785714149475098 0.7271435260772705 0.6284584999084473 0.6901960968971252 0.6941176652908325 0.7137255072593689
0.7733989953994751 0.745934009552002 0.9909090995788574 0.43529412150382996 0.43529412150382996 0.4274509847164154
0.9428571462631226 0.7850939631462097 0.0830039530992508 0.10196078568696976 0.1882352977991104 0.8313725590705872
0.743596076965332 0.6925627589225769 0.16837944090366364 0.09019608050584793 0.10588235408067703 0.10980392247438431
0.8788177371025085 0.7546186447143555 0.005928853526711464 0.45490196347236633 0.4470588266849518 0.35686275362968445
0.7906404137611389 0.7228801250457764 0.9905138611793518 0.40392157435417175 0.40392157435417175 0.40392157435417175
0.9605911374092102 0.7217748165130615 0.9901185631752014 0.4156862795352936 0.40392157435417175 0.3686274588108063
0.9820197224617004 0.642981231212616 0.19407114386558533 0.6980392336845398 0.7019608020782471 0.6313725709915161
0.7527093887329102 0.6658771634101868 0.2960474193096161 0.6941176652908325 0.6666666865348816 0.5960784554481506
0.9768472909927368 0.6590873003005981 0.5640316009521484 0.686274528503418 0.7019608020782471 0.7372549176216125
0.9731526970863342 0.7506710886955261 0.3391304314136505 0.37254902720451355 0.3764705955982208 0.3921568691730499
0.9780788421630859 0.7157745361328125 0.5972331762313843 0.6901960968971252 0.7019608020782471 0.7215686440467834
0.9766010046005249 0.6665087342262268 0.5292490124702454 0.7019608020782471 0.7215686440467834 0.7372549176216125
0.9049261212348938 0.6663508415222168 0.9897233247756958 0.43921568989753723 0.42352941632270813 0.38823530077934265
0.8736453056335449 0.6609821319580078 0.005533596966415644 0.4156862795352936 0.4000000059604645 0.3019607961177826
0.7598522305488586 0.696826159954071 0.9905138611793518 0.38823530077934265 0.38823530077934265 0.41960784792900085
0.9822660088539124 0.6712458729743958 0.1762845814228058 0.7176470756530762 0.7254902124404907 0.6431372761726379
0.9802955389022827 0.7784620523452759 0.7869565486907959 0.6392157077789307 0.658823549747467 0.6745098233222961
0.9049261212348938 0.6841939091682434 0.9893280863761902 0.4274509847164154 0.4117647111415863 0.3686274588108063
0.8105911612510681 0.7546186447143555 0.0063241105526685715 0.5803921818733215 0.5686274766921997 0.501960813999176
0.9559113383293152 0.788725733757019 0.09565217047929764 0.04313725605607033 0.054901961237192154 0.11372549086809158
0.7773398756980896 0.7006158232688904 0.9901185631752014 0.3921568691730499 0.3960784375667572 0.3764705955982208
0.9822660088539124 0.6864045262336731 0.2403162121772766 0.6941176652908325 0.6980392336845398 0.6274510025978088
0.8618226647377014 0.7694615721702576 0.9885375499725342 0.47058823704719543 0.45098039507865906 0.4274509847164154
0.8123152852058411 0.7503553032875061 0.0063241105526685715 0.4431372582912445 0.46666666865348816 0.4117647111415863
0.8147783279418945 0.6684036254882812 0.005928853526711464 0.4431372582912445 0.43921568989753723 0.3294117748737335
0.9832512140274048 0.696668267250061 0.12371541559696198 0.7019608020782471 0.7098039388656616 0.6235294342041016
0.9837438464164734 0.6971419453620911 0.8233201503753662 0.615686297416687 0.615686297416687 0.5843137502670288
0.9783251285552979 0.6876677870750427 0.6466403007507324 0.6705882549285889 0.6745098233222961 0.6901960968971252
0.9780788421630859 0.7693036198616028 0.10079051554203033 0.501960813999176 0.529411792755127 0.6392157077789307
0.9825122952461243 0.7230380773544312 0.2347826063632965 0.7215686440467834 0.7333333492279053 0.6666666865348816
0.9822660088539124 0.6346123218536377 0.8039525747299194 0.5686274766921997 0.5764706134796143 0.5215686559677124
0.878078818321228 0.6428232789039612 0.005928853526711464 0.364705890417099 0.3843137323856354 0.2980392277240753
0.9844827651977539 0.7198799848556519 0.08181817829608917 0.7333333492279053 0.729411780834198 0.6470588445663452
0.9773399233818054 0.7157745361328125 0.5043478012084961 0.7254902124404907 0.7490196228027344 0.7490196228027344
0.940640389919281 0.7884098887443542 0.07233201712369919 0.10196078568696976 0.20392157137393951 0.8745098114013672
0.9785714149475098 0.7773566842079163 0.544268786907196 0.7215686440467834 0.7333333492279053 0.7529411911964417
0.9815270900726318 0.6867203712463379 0.30355730652809143 0.5254902243614197 0.529411792755127 0.4588235318660736
0.7426108121871948 0.6762987375259399 0.17430830001831055 0.08235294371843338 0.08627451211214066 0.0941176488995552
0.756157636642456 0.660034716129303 0.0063241105526685715 0.21568627655506134 0.21960784494876862 0.16470588743686676
0.9825122952461243 0.713721752166748 0.1984189748764038 0.7254902124404907 0.7372549176216125 0.6705882549285889
0.8041871786117554 0.7603031992912292 0.0063241105526685715 0.4313725531101227 0.4431372582912445 0.3607843220233917
0.7913793325424194 0.6985630989074707 0.9901185631752014 0.42352941632270813 0.42352941632270813 0.3921568691730499
0.8071428537368774 0.6684036254882812 0.005928853526711464 0.529411792755127 0.5529412031173706 0.41960784792900085
0.9416255950927734 0.7844623327255249 0.09130434691905975 0.14509804546833038 0.23529411852359772 0.8941176533699036
0.9800492525100708 0.7438812851905823 0.7814229130744934 0.615686297416687 0.6274510025978088 0.6470588445663452
0.9830049276351929 0.7063003182411194 0.030434781685471535 0.2078431397676468 0.1725490242242813 0.14509804546833038
0.9837438464164734 0.7280909419059753 0.04308300465345383 0.7098039388656616 0.6666666865348816 0.5960784554481506
0.74064040184021 0.6723511815071106 0.24624505639076233 0.09803921729326248 0.09803921729326248 0.09803921729326248
0.9802955389022827 0.7861992716789246 0.6288537383079529 0.7098039388656616 0.7137255072593689 0.7215686440467834
0.9790640473365784 0.7768830060958862 0.6110671758651733 0.7058823704719543 0.7176470756530762 0.7450980544090271
0.9812808036804199 0.7854097485542297 0.7142292261123657 0.6745098233222961 0.6784313917160034 0.6941176652908325
0.9849753975868225 0.7261961102485657 0.06403162330389023 0.686274528503418 0.6784313917160034 0.6196078658103943
0.8805418610572815 0.7107216119766235 0.9889327883720398 0.4470588266849518 0.4313725531101227 0.3960784375667572
0.9790640473365784 0.7580925226211548 0.6490118503570557 0.6666666865348816 0.6705882549285889 0.686274528503418
0.982758641242981 0.7238275408744812 0.8142292499542236 0.6313725709915161 0.6235294342041016 0.5647059082984924
0.9426108598709106 0.6642981171607971 0.9901185631752014 0.4313725531101227 0.42352941632270813 0.3764705955982208
0.9463053941726685 0.7560397982597351 0.9893280863761902 0.43529412150382996 0.4117647111415863 0.364705890417099
0.8162561655044556 0.7170377373695374 0.005928853526711464 0.43529412150382996 0.43529412150382996 0.3333333432674408
0.8497536778450012 0.7704089879989624 0.9889327883720398 0.4431372582912445 0.4274509847164154 0.3921568691730499
0.8261083960533142 0.6961945295333862 0.005928853526711464 0.545098066329956 0.5411764979362488 0.47058823704719543
0.756403923034668 0.643297016620636 0.9909090995788574 0.4274509847164154 0.4431372582912445 0.38823530077934265
0.9783251285552979 0.7640928626060486 0.4071146249771118 0.3137255012989044 0.30588236451148987 0.32549020648002625
0.9761083722114563 0.6368229985237122 0.4960474371910095 0.6901960968971252 0.7019608020782471 0.7215686440467834
0.8736453056335449 0.6584557294845581 0.9897233247756958 0.4588235318660736 0.4470588266849518 0.4117647111415863
0.9825122952461243 0.7339333891868591 0.21581028401851654 0.7137255072593689 0.7215686440467834 0.6666666865348816
0.8578817844390869 0.6635085940361023 0.9893280863761902 0.4274509847164154 0.4313725531101227 0.3686274588108063
0.8889162540435791 0.7737249135971069 0.9881423115730286 0.4588235318660736 0.4431372582912445 0.4000000059604645
0.9839901328086853 0.7104058265686035 0.09328063577413559 0.7450980544090271 0.7450980544090271 0.6509804129600525
0.8958128094673157 0.7048792243003845 0.005928853526711464 0.5137255191802979 0.5137255191802979 0.4117647111415863
0.8679803013801575 0.735196590423584 0.9889327883720398 0.4627451002597809 0.4470588266849518 0.40392157435417175
0.8502463102340698 0.7843044400215149 0.9889327883720398 0.47843137383461 0.4627451002597809 0.41960784792900085
0.9780788421630859 0.6701405048370361 0.6794466376304626 0.6549019813537598 0.6745098233222961 0.686274528503418
0.9798029661178589 0.7819358706474304 0.7043478488922119 0.6784313917160034 0.6745098233222961 0.6980392336845398
0.9817733764648438 0.6508763432502747 0.29960474371910095 0.5215686559677124 0.5254902243614197 0.4627451002597809
0.7842364311218262 0.7151429057121277 0.9905138611793518 0.42352941632270813 0.42352941632270813 0.4156862795352936
0.9837438464164734 0.6971419453620911 0.040316205471754074 0.6784313917160034 0.6352941393852234 0.5568627715110779
0.9766010046005249 0.6505605578422546 0.5596837997436523 0.686274528503418 0.7058823704719543 0.7215686440467834
0.9667487740516663 0.6423496007919312 0.9905138611793518 0.43529412150382996 0.40784314274787903 0.3686274588108063
0.9169950485229492 0.7397757768630981 0.005928853526711464 0.4901960790157318 0.4745098054409027 0.3764705955982208
0.9618226885795593 0.638086199760437 0.9905138611793518 0.33725491166114807 0.3137255012989044 0.2666666805744171
0.9761083722114563 0.648507833480835 0.5205533504486084 0.6823529601097107 0.7098039388656616 0.7333333492279053
0.7598522305488586 0.6755092144012451 0.005928853526711464 0.22745098173618317 0.21568627655506134 0.14901961386203766
0.7940886616706848 0.6398231387138367 0.006719367578625679 0.40784314274787903 0.3960784375667572 0.3294117748737335
0.9337438344955444 0.7527238130569458 0.005928853526711464 0.4588235318660736 0.4470588266849518 0.37254902720451355
0.9093596339225769 0.7716721892356873 0.9885375499725342 0.42352941632270813 0.4156862795352936 0.3686274588108063
0.9775862097740173 0.6857729554176331 0.5814229249954224 0.6941176652908325 0.7098039388656616 0.7215686440467834
0.9211822748184204 0.7612506151199341 0.005928853526711464 0.4470588266849518 0.4431372582912445 0.3607843220233917
0.9798029661178589 0.7429338097572327 0.7498023509979248 0.615686297416687 0.6313725709915161 0.6274510025978088
0.9093596339225769 0.7685141563415527 0.9885375499725342 0.4313725531101227 0.4156862795352936 0.37254902720451355
0.9793103337287903 0.7614085078239441 0.6592885255813599 0.6627451181411743 0.6666666865348816 0.6823529601097107
0.9182265996932983 0.7651981711387634 0.005928853526711464 0.4156862795352936 0.40784314274787903 0.32549020648002625
0.9852216839790344 0.7416706085205078 0.9027668237686157 0.545098066329956 0.5215686559677124 0.43529412150382996
0.9778324961662292 0.7445128560066223 0.4367589056491852 0.7333333492279053 0.7450980544090271 0.7647058963775635
0.7628079056739807 0.7070898413658142 0.005928853526711464 0.364705890417099 0.3490196168422699 0.3137255012989044
0.9443349838256836 0.7764092683792114 0.0830039530992508 0.07058823853731155 0.21568627655506134 0.6627451181411743
0.9780788421630859 0.7162482142448425 0.41857707500457764 0.7019608020782471 0.7215686440467834 0.7333333492279053
0.9820197224617004 0.7042475938796997 0.2924901247024536 0.5529412031173706 0.5490196347236633 0.47058823704719543
0.825123131275177 0.7702510952949524 0.0063241105526685715 0.5372549295425415 0.5490196347236633 0.5058823823928833
0.9788177609443665 0.696984052658081 0.6905138492584229 0.6392157077789307 0.6627451181411743 0.6627451181411743
0.9773399233818054 0.7620400786399841 0.3849802315235138 0.1921568661928177 0.4156862795352936 0.4431372582912445
0.8290640115737915 0.637928307056427 0.005928853526711464 0.4901960790157318 0.5058823823928833 0.4156862795352936
0.982758641242981 0.6917732357978821 0.13754940032958984 0.7215686440467834 0.7372549176216125 0.6470588445663452
0.9165024757385254 0.7688299417495728 0.9885375499725342 0.4313725531101227 0.4156862795352936 0.37254902720451355
0.8438423871994019 0.7569872140884399 0.0063241105526685715 0.5333333611488342 0.5411764979362488 0.45490196347236633
0.9780788421630859 0.6852992177009583 0.396047443151474 0.7019608020782471 0.7215686440467834 0.7450980544090271
0.7433497309684753 0.7342491745948792 0.0063241105526685715 0.2666666805744171 0.2666666805744171 0.23529411852359772
0.9780788421630859 0.762829601764679 0.5347825884819031 0.7176470756530762 0.729411780834198 0.7490196228027344
0.984236478805542 0.724459171295166 0.844268798828125 0.6000000238418579 0.5960784554481506 0.5254902243614197
0.868719220161438 0.7173535227775574 0.005928853526711464 0.6039215922355652 0.6117647290229797 0.5254902243614197
0.7431034445762634 0.6789830923080444 0.20592884719371796 0.062745101749897 0.062745101749897 0.054901961237192154
0.9830049276351929 0.7693036198616028 0.14229248464107513 0.7490196228027344 0.7333333492279053 0.686274528503418
0.9822660088539124 0.7061424255371094 0.26758894324302673 0.6823529601097107 0.6941176652908325 0.6274510025978088
0.9598522186279297 0.6616137623786926 0.9905138611793518 0.40392157435417175 0.38823530077934265 0.3450980484485626
0.9825122952461243 0.7314069271087646 0.24743083119392395 0.7137255072593689 0.729411780834198 0.6745098233222961
0.9822660088539124 0.643297016620636 0.12687747180461884 0.7098039388656616 0.7058823704719543 0.6352941393852234
0.8948276042938232 0.7658298015594482 0.0063241105526685715 0.4588235318660736 0.45098039507865906 0.3607843220233917
0.7766009569168091 0.7585662603378296 0.9909090995788574 0.45490196347236633 0.43921568989753723 0.43529412150382996
0.9825122952461243 0.7413548231124878 0.2288537621498108 0.7058823704719543 0.7215686440467834 0.6666666865348816
0.9847290515899658 0.6428232789039612 0.8754940629005432 0.545098066329956 0.5254902243614197 0.4117647111415863
0.8440886735916138 0.719090461730957 0.005928853526711464 0.45098039507865906 0.4588235318660736 0.3764705955982208
0.8982758522033691 0.7734091281890869 0.9881423115730286 0.42352941632270813 0.3960784375667572 0.35686275362968445
0.8716748952865601 0.6942996978759766 0.005928853526711464 0.5686274766921997 0.5686274766921997 0.46666666865348816
0.9785714149475098 0.67645663022995 0.7260869741439819 0.6235294342041016 0.6392157077789307 0.6431372761726379
0.9780788421630859 0.7154586911201477 0.5928853750228882 0.6901960968971252 0.7019608020782471 0.7215686440467834
0.8975369334220886 0.6349281668663025 0.005928853526711464 0.45490196347236633 0.43921568989753723 0.34117648005485535
0.8059113025665283 0.7746723294258118 0.9901185631752014 0.4901960790157318 0.4745098054409027 0.4313725531101227
0.9790640473365784 0.6838781237602234 0.7584980130195618 0.6196078658103943 0.6352941393852234 0.6313725709915161
0.9790640473365784 0.7367756366729736 0.6561264991760254 0.7921568751335144 0.8039215803146362 0.8235294222831726
0.8657635450363159 0.6846675872802734 0.005928853526711464 0.5137255191802979 0.5058823823928833 0.40784314274787903
0.982758641242981 0.7822517156600952 0.16798418760299683 0.7490196228027344 0.7411764860153198 0.6823529601097107
0.979556679725647 0.7505131959915161 0.7233201861381531 0.6313725709915161 0.6352941393852234 0.6431372761726379
0.7559113502502441 0.6789830923080444 0.005928853526711464 0.2666666805744171 0.250980406999588 0.21568627655506134
0.8401477932929993 0.7374072074890137 0.9897233247756958 0.4117647111415863 0.4000000059604645 0.37254902720451355
0.9780788421630859 0.6834043860435486 0.6739130616188049 0.658823549747467 0.6745098233222961 0.686274528503418
0.8206896781921387 0.670772135257721 0.9893280863761902 0.4431372582912445 0.43529412150382996 0.38823530077934265
0.9810344576835632 0.7839886546134949 0.36086955666542053 0.1725490242242813 0.18431372940540314 0.21176470816135406
0.9770935773849487 0.6991946697235107 0.47747036814689636 0.6980392336845398 0.7333333492279053 0.729411780834198
0.9790640473365784 0.707563579082489 0.6992095112800598 0.6196078658103943 0.6352941393852234 0.6392157077789307
0.8667487502098083 0.7168798446655273 0.005928853526711464 0.5098039507865906 0.5058823823928833 0.3843137323856354
0.9783251285552979 0.6961945295333862 0.4007905125617981 0.7019608020782471 0.7215686440467834 0.7372549176216125
0.9798029661178589 0.7596715688705444 0.747035562992096 0.6431372761726379 0.6431372761726379 0.6745098233222961
0.742118239402771 0.6399810314178467 0.2711462378501892 0.13725490868091583 0.13333334028720856 0.11764705926179886
0.9224137663841248 0.6442444324493408 0.005928853526711464 0.5607843399047852 0.5411764979362488 0.45490196347236633
0.93916255235672 0.6955628991127014 0.005533596966415644 0.501960813999176 0.5058823823928833 0.45098039507865906
0.8536945581436157 0.7666193246841431 0.9889327883720398 0.45098039507865906 0.43921568989753723 0.4117647111415863
0.9830049276351929 0.762671709060669 0.14268775284290314 0.7411764860153198 0.729411780834198 0.6705882549285889
0.9852216839790344 0.6878256797790527 0.9707509875297546 0.41960784792900085 0.38823530077934265 0.33725491166114807
0.9460591077804565 0.6635085940361023 0.9905138611793518 0.4000000059604645 0.3843137323856354 0.34117648005485535
0.9825122952461243 0.7760934829711914 0.19644269347190857 0.7568627595901489 0.7490196228027344 0.6901960968971252
0.9753694534301758 0.7500394582748413 0.3486166000366211 0.7333333492279053 0.7529411911964417 0.7686274647712708
0.8783251047134399 0.659876823425293 0.9897233247756958 0.45490196347236633 0.4470588266849518 0.4000000059604645
0.9820197224617004 0.729985773563385 0.29407113790512085 0.43529412150382996 0.4313725531101227 0.3607843220233917
0.7448275685310364 0.6423496007919312 0.9928853511810303 0.8235294222831726 0.8392156958580017 0.8509804010391235
0.7502462863922119 0.7217748165130615 0.991304337978363 0.9137254953384399 0.9215686321258545 0.9098039269447327
0.9825122952461243 0.7546186447143555 0.23083004355430603 0.7333333492279053 0.7372549176216125 0.6823529601097107
0.7896551489830017 0.6947734355926514 0.005928853526711464 0.47843137383461 0.48627451062202454 0.3921568691730499
0.8002462983131409 0.632085919380188 0.9897233247756958 0.3921568691730499 0.3960784375667572 0.32549020648002625
0.7903940677642822 0.7680404186248779 0.9909090995788574 0.47843137383461 0.46666666865348816 0.4470588266849518
0.9778324961662292 0.7494078874588013 0.4383399188518524 0.7333333492279053 0.7450980544090271 0.7647058963775635
0.9396551847457886 0.6328754425048828 0.005928853526711464 0.4901960790157318 0.47058823704719543 0.3960784375667572
0.9706896543502808 0.6464550495147705 0.3185770809650421 0.45490196347236633 0.45098039507865906 0.3803921639919281
0.7736453413963318 0.6939839124679565 0.005928853526711464 0.5176470875740051 0.5176470875740051 0.42352941632270813
0.8788177371025085 0.7836728096008301 0.9881423115730286 0.45098039507865906 0.4431372582912445 0.3921568691730499
0.9285714030265808 0.7034580707550049 0.005533596966415644 0.45490196347236633 0.43529412150382996 0.32156863808631897
0.9637930989265442 0.7476709485054016 0.9897233247756958 0.40784314274787903 0.37254902720451355 0.33725491166114807
0.8480295538902283 0.707879364490509 0.005928853526711464 0.4470588266849518 0.45490196347236633 0.37254902720451355
0.9642857313156128 0.6369808912277222 0.9905138611793518 0.4117647111415863 0.38823530077934265 0.34117648005485535
0.9817733764648438 0.643612802028656 0.22766798734664917 0.6941176652908325 0.6980392336845398 0.6274510025978088
0.9817733764648438 0.7003000378608704 0.9766798615455627 0.364705890417099 0.33725491166114807 0.27450981736183167
0.9544335007667542 0.7738828063011169 0.09960474073886871 0.18431372940540314 0.1921568661928177 0.5254902243614197
0.982758641242981 0.751934289932251 0.1984189748764038 0.7176470756530762 0.7333333492279053 0.6745098233222961
