0.9586206674575806 0.8495184183120728 0.005928853526711464 0.4627451002597809 0.48235294222831726 0.45490196347236633
0.9783251285552979 0.7658298015594482 0.4201580882072449 0.7607843279838562 0.7647058963775635 0.772549033164978
0.9775862097740173 0.713248074054718 0.5403162240982056 0.7058823704719543 0.7372549176216125 0.7450980544090271
0.9780788421630859 0.762829601764679 0.4470355808734894 0.729411780834198 0.7490196228027344 0.772549033164978
0.9731526970863342 0.7284067869186401 0.3229249119758606 0.43921568989753723 0.4313725531101227 0.37254902720451355
0.8325123190879822 0.7179851531982422 0.005928853526711464 0.4156862795352936 0.4156862795352936 0.32156863808631897
0.9822660088539124 0.7506710886955261 0.8146244883537292 0.6196078658103943 0.6078431606292725 0.5411764979362488
0.9817733764648438 0.8037264943122864 0.27984189987182617 0.7215686440467834 0.7254902124404907 0.6627451181411743
0.9837438464164734 0.8057792782783508 0.15019762516021729 0.772549033164978 0.7882353067398071 0.6901960968971252
0.9551724195480347 0.7718300819396973 0.9897233247756958 0.42352941632270813 0.3960784375667572 0.35686275362968445
0.9413793087005615 0.7811463475227356 0.027272727340459824 0.1568627506494522 0.24705882370471954 0.6117647290229797
0.7743842601776123 0.7959892749786377 0.9909090995788574 0.4627451002597809 0.4470588266849518 0.43529412150382996
0.979556679725647 0.7863571643829346 0.49802371859550476 0.729411780834198 0.7333333492279053 0.7411764860153198
0.984236478805542 0.8531501889228821 0.8845849633216858 0.4901960790157318 0.4627451002597809 0.3921568691730499
0.757881760597229 0.7715142965316772 0.0063241105526685715 0.30980393290519714 0.3176470696926117 0.2666666805744171
0.9852216839790344 0.7642507553100586 0.9256917238235474 0.49803921580314636 0.4745098054409027 0.4274509847164154
0.9487684965133667 0.7595136761665344 0.007509881630539894 0.3960784375667572 0.4000000059604645 0.33725491166114807
0.8857142925262451 0.7440391778945923 0.005928853526711464 0.41960784792900085 0.41960784792900085 0.3176470696926117
0.8692117929458618 0.8522027730941772 0.9881423115730286 0.19607843458652496 0.18039216101169586 0.14509804546833038
0.9820197224617004 0.7538291215896606 0.02450592815876007 0.18431372940540314 0.16862745583057404 0.1568627506494522
0.984236478805542 0.7669351100921631 0.8537549376487732 0.6313725709915161 0.6196078658103943 0.5529412031173706
0.9527093768119812 0.7696194648742676 0.010276679880917072 0.49803921580314636 0.4901960790157318 0.40784314274787903
0.9822660088539124 0.7850939631462097 0.29446640610694885 0.615686297416687 0.5921568870544434 0.4901960790157318
0.8997536897659302 0.8589925765991211 0.9885375499725342 0.25882354378700256 0.23529411852359772 0.18039216101169586
0.9780788421630859 0.719248354434967 0.365612655878067 0.6784313917160034 0.7098039388656616 0.7176470756530762
0.7913793325424194 0.7266698479652405 0.005928853526711464 0.48235294222831726 0.4941176474094391 0.4117647111415863
0.8852216601371765 0.8302541971206665 0.9881423115730286 0.2666666805744171 0.239215686917305 0.20000000298023224
0.9849753975868225 0.8195168375968933 0.7438735365867615 0.6039215922355652 0.5921568870544434 0.5176470875740051
0.9820197224617004 0.7723038196563721 0.2964426875114441 0.5882353186607361 0.5686274766921997 0.4941176474094391
0.7894088625907898 0.751618504524231 0.0063241105526685715 0.5137255191802979 0.501960813999176 0.4274509847164154
0.9810344576835632 0.8280435800552368 0.22094862163066864 0.5960784554481506 0.6039215922355652 0.5490196347236633
0.9847290515899658 0.8394126296043396 0.9233201742172241 0.48235294222831726 0.4588235318660736 0.3960784375667572
0.7985221743583679 0.7948839664459229 0.0063241105526685715 0.40392157435417175 0.40784314274787903 0.3764705955982208
0.984236478805542 0.8548871278762817 0.8750988245010376 0.4941176474094391 0.46666666865348816 0.3921568691730499
0.9167487621307373 0.713563859462738 0.9893280863761902 0.41960784792900085 0.4117647111415863 0.3529411852359772
0.923399031162262 0.7509868741035461 0.9889327883720398 0.4274509847164154 0.4117647111415863 0.3686274588108063
0.9635468125343323 0.7756197452545166 0.11185770481824875 0.1921568661928177 0.23137255012989044 0.7490196228027344
0.9807881712913513 0.7873045802116394 0.6375494003295898 0.7098039388656616 0.7098039388656616 0.7176470756530762
0.8238916397094727 0.849360466003418 0.006719367578625679 0.3960784375667572 0.38823530077934265 0.34117648005485535
0.798275887966156 0.7105637192726135 0.9901185631752014 0.41960784792900085 0.42352941632270813 0.4000000059604645
0.9788177609443665 0.7213011384010315 0.6490118503570557 0.7568627595901489 0.7764706015586853 0.7921568751335144
0.9822660088539124 0.7906205654144287 0.1762845814228058 0.7568627595901489 0.7529411911964417 0.6745098233222961
0.8184729218482971 0.7760934829711914 0.9897233247756958 0.47843137383461 0.4588235318660736 0.43529412150382996
0.9852216839790344 0.816200852394104 0.9482213258743286 0.4745098054409027 0.4431372582912445 0.3686274588108063
0.9401477575302124 0.821411669254303 0.9893280863761902 0.4627451002597809 0.4274509847164154 0.4000000059604645
0.9798029661178589 0.7813042998313904 0.7011857628822327 0.6784313917160034 0.6745098233222961 0.6941176652908325
0.9832512140274048 0.7208274006843567 0.035573121160268784 0.2078431397676468 0.18039216101169586 0.1411764770746231
0.9783251285552979 0.7732512354850769 0.5083004236221313 0.729411780834198 0.7411764860153198 0.7686274647712708
0.7600985169410706 0.7847781181335449 0.991304337978363 0.4901960790157318 0.4941176474094391 0.5137255191802979
0.8302955627441406 0.7923575043678284 0.9893280863761902 0.46666666865348816 0.45490196347236633 0.43529412150382996
0.8709359765052795 0.7693036198616028 0.0063241105526685715 0.40784314274787903 0.40392157435417175 0.32549020648002625
0.9785714149475098 0.746249794960022 0.5952569246292114 0.6980392336845398 0.7019608020782471 0.7215686440467834
0.984236478805542 0.7105637192726135 0.07351778447628021 0.7529411911964417 0.7490196228027344 0.6666666865348816
0.9847290515899658 0.8152534365653992 0.5059288740158081 0.7490196228027344 0.7490196228027344 0.7568627595901489
0.9534482955932617 0.788883626461029 0.09525691717863083 0.027450980618596077 0.05098039284348488 0.11372549086809158
0.9825122952461243 0.83814936876297 0.38181817531585693 0.22745098173618317 0.18431372940540314 0.20000000298023224
0.8197044134140015 0.7359861135482788 0.005928853526711464 0.48627451062202454 0.4941176474094391 0.4117647111415863
0.940640389919281 0.7664613723754883 0.9893280863761902 0.4470588266849518 0.41960784792900085 0.3803921639919281
0.7881773114204407 0.7173535227775574 0.005928853526711464 0.529411792755127 0.5372549295425415 0.45490196347236633
0.9817733764648438 0.8264645338058472 0.3122529685497284 0.6549019813537598 0.6431372761726379 0.5686274766921997
0.8096058964729309 0.8517290353775024 0.9889327883720398 0.24313725531101227 0.2235294133424759 0.20000000298023224
0.9830049276351929 0.7552502751350403 0.8249011635780334 0.615686297416687 0.6117647290229797 0.529411792755127
0.9802955389022827 0.8315174579620361 0.15494070947170258 0.6823529601097107 0.6666666865348816 0.6705882549285889
0.8339901566505432 0.8277277946472168 0.9889327883720398 0.33725491166114807 0.3176470696926117 0.29411765933036804
0.9788177609443665 0.7494078874588013 0.6241106986999512 0.6549019813537598 0.6705882549285889 0.6823529601097107
0.8977832794189453 0.7734091281890869 0.0063241105526685715 0.48235294222831726 0.48235294222831726 0.38823530077934265
0.9785714149475098 0.7811463475227356 0.5395256876945496 0.7333333492279053 0.7372549176216125 0.7568627595901489
0.9830049276351929 0.8026211857795715 0.18142291903495789 0.7372549176216125 0.7411764860153198 0.6705882549285889
0.742118239402771 0.7590399384498596 0.0063241105526685715 0.2549019753932953 0.2549019753932953 0.2078431397676468
0.9837438464164734 0.7219327092170715 0.9735177755355835 0.40392157435417175 0.3764705955982208 0.3137255012989044
0.984236478805542 0.811147928237915 0.39407113194465637 0.7647058963775635 0.7490196228027344 0.7058823704719543
0.8810344934463501 0.7127743363380432 0.005928853526711464 0.47058823704719543 0.47843137383461 0.3843137323856354
0.7588669657707214 0.8533080816268921 0.0071146246045827866 0.4274509847164154 0.43529412150382996 0.3529411852359772
0.9793103337287903 0.7501973509788513 0.6893280744552612 0.7098039388656616 0.7098039388656616 0.7098039388656616
0.8169950842857361 0.7509868741035461 0.0063241105526685715 0.5882353186607361 0.5843137502670288 0.5137255191802979
0.9773399233818054 0.7123006582260132 0.48260870575904846 0.7137255072593689 0.7490196228027344 0.7450980544090271
0.9832512140274048 0.8286752104759216 0.7256916761398315 0.5568627715110779 0.5490196347236633 0.45098039507865906
0.8054187297821045 0.804989755153656 0.006719367578625679 0.3686274588108063 0.3803921639919281 0.3450980484485626
0.982758641242981 0.7896731495857239 0.29841896891593933 0.6745098233222961 0.6705882549285889 0.5529412031173706
0.7399014830589294 0.713721752166748 0.0063241105526685715 0.22745098173618317 0.2235294133424759 0.15294118225574493
0.9017241597175598 0.8349913358688354 0.9885375499725342 0.3764705955982208 0.3607843220233917 0.3176470696926117
0.8135467767715454 0.7490920424461365 0.9901185631752014 0.4313725531101227 0.4274509847164154 0.41960784792900085
0.984236478805542 0.8198326230049133 0.6383399367332458 0.7450980544090271 0.7333333492279053 0.6745098233222961
0.9839901328086853 0.7456181645393372 0.04624506086111069 0.6980392336845398 0.6823529601097107 0.6352941393852234
0.9825122952461243 0.788567841053009 0.7320157885551453 0.6549019813537598 0.6627451181411743 0.6509804129600525
0.8790640234947205 0.7527238130569458 0.005928853526711464 0.5333333611488342 0.529411792755127 0.4117647111415863
0.8192118406295776 0.7896731495857239 0.9897233247756958 0.4588235318660736 0.4431372582912445 0.4313725531101227
0.9778324961662292 0.740565299987793 0.45019763708114624 0.729411780834198 0.7411764860153198 0.7607843279838562
0.7647783160209656 0.7211432456970215 0.0063241105526685715 0.4000000059604645 0.40784314274787903 0.32156863808631897
0.9679803252220154 0.7494078874588013 0.3343873620033264 0.800000011920929 0.8039215803146362 0.8117647171020508
0.8416256308555603 0.8072003722190857 0.9889327883720398 0.4274509847164154 0.42352941632270813 0.40392157435417175
0.9384236335754395 0.7418285012245178 0.005928853526711464 0.5058823823928833 0.4941176474094391 0.4274509847164154
0.8105911612510681 0.7565134763717651 0.0063241105526685715 0.47058823704719543 0.4588235318660736 0.4000000059604645
0.8551723957061768 0.8226748704910278 0.9885375499725342 0.364705890417099 0.3490196168422699 0.3137255012989044
0.812561571598053 0.746565580368042 0.0063241105526685715 0.5568627715110779 0.5490196347236633 0.4588235318660736
0.7721675038337708 0.7871466875076294 0.0063241105526685715 0.3843137323856354 0.4156862795352936 0.35686275362968445
0.9788177609443665 0.7249329090118408 0.6513833999633789 0.7764706015586853 0.7960784435272217 0.8117647171020508
0.8517241477966309 0.8577293753623962 0.006719367578625679 0.2666666805744171 0.2666666805744171 0.23529411852359772
0.9091132879257202 0.7367756366729736 0.9889327883720398 0.4313725531101227 0.4156862795352936 0.3686274588108063
0.9775862097740173 0.7165640592575073 0.5347825884819031 0.7098039388656616 0.7411764860153198 0.7490196228027344
0.8504925966262817 0.8018316626548767 0.0063241105526685715 0.48627451062202454 0.48627451062202454 0.43921568989753723
0.9798029661178589 0.8346754908561707 0.00830039568245411 0.4313725531101227 0.45098039507865906 0.4627451002597809
0.8347290754318237 0.7211432456970215 0.005928853526711464 0.529411792755127 0.5215686559677124 0.4313725531101227
0.9834975600242615 0.83799147605896 0.5383399128913879 0.19607843458652496 0.20000000298023224 0.1764705926179886
0.8692117929458618 0.7937785983085632 0.0063241105526685715 0.5764706134796143 0.5803921818733215 0.5098039507865906
0.915517270565033 0.8176220059394836 0.9885375499725342 0.4117647111415863 0.38823530077934265 0.34117648005485535
0.9807881712913513 0.8248855471611023 0.249802365899086 0.6901960968971252 0.6980392336845398 0.6470588445663452
0.9805418848991394 0.746091902256012 0.790513813495636 0.6117647290229797 0.6274510025978088 0.6392157077789307
0.7684729099273682 0.7543028593063354 0.0063241105526685715 0.3921568691730499 0.4000000059604645 0.3137255012989044
0.7770935893058777 0.8078320026397705 0.9905138611793518 0.4313725531101227 0.4274509847164154 0.4117647111415863
0.7613300681114197 0.8062529563903809 0.9909090995788574 0.45098039507865906 0.4588235318660736 0.4470588266849518
0.9059113264083862 0.7374072074890137 0.005928853526711464 0.4901960790157318 0.5058823823928833 0.40784314274787903
0.7495073676109314 0.7358282208442688 0.0063241105526685715 0.3176470696926117 0.3176470696926117 0.27843138575553894
0.8677340149879456 0.7882519960403442 0.9885375499725342 0.45490196347236633 0.43921568989753723 0.40392157435417175
0.8551723957061768 0.7181430459022522 0.9893280863761902 0.43921568989753723 0.4470588266849518 0.3960784375667572
0.9798029661178589 0.7764092683792114 0.12332015484571457 0.4470588266849518 0.5058823823928833 0.8313725590705872
0.9844827651977539 0.8360966444015503 0.1723320186138153 0.062745101749897 0.062745101749897 0.062745101749897
0.9844827651977539 0.7175114750862122 0.07944664359092712 0.7333333492279053 0.729411780834198 0.6470588445663452
0.979556679725647 0.7841465473175049 0.6324110627174377 0.7137255072593689 0.7098039388656616 0.729411780834198
0.7519704699516296 0.7171956300735474 0.0063241105526685715 0.4117647111415863 0.4000000059604645 0.32549020648002625
0.9839901328086853 0.8245697021484375 0.7292490005493164 0.5764706134796143 0.5647059082984924 0.4901960790157318
0.7495073676109314 0.7377230525016785 0.991304337978363 0.9098039269447327 0.9215686321258545 0.886274516582489
0.9729064106941223 0.827411949634552 0.06086956337094307 0.3843137323856354 0.4117647111415863 0.43529412150382996
0.9793103337287903 0.719248354434967 0.7122529745101929 0.6078431606292725 0.6313725709915161 0.6313725709915161
0.8428571224212646 0.7495657801628113 0.0063241105526685715 0.4627451002597809 0.4745098054409027 0.40784314274787903
0.942364513874054 0.8545712828636169 0.005928853526711464 0.45490196347236633 0.46666666865348816 0.4000000059604645
0.7598522305488586 0.78304123878479 0.0063241105526685715 0.34117648005485535 0.35686275362968445 0.3019607961177826
0.7662561535835266 0.8086215257644653 0.006719367578625679 0.4588235318660736 0.4470588266849518 0.4117647111415863
0.9822660088539124 0.7931470274925232 0.1723320186138153 0.7647058963775635 0.7607843279838562 0.6823529601097107
0.9428571462631226 0.8062529563903809 0.10513833910226822 0.10196078568696976 0.1725490242242813 0.8313725590705872
0.7830049395561218 0.7276172637939453 0.0063241105526685715 0.43921568989753723 0.45098039507865906 0.3686274588108063
0.9822660088539124 0.7157745361328125 0.024110671132802963 0.20392157137393951 0.16862745583057404 0.13333334028720856
0.881280779838562 0.8504658341407776 0.9881423115730286 0.2235294133424759 0.2078431397676468 0.16470588743686676
0.9793103337287903 0.7309331893920898 0.7043478488922119 0.6117647290229797 0.6352941393852234 0.6352941393852234
0.982758641242981 0.7277751564979553 0.14505928754806519 0.7215686440467834 0.7176470756530762 0.6470588445663452
0.984236478805542 0.713090181350708 0.08418972045183182 0.7529411911964417 0.7529411911964417 0.658823549747467
0.9583743810653687 0.7718300819396973 0.9897233247756958 0.41960784792900085 0.3960784375667572 0.3490196168422699
0.9825122952461243 0.7449865937232971 0.21620553731918335 0.7098039388656616 0.7176470756530762 0.6666666865348816
0.9004926085472107 0.8173061609268188 0.006719367578625679 0.35686275362968445 0.35686275362968445 0.30980393290519714
0.9849753975868225 0.7618821859359741 0.09249012172222137 0.6509804129600525 0.6509804129600525 0.658823549747467
0.7566502690315247 0.7839886546134949 0.9916995763778687 0.48235294222831726 0.48235294222831726 0.5137255191802979
0.9561576247215271 0.8443076014518738 0.9893280863761902 0.43921568989753723 0.40784314274787903 0.35686275362968445
0.9007388949394226 0.8679930567741394 0.9885375499725342 0.33725491166114807 0.30588236451148987 0.2549019753932953
0.9817733764648438 0.7934628129005432 0.24189724028110504 0.7450980544090271 0.7490196228027344 0.6784313917160034
0.8246305584907532 0.816358745098114 0.006719367578625679 0.43921568989753723 0.4470588266849518 0.40392157435417175
0.9783251285552979 0.793936550617218 0.12608695030212402 0.07058823853731155 0.0941176488995552 0.14901961386203766
0.8970443606376648 0.8559924364089966 0.0063241105526685715 0.4431372582912445 0.4431372582912445 0.3960784375667572
0.7623152732849121 0.8610453009605408 0.9893280863761902 0.3921568691730499 0.3764705955982208 0.34117648005485535
0.9849753975868225 0.8004105687141418 0.37826088070869446 0.7529411911964417 0.7450980544090271 0.6980392336845398
0.9802955389022827 0.7235117554664612 0.7845849990844727 0.6078431606292725 0.6235294342041016 0.6196078658103943
0.9825122952461243 0.8372019529342651 0.5501976013183594 0.18431372940540314 0.18039216101169586 0.1725490242242813
0.8637930750846863 0.7951997518539429 0.9885375499725342 0.43529412150382996 0.4274509847164154 0.3803921639919281
0.9635468125343323 0.8591504693031311 0.9897233247756958 0.42352941632270813 0.3960784375667572 0.3333333432674408
0.9839901328086853 0.8258329629898071 0.7450593113899231 0.572549045085907 0.5647059082984924 0.48235294222831726
0.9832512140274048 0.8222011923789978 0.4648221433162689 0.772549033164978 0.7490196228027344 0.6941176652908325
0.9600985050201416 0.7533554434776306 0.9897233247756958 0.41960784792900085 0.3921568691730499 0.3529411852359772
0.9825122952461243 0.718458890914917 0.21541501581668854 0.7058823704719543 0.7333333492279053 0.6705882549285889
0.9810344576835632 0.8203063607215881 0.24664030969142914 0.7098039388656616 0.7137255072593689 0.6431372761726379
0.979556679725647 0.7119848132133484 0.7486165761947632 0.615686297416687 0.6313725709915161 0.6274510025978088
0.9825122952461243 0.7667772173881531 0.21581028401851654 0.7529411911964417 0.7450980544090271 0.6980392336845398
0.9778324961662292 0.7421443462371826 0.49288538098335266 0.7215686440467834 0.7529411911964417 0.7607843279838562
0.9825122952461243 0.7498815655708313 0.23636363446712494 0.7176470756530762 0.7254902124404907 0.6745098233222961
0.9788177609443665 0.7445128560066223 0.6256917119026184 0.6549019813537598 0.6666666865348816 0.686274528503418
0.9788177609443665 0.7173535227775574 0.6581027507781982 0.7803921699523926 0.800000011920929 0.8156862854957581
0.9852216839790344 0.821411669254303 0.842687726020813 0.5529412031173706 0.529411792755127 0.4431372582912445
0.9778324961662292 0.7471972107887268 0.4940711557865143 0.7333333492279053 0.7450980544090271 0.7647058963775635
0.9849753975868225 0.793936550617218 0.7664031386375427 0.6549019813537598 0.6392157077789307 0.5921568870544434
0.7674877047538757 0.7590399384498596 0.991304337978363 0.4588235318660736 0.4627451002597809 0.48235294222831726
0.8194581270217896 0.8556765913963318 0.9885375499725342 0.24705882370471954 0.23137255012989044 0.19607843458652496
0.8418719172477722 0.8397284150123596 0.9885375499725342 0.239215686917305 0.2235294133424759 0.1882352977991104
0.9527093768119812 0.8577293753623962 0.005928853526711464 0.5137255191802979 0.529411792755127 0.47058823704719543
0.932758629322052 0.8520448207855225 0.0063241105526685715 0.5254902243614197 0.5137255191802979 0.45490196347236633
0.9778324961662292 0.7454602718353271 0.4521739184856415 0.729411780834198 0.7411764860153198 0.7607843279838562
0.9849753975868225 0.7209852933883667 0.8750988245010376 0.5764706134796143 0.5568627715110779 0.48235294222831726
0.7770935893058777 0.7721459269523621 0.0063241105526685715 0.4156862795352936 0.4274509847164154 0.3843137323856354
0.9837438464164734 0.7947260141372681 0.6498023867607117 0.7098039388656616 0.7019608020782471 0.6509804129600525
0.9714285731315613 0.8072003722190857 0.9897233247756958 0.4000000059604645 0.364705890417099 0.33725491166114807
0.9825122952461243 0.7669351100921631 0.21976284682750702 0.7529411911964417 0.7450980544090271 0.6980392336845398
0.9802955389022827 0.8337280750274658 0.08972331881523132 0.07450980693101883 0.06666667014360428 0.0784313753247261
0.9283251166343689 0.7513027191162109 0.005928853526711464 0.4431372582912445 0.4156862795352936 0.34117648005485535
0.8073891401290894 0.8068845868110657 0.9901185631752014 0.4470588266849518 0.4431372582912445 0.4274509847164154
0.9822660088539124 0.7806726694107056 0.23517785966396332 0.7529411911964417 0.7450980544090271 0.6941176652908325
0.7768473029136658 0.832938551902771 0.006719367578625679 0.4431372582912445 0.43921568989753723 0.3686274588108063
0.9834975600242615 0.7107216119766235 0.03794466331601143 0.21568627655506134 0.18431372940540314 0.13333334028720856
0.9463053941726685 0.7492499351501465 0.9893280863761902 0.4313725531101227 0.40392157435417175 0.37254902720451355
0.9847290515899658 0.8632559776306152 0.8719367384910583 0.49803921580314636 0.46666666865348816 0.3921568691730499
0.8817734122276306 0.8264645338058472 0.9881423115730286 0.29411765933036804 0.2666666805744171 0.22745098173618317
0.9618226885795593 0.7696194648742676 0.07509881258010864 0.12941177189350128 0.16862745583057404 0.5411764979362488
0.9788177609443665 0.7775145769119263 0.5778656005859375 0.7215686440467834 0.7254902124404907 0.7450980544090271
0.9662561416625977 0.8180956840515137 0.011857707053422928 0.03921568766236305 0.054901961237192154 0.09019608050584793
0.9775862097740173 0.724617063999176 0.5090909004211426 0.7254902124404907 0.7450980544090271 0.7568627595901489
0.9820197224617004 0.7910942435264587 0.47075098752975464 0.7372549176216125 0.729411780834198 0.6823529601097107
0.8273398876190186 0.7937785983085632 0.9893280863761902 0.45490196347236633 0.45098039507865906 0.4313725531101227
0.9773399233818054 0.7724617123603821 0.048221342265605927 0.019607843831181526 0.0235294122248888 0.13333334028720856
0.8527093529701233 0.8365703225135803 0.006719367578625679 0.29411765933036804 0.29411765933036804 0.26274511218070984
0.9844827651977539 0.7326701283454895 0.8505929112434387 0.5882353186607361 0.5764706134796143 0.5176470875740051
0.8152709603309631 0.8124111890792847 0.9897233247756958 0.4431372582912445 0.42352941632270813 0.4000000059604645
0.8283251523971558 0.7898310422897339 0.0063241105526685715 0.545098066329956 0.5333333611488342 0.46666666865348816
0.80147784948349 0.8176220059394836 0.9901185631752014 0.4156862795352936 0.40392157435417175 0.3843137323856354
0.9773399233818054 0.712932288646698 0.47233203053474426 0.7137255072593689 0.7450980544090271 0.7529411911964417
0.8682265877723694 0.7500394582748413 0.005928853526711464 0.4901960790157318 0.48627451062202454 0.3764705955982208
0.9788177609443665 0.7228801250457764 0.6612648367881775 0.7843137383460999 0.8039215803146362 0.8196078538894653
0.8837438225746155 0.8400442004203796 0.9881423115730286 0.24313725531101227 0.22745098173618317 0.1921568661928177
0.878078818321228 0.7415127158164978 0.9885375499725342 0.4431372582912445 0.4313725531101227 0.3960784375667572
0.7790640592575073 0.8075161576271057 0.006719367578625679 0.4313725531101227 0.43921568989753723 0.3960784375667572
0.9583743810653687 0.8193588852882385 0.09486165642738342 0.2078431397676468 0.2078431397676468 0.24705882370471954
0.9790640473365784 0.7421443462371826 0.64861661195755 0.7647058963775635 0.772549033164978 0.7686274647712708
0.982758641242981 0.7118269205093384 0.14901185035705566 0.7176470756530762 0.7254902124404907 0.6431372761726379
0.9805418848991394 0.7672508955001831 0.30000001192092896 0.5764706134796143 0.5647059082984924 0.5058823823928833
0.8300492763519287 0.7427759170532227 0.0063241105526685715 0.49803921580314636 0.5098039507865906 0.4274509847164154
0.9800492525100708 0.7861992716789246 0.4727272689342499 0.7490196228027344 0.7686274647712708 0.7921568751335144
0.9837438464164734 0.821569561958313 0.6007905006408691 0.7843137383460999 0.7882353067398071 0.7686274647712708
0.9847290515899658 0.735512375831604 0.8703557252883911 0.5764706134796143 0.5568627715110779 0.47843137383461
0.9844827651977539 0.7993052005767822 0.42411068081855774 0.7490196228027344 0.7372549176216125 0.7098039388656616
0.7997536659240723 0.8577293753623962 0.9889327883720398 0.24313725531101227 0.22745098173618317 0.1921568661928177
0.743842363357544 0.7882519960403442 0.006719367578625679 0.30588236451148987 0.30588236451148987 0.25882354378700256
0.9788177609443665 0.7369335293769836 0.6383399367332458 0.686274528503418 0.6901960968971252 0.7058823704719543
0.9571428298950195 0.8173061609268188 0.009881422854959965 0.40784314274787903 0.43921568989753723 0.45098039507865906
0.7987684607505798 0.827254056930542 0.9897233247756958 0.3529411852359772 0.3490196168422699 0.3294117748737335
0.9832512140274048 0.8155692219734192 0.343873530626297 0.6980392336845398 0.6901960968971252 0.6392157077789307
0.8613300323486328 0.729827880859375 0.005928853526711464 0.5137255191802979 0.5137255191802979 0.41960784792900085
0.9844827651977539 0.816200852394104 0.16798418760299683 0.7686274647712708 0.7764706015586853 0.6941176652908325
0.8334975242614746 0.7261961102485657 0.005928853526711464 0.47843137383461 0.4745098054409027 0.3921568691730499
0.9714285731315613 0.8458866477012634 0.9897233247756958 0.3803921639919281 0.35686275362968445 0.3019607961177826
0.890640377998352 0.7899889349937439 0.9881423115730286 0.4470588266849518 0.42352941632270813 0.3764705955982208
0.9815270900726318 0.7704089879989624 0.8086956739425659 0.6431372761726379 0.6431372761726379 0.6117647290229797
0.949999988079071 0.7748302817344666 0.009881422854959965 0.41960784792900085 0.40392157435417175 0.3686274588108063
0.8581280708312988 0.8351492285728455 0.006719367578625679 0.3450980484485626 0.34117648005485535 0.32156863808631897
0.9593595862388611 0.7688299417495728 0.9897233247756958 0.42352941632270813 0.4000000059604645 0.3529411852359772
0.9783251285552979 0.7724617123603821 0.5055335760116577 0.729411780834198 0.7411764860153198 0.7686274647712708
0.9844827651977539 0.7674087882041931 0.8474308252334595 0.5647059082984924 0.5411764979362488 0.47843137383461
0.9817733764648438 0.8278856873512268 0.3802371621131897 0.7647058963775635 0.729411780834198 0.6705882549285889
0.7571428418159485 0.8597820997238159 0.17391304671764374 0.26274511218070984 0.2980392277240753 0.27843138575553894
0.7987684607505798 0.7430917620658875 0.9905138611793518 0.4156862795352936 0.4117647111415863 0.40392157435417175
0.9815270900726318 0.7923575043678284 0.2664031684398651 0.7529411911964417 0.7450980544090271 0.686274528503418
0.9849753975868225 0.8042002320289612 0.9233201742172241 0.5137255191802979 0.48235294222831726 0.43921568989753723
0.9428571462631226 0.8043581247329712 0.017391303554177284 0.18039216101169586 0.1764705926179886 0.20000000298023224
0.7729064226150513 0.7735670208930969 0.0063241105526685715 0.40784314274787903 0.41960784792900085 0.3764705955982208
0.9837438464164734 0.8447812795639038 0.005533596966415644 0.3843137323856354 0.40392157435417175 0.3803921639919281
0.9844827651977539 0.7121427655220032 0.05256916955113411 0.7215686440467834 0.7098039388656616 0.6431372761726379
0.7817733883857727 0.8588346838951111 0.0071146246045827866 0.5607843399047852 0.5607843399047852 0.5137255191802979
0.9773399233818054 0.7809884548187256 0.8071146011352539 0.14509804546833038 0.0784313753247261 0.0470588244497776
0.9839901328086853 0.713090181350708 0.11343873292207718 0.729411780834198 0.7176470756530762 0.6509804129600525
0.9209359884262085 0.718458890914917 0.9893280863761902 0.43529412150382996 0.4274509847164154 0.3686274588108063
0.9825122952461243 0.729669988155365 0.2142292559146881 0.7137255072593689 0.7215686440467834 0.6666666865348816
0.9551724195480347 0.8024632930755615 0.9893280863761902 0.43529412150382996 0.4000000059604645 0.364705890417099
0.9748768210411072 0.7689878344535828 0.017391303554177284 0.49803921580314636 0.46666666865348816 0.3843137323856354
0.8689655065536499 0.8073582649230957 0.9881423115730286 0.43529412150382996 0.40784314274787903 0.3764705955982208
0.8576354384422302 0.7249329090118408 0.005928853526711464 0.48235294222831726 0.4941176474094391 0.3803921639919281
0.9761083722114563 0.7208274006843567 0.31067192554473877 0.45098039507865906 0.43921568989753723 0.40392157435417175
0.7847290635108948 0.7917258739471436 0.9905138611793518 0.4588235318660736 0.43921568989753723 0.42352941632270813
0.931280791759491 0.7723038196563721 0.9889327883720398 0.41960784792900085 0.40392157435417175 0.3607843220233917
0.9837438464164734 0.7958313822746277 0.32490119338035583 0.7490196228027344 0.7411764860153198 0.658823549747467
0.9832512140274048 0.8342018127441406 0.8063241243362427 0.3294117748737335 0.3529411852359772 0.3529411852359772
0.9798029661178589 0.7882519960403442 0.5158102512359619 0.6117647290229797 0.5921568870544434 0.5686274766921997
0.8145320415496826 0.7716721892356873 0.9901185631752014 0.46666666865348816 0.45490196347236633 0.43529412150382996
0.8652709126472473 0.7861992716789246 0.0063241105526685715 0.572549045085907 0.5647059082984924 0.4745098054409027
0.7726600766181946 0.8045160174369812 0.006719367578625679 0.35686275362968445 0.364705890417099 0.3137255012989044
0.9839901328086853 0.8312016129493713 0.8667984008789062 0.3843137323856354 0.3686274588108063 0.32156863808631897
0.8544334769248962 0.7903047800064087 0.0063241105526685715 0.45490196347236633 0.47843137383461 0.43921568989753723
0.9780788421630859 0.7674087882041931 0.4944663941860199 0.7254902124404907 0.7411764860153198 0.7764706015586853
0.8997536897659302 0.7699352502822876 0.9885375499725342 0.4274509847164154 0.4117647111415863 0.3686274588108063
0.751477837562561 0.7598294615745544 0.0063241105526685715 0.29411765933036804 0.29411765933036804 0.26274511218070984
0.9798029661178589 0.7734091281890869 0.7343873381614685 0.6627451181411743 0.6666666865348816 0.686274528503418
0.9825122952461243 0.7797252535820007 0.18379446864128113 0.7529411911964417 0.7490196228027344 0.6784313917160034
0.8598521947860718 0.7271435260772705 0.9889327883720398 0.4588235318660736 0.4470588266849518 0.4117647111415863
0.9847290515899658 0.8119374513626099 0.9221343994140625 0.5098039507865906 0.47843137383461 0.4274509847164154
0.8807882070541382 0.745934009552002 0.005928853526711464 0.5372549295425415 0.5333333611488342 0.42352941632270813
0.8635467886924744 0.7290383577346802 0.9889327883720398 0.47058823704719543 0.45490196347236633 0.4117647111415863
0.8401477932929993 0.7323543429374695 0.005928853526711464 0.5568627715110779 0.5568627715110779 0.4470588266849518
0.8706896305084229 0.7855676412582397 0.0063241105526685715 0.4627451002597809 0.4745098054409027 0.4000000059604645
0.9822660088539124 0.8360966444015503 0.018972331658005714 0.34117648005485535 0.35686275362968445 0.3686274588108063
0.8541871905326843 0.8621506690979004 0.9885375499725342 0.25882354378700256 0.24313725531101227 0.2078431397676468
0.9751231670379639 0.7795673608779907 0.3292490243911743 0.6117647290229797 0.6117647290229797 0.6039215922355652
0.9689655303955078 0.8059371709823608 0.09525691717863083 0.0784313753247261 0.08235294371843338 0.09803921729326248
0.9775862097740173 0.7415127158164978 0.3747035562992096 0.7333333492279053 0.7647058963775635 0.7764706015586853
0.8113300204277039 0.735038697719574 0.0063241105526685715 0.6549019813537598 0.6627451181411743 0.5764706134796143
0.8226600885391235 0.7179851531982422 0.005928853526711464 0.43529412150382996 0.43529412150382996 0.3333333432674408
0.8995074033737183 0.7558819055557251 0.005928853526711464 0.40392157435417175 0.3921568691730499 0.3176470696926117
0.9778324961662292 0.7429338097572327 0.5023715496063232 0.729411780834198 0.7490196228027344 0.7647058963775635
0.7660098671913147 0.7663034796714783 0.991304337978363 0.41960784792900085 0.43529412150382996 0.4470588266849518
0.8817734122276306 0.7756197452545166 0.0063241105526685715 0.5254902243614197 0.5215686559677124 0.4117647111415863
0.9103448390960693 0.7644086480140686 0.9885375499725342 0.4117647111415863 0.3960784375667572 0.3529411852359772
0.875123143196106 0.7200378775596619 0.005928853526711464 0.47058823704719543 0.47058823704719543 0.3764705955982208
0.8903940916061401 0.7737249135971069 0.9881423115730286 0.37254902720451355 0.35686275362968445 0.3137255012989044
0.9332512021064758 0.8474656343460083 0.0063241105526685715 0.41960784792900085 0.4313725531101227 0.40392157435417175
0.9465517401695251 0.7961471676826477 0.10039525479078293 0.01568627543747425 0.019607843831181526 0.03921568766236305
0.982758641242981 0.7664613723754883 0.17826086282730103 0.7607843279838562 0.7450980544090271 0.6980392336845398
0.9573891758918762 0.7336175441741943 0.9897233247756958 0.4156862795352936 0.4000000059604645 0.364705890417099
0.9773399233818054 0.713563859462738 0.4932806193828583 0.7215686440467834 0.7450980544090271 0.7450980544090271
0.8091133236885071 0.8075161576271057 0.9897233247756958 0.4470588266849518 0.4431372582912445 0.4274509847164154
0.9820197224617004 0.7869887948036194 0.24664030969142914 0.7411764860153198 0.7450980544090271 0.6823529601097107
0.9780788421630859 0.7344070672988892 0.5620553493499756 0.7137255072593689 0.729411780834198 0.7411764860153198
0.8359605669975281 0.8253592252731323 0.9889327883720398 0.29411765933036804 0.2823529541492462 0.2549019753932953
0.9145320057868958 0.8566240072250366 0.0063241105526685715 0.45490196347236633 0.4588235318660736 0.3960784375667572
0.9820197224617004 0.8305700421333313 0.5916996002197266 0.6352941393852234 0.6117647290229797 0.6117647290229797
0.7709359526634216 0.8245697021484375 0.9905138611793518 0.3137255012989044 0.3137255012989044 0.3137255012989044
0.9834975600242615 0.827254056930542 0.7249011993408203 0.5647059082984924 0.5411764979362488 0.47843137383461
0.9817733764648438 0.7723038196563721 0.8173912763595581 0.6666666865348816 0.6627451181411743 0.5843137502670288
0.9450739026069641 0.7814621925354004 0.04466403275728226 0.07450980693101883 0.16862745583057404 0.7490196228027344
0.9711822867393494 0.7490920424461365 0.9901185631752014 0.3843137323856354 0.3607843220233917 0.3137255012989044
0.9817733764648438 0.8307279348373413 0.4853754937648773 0.7843137383460999 0.7647058963775635 0.7490196228027344
0.9758620858192444 0.7688299417495728 0.31422924995422363 0.5529412031173706 0.5411764979362488 0.48235294222831726
0.9852216839790344 0.7440391778945923 0.8972331881523132 0.5568627715110779 0.5372549295425415 0.45098039507865906
0.9118226766586304 0.8308858275413513 0.9885375499725342 0.45490196347236633 0.42352941632270813 0.3803921639919281
0.815763533115387 0.8368861675262451 0.9889327883720398 0.29411765933036804 0.2823529541492462 0.2549019753932953
0.984236478805542 0.83799147605896 0.8889328241348267 0.5058823823928833 0.47843137383461 0.4156862795352936
0.8866994976997375 0.8569398522377014 0.0063241105526685715 0.5411764979362488 0.5333333611488342 0.48627451062202454
0.9763546586036682 0.7494078874588013 0.015415019355714321 0.5058823823928833 0.47843137383461 0.4156862795352936
0.8268473148345947 0.7370914220809937 0.005928853526711464 0.6117647290229797 0.6274510025978088 0.529411792755127
0.9839901328086853 0.7140375971794128 0.8304347991943359 0.6196078658103943 0.6117647290229797 0.5607843399047852
0.7719211578369141 0.83814936876297 0.006719367578625679 0.3803921639919281 0.3843137323856354 0.32156863808631897
0.9847290515899658 0.8627822399139404 0.8703557252883911 0.5215686559677124 0.4941176474094391 0.42352941632270813
0.9825122952461243 0.7814621925354004 0.17588932812213898 0.7529411911964417 0.7490196228027344 0.6705882549285889
0.7807881832122803 0.8544133901596069 0.0071146246045827866 0.43921568989753723 0.4313725531101227 0.3843137323856354
0.9783251285552979 0.7498815655708313 0.5553359389305115 0.7098039388656616 0.7215686440467834 0.7411764860153198
0.931034505367279 0.8117795586585999 0.0063241105526685715 0.5215686559677124 0.49803921580314636 0.43529412150382996
0.873399019241333 0.7749881744384766 0.0063241105526685715 0.4156862795352936 0.42352941632270813 0.34117648005485535
0.8002462983131409 0.7176693677902222 0.9901185631752014 0.4313725531101227 0.43529412150382996 0.4156862795352936
0.9785714149475098 0.7584083080291748 0.5727272629737854 0.7058823704719543 0.7176470756530762 0.7372549176216125
0.9783251285552979 0.7303016185760498 0.5885375738143921 0.7019608020782471 0.7058823704719543 0.7254902124404907
0.9825122952461243 0.7282488346099854 0.2185770720243454 0.7176470756530762 0.7254902124404907 0.6705882549285889
0.9108374118804932 0.8259908556938171 0.9885375499725342 0.4274509847164154 0.3960784375667572 0.3529411852359772
0.8724138140678406 0.8008842468261719 0.0063241105526685715 0.3764705955982208 0.38823530077934265 0.32156863808631897
0.9775862097740173 0.7375651597976685 0.5126482248306274 0.7333333492279053 0.7529411911964417 0.7647058963775635
0.9780788421630859 0.712932288646698 0.3584980368614197 0.6941176652908325 0.7411764860153198 0.7333333492279053
0.9780788421630859 0.7231959700584412 0.5723320245742798 0.7098039388656616 0.7215686440467834 0.7411764860153198
0.9756157398223877 0.7576188445091248 0.9861660003662109 0.41960784792900085 0.37254902720451355 0.32549020648002625
0.9783251285552979 0.7715142965316772 0.3110671937465668 0.5686274766921997 0.545098066329956 0.48235294222831726
0.9832512140274048 0.8338859677314758 0.7869565486907959 0.3019607961177826 0.3176470696926117 0.32156863808631897
0.9192118048667908 0.7835149168968201 0.0063241105526685715 0.38823530077934265 0.4000000059604645 0.3333333432674408
0.9711822867393494 0.827411949634552 0.06482213735580444 0.3529411852359772 0.3686274588108063 0.40392157435417175
0.9834975600242615 0.8356229066848755 0.7486165761947632 0.239215686917305 0.2549019753932953 0.250980406999588
0.9775862097740173 0.7610926628112793 0.3913043439388275 0.24705882370471954 0.48235294222831726 0.5764706134796143
0.9014778137207031 0.7468814253807068 0.005928853526711464 0.4156862795352936 0.40392157435417175 0.3294117748737335
0.9783251285552979 0.7531975507736206 0.5537549257278442 0.7058823704719543 0.7176470756530762 0.7372549176216125
0.979556679725647 0.7760934829711914 0.6940711736679077 0.6745098233222961 0.6784313917160034 0.6980392336845398
0.9783251285552979 0.7273014187812805 0.4055335819721222 0.7098039388656616 0.7411764860153198 0.7529411911964417
0.8970443606376648 0.8599399924278259 0.0063241105526685715 0.4431372582912445 0.4431372582912445 0.40392157435417175
0.9007388949394226 0.7345649600028992 0.9889327883720398 0.45098039507865906 0.43529412150382996 0.38823530077934265
0.8041871786117554 0.7228801250457764 0.9901185631752014 0.40392157435417175 0.40784314274787903 0.38823530077934265
0.9847290515899658 0.8067266941070557 0.3754940629005432 0.7568627595901489 0.7450980544090271 0.7098039388656616
0.9812808036804199 0.8114637732505798 0.2339920997619629 0.7333333492279053 0.729411780834198 0.6509804129600525
0.8931034207344055 0.8651508092880249 0.9885375499725342 0.24705882370471954 0.2235294133424759 0.16862745583057404
0.9832512140274048 0.7527238130569458 0.8272727131843567 0.6117647290229797 0.6078431606292725 0.5372549295425415
0.8546798229217529 0.7323543429374695 0.005928853526711464 0.46666666865348816 0.48235294222831726 0.3921568691730499
0.7694581151008606 0.8210958242416382 0.9905138611793518 0.37254902720451355 0.37254902720451355 0.37254902720451355
0.9322659969329834 0.8566240072250366 0.9889327883720398 0.4117647111415863 0.3803921639919281 0.33725491166114807
0.7490147948265076 0.7394599914550781 0.991304337978363 0.9254902005195618 0.9333333373069763 0.9215686321258545
0.982758641242981 0.7920416593551636 0.6505928635597229 0.4274509847164154 0.4274509847164154 0.3960784375667572
0.9600985050201416 0.7533554434776306 0.9897233247756958 0.41960784792900085 0.3921568691730499 0.3529411852359772
0.8495073914527893 0.7794094681739807 0.0063241105526685715 0.4627451002597809 0.47058823704719543 0.4156862795352936
0.9788177609443665 0.7681983113288879 0.5968379378318787 0.6980392336845398 0.7058823704719543 0.7529411911964417
0.9583743810653687 0.7449865937232971 0.008695651777088642 0.529411792755127 0.5333333611488342 0.47843137383461
0.7830049395561218 0.7276172637939453 0.0063241105526685715 0.43921568989753723 0.45098039507865906 0.3686274588108063
0.8903940916061401 0.8288331031799316 0.9881423115730286 0.3019607961177826 0.2862745225429535 0.250980406999588
0.7559113502502441 0.8559924364089966 0.0071146246045827866 0.48235294222831726 0.47058823704719543 0.4431372582912445
0.8039408922195435 0.8485710024833679 0.9889327883720398 0.2862745225429535 0.2666666805744171 0.24313725531101227
0.915517270565033 0.7580925226211548 0.005928853526711464 0.4588235318660736 0.45490196347236633 0.37254902720451355
0.8630542159080505 0.78304123878479 0.9885375499725342 0.4470588266849518 0.4313725531101227 0.3960784375667572
0.9544335007667542 0.7566714286804199 0.9897233247756958 0.42352941632270813 0.4000000059604645 0.3529411852359772
0.8721674680709839 0.8534659743309021 0.0063241105526685715 0.4156862795352936 0.40784314274787903 0.3490196168422699
0.9834975600242615 0.8660982251167297 0.9735177755355835 0.4156862795352936 0.3843137323856354 0.30980393290519714
0.9834975600242615 0.8244118094444275 0.6679841876029968 0.729411780834198 0.7215686440467834 0.6705882549285889
0.8162561655044556 0.7110373973846436 0.005928853526711464 0.46666666865348816 0.46666666865348816 0.364705890417099
0.7598522305488586 0.7198799848556519 0.0063241105526685715 0.48627451062202454 0.47843137383461 0.38823530077934265
0.9298029541969299 0.8450971245765686 0.0063241105526685715 0.3921568691730499 0.4156862795352936 0.3764705955982208
0.7527093887329102 0.7606189846992493 0.0063241105526685715 0.30980393290519714 0.30980393290519714 0.27843138575553894
0.9785714149475098 0.7219327092170715 0.6430829763412476 0.6823529601097107 0.6941176652908325 0.7137255072593689
0.7746305465698242 0.7598294615745544 0.9909090995788574 0.4627451002597809 0.4470588266849518 0.4431372582912445
0.9834975600242615 0.821885347366333 0.5482213497161865 0.6627451181411743 0.6745098233222961 0.6941176652908325
0.9384236335754395 0.7457761168479919 0.005928853526711464 0.4901960790157318 0.4745098054409027 0.4274509847164154
0.8465517163276672 0.7846202254295349 0.0063241105526685715 0.3921568691730499 0.4000000059604645 0.3450980484485626
0.945320188999176 0.7312490344047546 0.005928853526711464 0.47058823704719543 0.4470588266849518 0.3843137323856354
0.9844827651977539 0.7153007984161377 0.8541501760482788 0.5843137502670288 0.572549045085907 0.49803921580314636
0.9810344576835632 0.8351492285728455 0.5418972373008728 0.1921568661928177 0.1921568661928177 0.1921568661928177
0.8716748952865601 0.8509395122528076 0.9881423115730286 0.25882354378700256 0.24313725531101227 0.2078431397676468
0.9820197224617004 0.7981998920440674 0.20158103108406067 0.7686274647712708 0.772549033164978 0.7019608020782471
0.9130541682243347 0.7757776975631714 0.0063241105526685715 0.3803921639919281 0.37254902720451355 0.32549020648002625
0.935960590839386 0.7688299417495728 0.005928853526711464 0.45098039507865906 0.4431372582912445 0.3607843220233917
0.9426108598709106 0.832464873790741 0.9893280863761902 0.4117647111415863 0.3764705955982208 0.34117648005485535
0.8460590839385986 0.7511448264122009 0.9893280863761902 0.38823530077934265 0.3607843220233917 0.3294117748737335
0.868719220161438 0.7291962504386902 0.005928853526711464 0.5215686559677124 0.529411792755127 0.4431372582912445
0.7529556751251221 0.7707247734069824 0.0063241105526685715 0.21176470816135406 0.21960784494876862 0.1764705926179886
0.8487684726715088 0.8300963044166565 0.006719367578625679 0.30588236451148987 0.30588236451148987 0.27450981736183167
0.9820197224617004 0.7795673608779907 0.2501976191997528 0.7490196228027344 0.7411764860153198 0.6901960968971252
0.982758641242981 0.8360966444015503 0.6059288382530212 0.19607843458652496 0.19607843458652496 0.1882352977991104
0.9820197224617004 0.7974103689193726 0.2869565188884735 0.7529411911964417 0.7450980544090271 0.686274528503418
0.9396551847457886 0.8045160174369812 0.9893280863761902 0.42352941632270813 0.4000000059604645 0.3529411852359772
0.9775862097740173 0.7303016185760498 0.46007904410362244 0.7176470756530762 0.7490196228027344 0.7568627595901489
0.982758641242981 0.8198326230049133 0.3707509934902191 0.7568627595901489 0.7254902124404907 0.6745098233222961
0.942118227481842 0.794252336025238 0.07509881258010864 0.4941176474094391 0.615686297416687 0.800000011920929
0.8807882070541382 0.7786199450492859 0.9881423115730286 0.45098039507865906 0.41960784792900085 0.3764705955982208
0.9004926085472107 0.8119374513626099 0.0063241105526685715 0.3960784375667572 0.40392157435417175 0.3529411852359772
0.9830049276351929 0.729827880859375 0.8201581239700317 0.615686297416687 0.6039215922355652 0.545098066329956
0.9785714149475098 0.7285646796226501 0.6245059370994568 0.686274528503418 0.6980392336845398 0.7176470756530762
0.8758620619773865 0.7483025193214417 0.005928853526711464 0.3803921639919281 0.38823530077934265 0.3019607961177826
0.9753694534301758 0.7730933427810669 0.05296442657709122 0.1411764770746231 0.14509804546833038 0.2549019753932953
0.8591132760047913 0.723985493183136 0.005928853526711464 0.4117647111415863 0.4156862795352936 0.29411765933036804
0.9699507355690002 0.8155692219734192 0.9897233247756958 0.364705890417099 0.34117648005485535 0.29411765933036804
0.9773399233818054 0.7208274006843567 0.5 0.7254902124404907 0.7450980544090271 0.7568627595901489
0.9844827651977539 0.734880805015564 0.8584980368614197 0.5803921818733215 0.5686274766921997 0.501960813999176
0.7876847386360168 0.7288804650306702 0.0063241105526685715 0.47058823704719543 0.47058823704719543 0.3607843220233917
0.9822660088539124 0.7208274006843567 0.9758893251419067 0.29411765933036804 0.2666666805744171 0.20392157137393951
0.7921182513237 0.8127269744873047 0.006719367578625679 0.3490196168422699 0.3686274588108063 0.29019609093666077
0.9825122952461243 0.7702510952949524 0.2403162121772766 0.7490196228027344 0.7411764860153198 0.6941176652908325
0.9780788421630859 0.7591978311538696 0.5316205620765686 0.7176470756530762 0.729411780834198 0.7490196228027344
0.7793103456497192 0.8359387516975403 0.006719367578625679 0.42352941632270813 0.4313725531101227 0.3803921639919281
0.7475369572639465 0.7287225723266602 0.0063241105526685715 0.37254902720451355 0.3843137323856354 0.3176470696926117
0.982758641242981 0.7111953496932983 0.15889328718185425 0.7176470756530762 0.729411780834198 0.6549019813537598
0.8566502332687378 0.8634138703346252 0.0063241105526685715 0.3333333432674408 0.3333333432674408 0.3019607961177826
0.9783251285552979 0.7704089879989624 0.48735177516937256 0.729411780834198 0.7411764860153198 0.7764706015586853
0.9780788421630859 0.7667772173881531 0.5118576884269714 0.729411780834198 0.7411764860153198 0.7686274647712708
