0.2064039409160614 0.7696194648742676 0.9936758875846863 0.9686274528503418 0.9725490212440491 0.9882352948188782
0.20344828069210052 0.821727454662323 0.008695651777088642 0.6431372761726379 0.6549019813537598 0.5882353186607361
0.346059113740921 0.7727774977684021 0.00909090880304575 0.15294118225574493 0.15294118225574493 0.10588235408067703
0.31133005023002625 0.8342018127441406 0.008695651777088642 0.4941176474094391 0.48235294222831726 0.40784314274787903
0.3049260973930359 0.7413548231124878 0.9916995763778687 0.3764705955982208 0.3960784375667572 0.40784314274787903
0.34359607100486755 0.7869887948036194 0.009881422854959965 0.12941177189350128 0.12941177189350128 0.09803921729326248
0.34359607100486755 0.7393020391464233 0.2968379557132721 0.6431372761726379 0.6823529601097107 0.6784313917160034
0.28374382853507996 0.8676772713661194 0.9905138611793518 0.3803921639919281 0.3803921639919281 0.3333333432674408
0.35935959219932556 0.7173535227775574 0.9909090995788574 0.3607843220233917 0.35686275362968445 0.34117648005485535
0.17931035161018372 0.8443076014518738 0.9897233247756958 0.3686274588108063 0.3607843220233917 0.30980393290519714
0.18152709305286407 0.8038843870162964 0.008695651777088642 0.5254902243614197 0.5215686559677124 0.45098039507865906
0.15763546526432037 0.7876204252243042 0.00830039568245411 0.6039215922355652 0.5960784554481506 0.5058823823928833
0.24408866465091705 0.7727774977684021 0.9936758875846863 0.9686274528503418 0.9725490212440491 0.9882352948188782
0.32783252000808716 0.8244118094444275 0.991304337978363 0.3960784375667572 0.3921568691730499 0.37254902720451355
0.2376847267150879 0.7771987915039062 0.9936758875846863 0.9607843160629272 0.9647058844566345 0.9803921580314636
0.34458127617836 0.7890415191650391 0.2968379557132721 0.5372549295425415 0.5686274766921997 0.5803921818733215
0.35541871190071106 0.810832142829895 0.009486165829002857 0.43529412150382996 0.42352941632270813 0.3490196168422699
0.31477832794189453 0.7948839664459229 0.290909081697464 0.5568627715110779 0.6000000238418579 0.615686297416687
0.15394088625907898 0.8065687417984009 0.9916995763778687 0.364705890417099 0.3686274588108063 0.33725491166114807
0.1709359586238861 0.7724617123603821 0.992094874382019 0.9137254953384399 0.9333333373069763 0.95686274766922
0.2985221743583679 0.7503553032875061 0.007905138656497002 0.4901960790157318 0.48235294222831726 0.3843137323856354
0.19359606504440308 0.7607768774032593 0.007905138656497002 0.4941176474094391 0.4901960790157318 0.4117647111415863
0.1349753737449646 0.799936830997467 0.9905138611793518 0.30980393290519714 0.30980393290519714 0.26274511218070984
0.34704434871673584 0.7143533825874329 0.2964426875114441 0.5098039507865906 0.5686274766921997 0.5568627715110779
0.22438423335552216 0.8097268342971802 0.00830039568245411 0.4941176474094391 0.49803921580314636 0.43529412150382996
0.1551724076271057 0.7620400786399841 0.9909090995788574 0.40392157435417175 0.3843137323856354 0.4000000059604645
0.26847290992736816 0.7607768774032593 0.007905138656497002 0.5921568870544434 0.5843137502670288 0.501960813999176
0.23891626298427582 0.7279330492019653 0.007905138656497002 0.4901960790157318 0.5137255191802979 0.4117647111415863
0.2859605848789215 0.7121427655220032 0.9944664239883423 0.9764705896377563 0.9921568632125854 0.9960784316062927
0.32389163970947266 0.8615190386772156 0.9905138611793518 0.3686274588108063 0.364705890417099 0.3450980484485626
0.3091132938861847 0.7443549633026123 0.9909090995788574 0.3843137323856354 0.3960784375667572 0.42352941632270813
0.23300492763519287 0.8604137301445007 0.9905138611793518 0.3803921639919281 0.37254902720451355 0.3137255012989044
0.3135468065738678 0.7850939631462097 0.2960474193096161 0.7058823704719543 0.7372549176216125 0.7450980544090271
0.24827586114406586 0.7596715688705444 0.007905138656497002 0.6196078658103943 0.6117647290229797 0.5215686559677124
0.2701970338821411 0.8310437202453613 0.00909090880304575 0.47058823704719543 0.4627451002597809 0.40392157435417175
0.24507388472557068 0.735354483127594 0.9940711259841919 0.9764705896377563 0.9803921580314636 0.9960784316062927
0.2785714268684387 0.7790936231613159 0.9928853511810303 0.9411764740943909 0.95686274766922 0.9607843160629272
0.33448275923728943 0.8589925765991211 0.00909090880304575 0.5098039507865906 0.501960813999176 0.45490196347236633
0.2098522186279297 0.8409916162490845 0.9901185631752014 0.3019607961177826 0.29411765933036804 0.24705882370471954
0.2977832555770874 0.8594663143157959 0.008695651777088642 0.5921568870544434 0.5960784554481506 0.5411764979362488
0.20369458198547363 0.8496763110160828 0.9901185631752014 0.38823530077934265 0.3803921639919281 0.3294117748737335
0.29187193512916565 0.7746723294258118 0.9928853511810303 0.9647058844566345 0.9725490212440491 0.9686274528503418
0.27635467052459717 0.7339333891868591 0.007905138656497002 0.529411792755127 0.5372549295425415 0.45490196347236633
0.32389163970947266 0.799936830997467 0.28932806849479675 0.05098039284348488 0.05882352963089943 0.0470588244497776
0.3137930929660797 0.7435654401779175 0.9905138611793518 0.42352941632270813 0.43529412150382996 0.45490196347236633
0.32783252000808716 0.8128848671913147 0.991304337978363 0.40392157435417175 0.4000000059604645 0.3843137323856354
0.31921181082725525 0.7806726694107056 0.00909090880304575 0.3803921639919281 0.3764705955982208 0.30588236451148987
0.36625614762306213 0.718774676322937 0.00909090880304575 0.24313725531101227 0.250980406999588 0.20000000298023224
0.1588670015335083 0.7227222323417664 0.9905138611793518 0.41960784792900085 0.4313725531101227 0.4588235318660736
0.23596058785915375 0.7162482142448425 0.9932806491851807 0.9647058844566345 0.9803921580314636 0.9921568632125854
0.32733988761901855 0.7557240128517151 0.9905138611793518 0.3764705955982208 0.3843137323856354 0.364705890417099
0.3253694474697113 0.7287225723266602 0.00830039568245411 0.3764705955982208 0.37254902720451355 0.29019609093666077
0.3300492465496063 0.8367282748222351 0.9909090995788574 0.3803921639919281 0.3764705955982208 0.35686275362968445
0.12364532053470612 0.8574135303497314 0.18656127154827118 0.21568627655506134 0.23137255012989044 0.23529411852359772
0.27980294823646545 0.788725733757019 0.9924901127815247 0.9333333373069763 0.9490196108818054 0.9529411792755127
0.35073891282081604 0.7419863939285278 0.9905138611793518 0.3490196168422699 0.3529411852359772 0.32156863808631897
0.2423645257949829 0.7633033394813538 0.007905138656497002 0.5411764979362488 0.5411764979362488 0.4470588266849518
0.1512315273284912 0.8299384117126465 0.009881422854959965 0.6509804129600525 0.6431372761726379 0.5843137502670288
0.31108373403549194 0.8005684614181519 0.2873517870903015 0.062745101749897 0.07058823853731155 0.06666667014360428
0.32684728503227234 0.7773566842079163 0.00909090880304575 0.2980392277240753 0.29019609093666077 0.24313725531101227
0.29162561893463135 0.8626243472099304 0.9905138611793518 0.3764705955982208 0.3764705955982208 0.33725491166114807
0.36206895112991333 0.7435654401779175 0.014229249209165573 0.24313725531101227 0.24313725531101227 0.21176470816135406
0.21305418014526367 0.7254065871238708 0.007905138656497002 0.5960784554481506 0.5960784554481506 0.501960813999176
0.2665024697780609 0.8370440602302551 0.9909090995788574 0.3607843220233917 0.3450980484485626 0.3019607961177826
0.24458128213882446 0.7249329090118408 0.9936758875846863 0.9764705896377563 0.9803921580314636 1.0
0.25591132044792175 0.8517290353775024 0.9909090995788574 0.3960784375667572 0.38823530077934265 0.33725491166114807
0.21600985527038574 0.7705668807029724 0.007905138656497002 0.5215686559677124 0.5254902243614197 0.45490196347236633
0.18448275327682495 0.7486183643341064 0.007905138656497002 0.5176470875740051 0.501960813999176 0.45490196347236633
0.16059114038944244 0.7165640592575073 0.9905138611793518 0.46666666865348816 0.46666666865348816 0.49803921580314636
0.35073891282081604 0.8629401326179504 0.9905138611793518 0.35686275362968445 0.3607843220233917 0.33725491166114807
0.16034482419490814 0.7151429057121277 0.9905138611793518 0.5215686559677124 0.5215686559677124 0.5607843399047852
0.33078816533088684 0.832464873790741 0.00830039568245411 0.5333333611488342 0.5254902243614197 0.43529412150382996
0.13546797633171082 0.7827253937721252 0.9901185631752014 0.3843137323856354 0.3843137323856354 0.3529411852359772
0.2061576396226883 0.75746089220047 0.9932806491851807 0.9686274528503418 0.9725490212440491 0.9882352948188782
0.2647783160209656 0.8575714230537415 0.008695651777088642 0.5215686559677124 0.529411792755127 0.4470588266849518
0.29482758045196533 0.7198799848556519 0.9936758875846863 1.0 1.0 1.0
0.2746305465698242 0.7336175441741943 0.007905138656497002 0.7098039388656616 0.729411780834198 0.6431372761726379
0.18916256725788116 0.719248354434967 0.007905138656497002 0.6352941393852234 0.6313725709915161 0.5490196347236633
0.3285714387893677 0.7307752966880798 0.00830039568245411 0.4588235318660736 0.4588235318660736 0.364705890417099
0.2980295419692993 0.7105637192726135 0.00830039568245411 0.5333333611488342 0.5333333611488342 0.43921568989753723
0.23226600885391235 0.788725733757019 0.9932806491851807 0.9490196108818054 0.9529411792755127 0.9686274528503418
0.24408866465091705 0.7846202254295349 0.00830039568245411 0.5333333611488342 0.5176470875740051 0.4117647111415863
0.3298029601573944 0.7271435260772705 0.9909090995788574 0.3843137323856354 0.38823530077934265 0.3686274588108063
0.24137930572032928 0.8102005124092102 0.992094874382019 0.9215686321258545 0.9254902005195618 0.9333333373069763
0.3650246262550354 0.7659876942634583 0.2968379557132721 0.5803921818733215 0.6078431606292725 0.6313725709915161
0.24384236335754395 0.8062529563903809 0.008695651777088642 0.4588235318660736 0.4470588266849518 0.37254902720451355
0.15935960412025452 0.8555186986923218 0.9897233247756958 0.3803921639919281 0.37254902720451355 0.3137255012989044
0.1825123131275177 0.7809884548187256 0.007905138656497002 0.4274509847164154 0.4313725531101227 0.3607843220233917
0.24753694236278534 0.8514132499694824 0.008695651777088642 0.6235294342041016 0.615686297416687 0.5568627715110779
0.26354679465293884 0.8229906558990479 0.9909090995788574 0.38823530077934265 0.40784314274787903 0.3843137323856354
0.31182265281677246 0.7849360704421997 0.2960474193096161 0.7058823704719543 0.7372549176216125 0.7450980544090271
0.1990147829055786 0.7500394582748413 0.007905138656497002 0.5254902243614197 0.529411792755127 0.4588235318660736
0.1864532083272934 0.8542554974555969 0.9901185631752014 0.3764705955982208 0.3686274588108063 0.3176470696926117
0.2544334828853607 0.794094443321228 0.9928853511810303 0.9137254953384399 0.929411768913269 0.9411764740943909
0.3330049216747284 0.7312490344047546 0.00830039568245411 0.47843137383461 0.47058823704719543 0.38823530077934265
0.1862068921327591 0.7985157370567322 0.00830039568245411 0.5607843399047852 0.5529412031173706 0.4941176474094391
0.3211822807788849 0.7380388379096985 0.9905138611793518 0.4117647111415863 0.4274509847164154 0.42352941632270813
0.25615763664245605 0.832622766494751 0.9909090995788574 0.3490196168422699 0.3490196168422699 0.30980393290519714
0.18522167205810547 0.7775145769119263 0.9932806491851807 0.9254902005195618 0.929411768913269 0.9490196108818054
0.2536945939064026 0.7426180243492126 0.007905138656497002 0.5647059082984924 0.5607843399047852 0.4901960790157318
0.27536946535110474 0.8125690817832947 0.00909090880304575 0.5960784554481506 0.6078431606292725 0.5254902243614197
0.3017241358757019 0.7694615721702576 0.008695651777088642 0.5843137502670288 0.5607843399047852 0.46666666865348816
0.12931033968925476 0.805621325969696 0.00909090880304575 0.5490196347236633 0.5490196347236633 0.5098039507865906
0.27216747403144836 0.8462024331092834 0.9909090995788574 0.3803921639919281 0.3803921639919281 0.3333333432674408
0.2463054209947586 0.8675193190574646 0.9905138611793518 0.3333333432674408 0.33725491166114807 0.2823529541492462
0.23990148305892944 0.8372019529342651 0.9905138611793518 0.34117648005485535 0.3333333432674408 0.2862745225429535
0.18768472969532013 0.7145112752914429 0.991304337978363 0.9450980424880981 0.9607843160629272 0.9647058844566345
0.3573891520500183 0.7825675010681152 0.9905138611793518 0.35686275362968445 0.3607843220233917 0.34117648005485535
0.32684728503227234 0.7723038196563721 0.00909090880304575 0.29411765933036804 0.2862745225429535 0.22745098173618317
0.3209359645843506 0.7265118956565857 0.00830039568245411 0.4274509847164154 0.4156862795352936 0.3490196168422699
0.18448275327682495 0.7247750163078308 0.991304337978363 0.9333333373069763 0.9490196108818054 0.9529411792755127
0.22709359228610992 0.8506237268447876 0.9905138611793518 0.4274509847164154 0.40392157435417175 0.35686275362968445
0.2140394151210785 0.7637770175933838 0.007905138656497002 0.5137255191802979 0.5098039507865906 0.4313725531101227
0.31083744764328003 0.7743565440177917 0.2976284623146057 0.7843137383460999 0.8039215803146362 0.8274509906768799
0.314039409160614 0.7552502751350403 0.9909090995788574 0.43529412150382996 0.4470588266849518 0.46666666865348816
0.20098522305488586 0.810358464717865 0.992094874382019 0.8745098114013672 0.886274516582489 0.9137254953384399
0.2903940975666046 0.7385125756263733 0.2960474193096161 0.7254902124404907 0.7686274647712708 0.7529411911964417
0.2620689570903778 0.7625138163566589 0.9936758875846863 0.9686274528503418 0.9725490212440491 0.9882352948188782
0.21157635748386383 0.810516357421875 0.992094874382019 0.886274516582489 0.8901960849761963 0.9058823585510254
0.2780788242816925 0.7268277406692505 0.007905138656497002 0.5333333611488342 0.529411792755127 0.41960784792900085
0.126600980758667 0.8332543969154358 0.009881422854959965 0.4627451002597809 0.45098039507865906 0.42352941632270813
0.31502464413642883 0.7580925226211548 0.2972331941127777 0.7960784435272217 0.8235294222831726 0.8470588326454163
0.3305418789386749 0.8150955438613892 0.009881422854959965 0.4000000059604645 0.3921568691730499 0.30980393290519714
0.2376847267150879 0.8419390320777893 0.9905138611793518 0.3960784375667572 0.3960784375667572 0.3490196168422699
0.26773399114608765 0.8207800388336182 0.008695651777088642 0.5098039507865906 0.48627451062202454 0.42352941632270813
0.16354680061340332 0.7181430459022522 0.9905138611793518 0.8196078538894653 0.8313725590705872 0.8509804010391235
0.2694581151008606 0.7634612321853638 0.007905138656497002 0.5568627715110779 0.5490196347236633 0.49803921580314636
0.13399015367031097 0.8484130501747131 0.9893280863761902 0.3764705955982208 0.364705890417099 0.3294117748737335
0.21600985527038574 0.7970945835113525 0.007905138656497002 0.4627451002597809 0.4745098054409027 0.4000000059604645
0.31945812702178955 0.8627822399139404 0.00909090880304575 0.6117647290229797 0.6039215922355652 0.5568627715110779
0.3647783398628235 0.7869887948036194 0.9905138611793518 0.35686275362968445 0.3529411852359772 0.3333333432674408
0.2731527090072632 0.7858834862709045 0.008695651777088642 0.6235294342041016 0.6196078658103943 0.5490196347236633
0.35172414779663086 0.8411495089530945 0.007509881630539894 0.4156862795352936 0.4117647111415863 0.3333333432674408
0.21206896007061005 0.8386231064796448 0.00909090880304575 0.6941176652908325 0.6901960968971252 0.6078431606292725
0.2731527090072632 0.7850939631462097 0.008695651777088642 0.6705882549285889 0.6666666865348816 0.5960784554481506
0.1273398995399475 0.8067266941070557 0.9901185631752014 0.4000000059604645 0.3843137323856354 0.3490196168422699
0.29655173420906067 0.7621980309486389 0.00830039568245411 0.5803921818733215 0.5647059082984924 0.4588235318660736
0.2224137932062149 0.7168798446655273 0.9924901127815247 0.9372549057006836 0.95686274766922 0.9725490212440491
0.15640394389629364 0.7603031992912292 0.00830039568245411 0.43921568989753723 0.42352941632270813 0.3764705955982208
0.12463054060935974 0.7416706085205078 0.00830039568245411 0.48627451062202454 0.47058823704719543 0.42352941632270813
0.16108374297618866 0.7271435260772705 0.007905138656497002 0.48235294222831726 0.47058823704719543 0.40392157435417175
0.35886698961257935 0.8629401326179504 0.9905138611793518 0.3450980484485626 0.3450980484485626 0.3137255012989044
0.33078816533088684 0.7910942435264587 0.9909090995788574 0.41960784792900085 0.41960784792900085 0.4274509847164154
0.23226600885391235 0.7579346299171448 0.007905138656497002 0.5529412031173706 0.545098066329956 0.4627451002597809
0.2933497428894043 0.7333017587661743 0.2956521809101105 0.6705882549285889 0.7215686440467834 0.6941176652908325
0.15812808275222778 0.7347228527069092 0.9901185631752014 0.3960784375667572 0.4000000059604645 0.41960784792900085
0.3657635450363159 0.7655139565467834 0.2968379557132721 0.5803921818733215 0.6078431606292725 0.6313725709915161
0.20320196449756622 0.8402020931243896 0.9901185631752014 0.3921568691730499 0.3843137323856354 0.3333333432674408
0.3416256010532379 0.75730299949646 0.2972331941127777 0.7176470756530762 0.7529411911964417 0.7490196228027344
0.3017241358757019 0.7681983113288879 0.2976284623146057 0.8078431487083435 0.8352941274642944 0.8666666746139526
0.22758620977401733 0.8084636330604553 0.00830039568245411 0.5647059082984924 0.5568627715110779 0.49803921580314636
0.23990148305892944 0.7880941033363342 0.008695651777088642 0.5372549295425415 0.5215686559677124 0.4156862795352936
0.2184729129076004 0.8173061609268188 0.9909090995788574 0.7490196228027344 0.7607843279838562 0.7960784435272217
0.3330049216747284 0.832149088382721 0.00830039568245411 0.6352941393852234 0.6274510025978088 0.5372549295425415
0.3502463102340698 0.7176693677902222 0.009881422854959965 0.08235294371843338 0.08627451211214066 0.06666667014360428
0.282019704580307 0.7719879746437073 0.9928853511810303 0.9529411792755127 0.9686274528503418 0.9725490212440491
0.138669952750206 0.8555186986923218 0.01067193690687418 0.6823529601097107 0.6784313917160034 0.5960784554481506
0.30369457602500916 0.7981998920440674 0.28853756189346313 0.5607843399047852 0.5843137502670288 0.5764706134796143
0.2660098373889923 0.7481446266174316 0.007905138656497002 0.6117647290229797 0.6039215922355652 0.5137255191802979
0.29088670015335083 0.7914100885391235 0.290909081697464 0.6549019813537598 0.686274528503418 0.6980392336845398
0.23078817129135132 0.8030949234962463 0.9928853511810303 0.929411768913269 0.9333333373069763 0.9411764740943909
0.3495073914527893 0.832622766494751 0.007905138656497002 0.46666666865348816 0.47843137383461 0.40392157435417175
0.3689655065536499 0.7849360704421997 0.9905138611793518 0.3529411852359772 0.35686275362968445 0.3333333432674408
0.18743842840194702 0.8252013325691223 0.00909090880304575 0.4901960790157318 0.5098039507865906 0.42352941632270813
0.16428571939468384 0.7797252535820007 0.9916995763778687 0.6313725709915161 0.6470588445663452 0.6509804129600525
0.1273398995399475 0.7555660605430603 0.008695651777088642 0.501960813999176 0.4941176474094391 0.4431372582912445
0.2780788242816925 0.822043240070343 0.991304337978363 0.43921568989753723 0.4470588266849518 0.4431372582912445
0.21133005619049072 0.7737249135971069 0.007905138656497002 0.501960813999176 0.4941176474094391 0.43529412150382996
0.29088670015335083 0.7685141563415527 0.2976284623146057 0.8274509906768799 0.843137264251709 0.8784313797950745
0.32783252000808716 0.7678825259208679 0.2976284623146057 0.7647058963775635 0.7921568751335144 0.8156862854957581
0.16896551847457886 0.7528817057609558 0.9916995763778687 0.8941176533699036 0.9058823585510254 0.9254902005195618
0.31108373403549194 0.7599873542785645 0.00830039568245411 0.4274509847164154 0.42352941632270813 0.3019607961177826
0.2970443367958069 0.8629401326179504 0.00909090880304575 0.6078431606292725 0.6117647290229797 0.5568627715110779
0.13965517282485962 0.8237801790237427 0.9893280863761902 0.3843137323856354 0.3764705955982208 0.3294117748737335
0.16551724076271057 0.7170377373695374 0.007905138656497002 0.4901960790157318 0.4745098054409027 0.4313725531101227
0.29630541801452637 0.7347228527069092 0.2960474193096161 0.6941176652908325 0.7450980544090271 0.7176470756530762
0.27931034564971924 0.8310437202453613 0.00909090880304575 0.5843137502670288 0.5882353186607361 0.5176470875740051
0.24310344457626343 0.8207800388336182 0.9905138611793518 0.42352941632270813 0.43921568989753723 0.43529412150382996
0.1465517282485962 0.8480972647666931 0.010276679880917072 0.47058823704719543 0.48235294222831726 0.4000000059604645
0.22487685084342957 0.8236222863197327 0.00830039568245411 0.5058823823928833 0.501960813999176 0.42352941632270813
0.3179802894592285 0.7983577847480774 0.28932806849479675 0.20000000298023224 0.20000000298023224 0.20000000298023224
0.15665024518966675 0.718932569026947 0.9905138611793518 0.4274509847164154 0.4274509847164154 0.4588235318660736
0.1982758641242981 0.821253776550293 0.9901185631752014 0.3764705955982208 0.3803921639919281 0.35686275362968445
0.2536945939064026 0.8553608059883118 0.9909090995788574 0.38823530077934265 0.3803921639919281 0.3294117748737335
0.12389162927865982 0.7688299417495728 0.9897233247756958 0.3843137323856354 0.3960784375667572 0.3529411852359772
0.1830049306154251 0.7148271203041077 0.991304337978363 0.9450980424880981 0.9607843160629272 0.95686274766922
0.1344827562570572 0.8425706624984741 0.9893280863761902 0.364705890417099 0.364705890417099 0.3176470696926117
0.20812807977199554 0.7953576445579529 0.9936758875846863 0.929411768913269 0.9333333373069763 0.9490196108818054
0.34236451983451843 0.8640455007553101 0.9905138611793518 0.35686275362968445 0.3607843220233917 0.33725491166114807
0.16009852290153503 0.8477814793586731 0.9897233247756958 0.3764705955982208 0.3686274588108063 0.30980393290519714
0.3541871905326843 0.729985773563385 0.2968379557132721 0.5803921818733215 0.6274510025978088 0.6274510025978088
0.29236453771591187 0.8204642534255981 0.991304337978363 0.4313725531101227 0.4470588266849518 0.45098039507865906
0.31921181082725525 0.7806726694107056 0.00909090880304575 0.3803921639919281 0.3764705955982208 0.30588236451148987
0.29507389664649963 0.713090181350708 0.29486167430877686 0.4941176474094391 0.5568627715110779 0.5568627715110779
0.3064039349555969 0.8667298555374146 0.9905138611793518 0.3686274588108063 0.3686274588108063 0.33725491166114807
0.2891625761985779 0.821411669254303 0.00909090880304575 0.5686274766921997 0.572549045085907 0.501960813999176
0.18423645198345184 0.8229906558990479 0.00909090880304575 0.658823549747467 0.6509804129600525 0.5607843399047852
0.3369458019733429 0.8072003722190857 0.010276679880917072 0.43921568989753723 0.40392157435417175 0.3450980484485626
0.21995073556900024 0.7770408987998962 0.007905138656497002 0.5843137502670288 0.5803921818733215 0.5098039507865906
0.35517242550849915 0.729354202747345 0.2968379557132721 0.572549045085907 0.6196078658103943 0.6196078658103943
0.3408867120742798 0.7513027191162109 0.00830039568245411 0.26274511218070984 0.25882354378700256 0.1882352977991104
0.3660098612308502 0.7831991314888 0.9905138611793518 0.3686274588108063 0.37254902720451355 0.3490196168422699
0.15689654648303986 0.8294647336006165 0.009486165829002857 0.48627451062202454 0.4901960790157318 0.41960784792900085
0.2463054209947586 0.7358282208442688 0.9940711259841919 0.9764705896377563 0.9803921580314636 0.9960784316062927
0.3285714387893677 0.7959892749786377 0.009881422854959965 0.4313725531101227 0.4117647111415863 0.33725491166114807
0.3684729039669037 0.8135164976119995 0.9909090995788574 0.3019607961177826 0.2980392277240753 0.2823529541492462
0.3376847207546234 0.7224064469337463 0.2968379557132721 0.5568627715110779 0.6117647290229797 0.6117647290229797
0.23201970756053925 0.7258803248405457 0.007905138656497002 0.5490196347236633 0.572549045085907 0.5176470875740051
0.2586206793785095 0.7490920424461365 0.9940711259841919 0.9607843160629272 0.9725490212440491 0.9921568632125854
0.1273398995399475 0.8400442004203796 0.9889327883720398 0.34117648005485535 0.3490196168422699 0.2980392277240753
0.2539408802986145 0.8449392318725586 0.9909090995788574 0.3803921639919281 0.3843137323856354 0.3294117748737335
0.36625614762306213 0.762671709060669 0.00909090880304575 0.23529411852359772 0.2235294133424759 0.1882352977991104
0.31995072960853577 0.8282014727592468 0.991304337978363 0.38823530077934265 0.3843137323856354 0.364705890417099
0.30418717861175537 0.8591504693031311 0.9905138611793518 0.38823530077934265 0.38823530077934265 0.35686275362968445
0.25665023922920227 0.7276172637939453 0.007905138656497002 0.6627451181411743 0.6431372761726379 0.5647059082984924
0.1709359586238861 0.8583609461784363 0.010276679880917072 0.5568627715110779 0.5607843399047852 0.4901960790157318
0.3066502511501312 0.8648349642753601 0.9905138611793518 0.37254902720451355 0.37254902720451355 0.34117648005485535
0.3334975242614746 0.7198799848556519 0.00909090880304575 0.3019607961177826 0.2980392277240753 0.21568627655506134
0.2416256219148636 0.8133586049079895 0.00830039568245411 0.529411792755127 0.5137255191802979 0.40784314274787903
0.32315272092819214 0.7715142965316772 0.2976284623146057 0.772549033164978 0.7921568751335144 0.8078431487083435
0.21551723778247833 0.8043581247329712 0.007905138656497002 0.5372549295425415 0.5333333611488342 0.45098039507865906
0.12832511961460114 0.8626243472099304 0.011067193932831287 0.5843137502670288 0.5764706134796143 0.5254902243614197
0.3209359645843506 0.78304123878479 0.9909090995788574 0.4588235318660736 0.45098039507865906 0.4627451002597809
0.15344826877117157 0.8558345437049866 0.01067193690687418 0.5529412031173706 0.5568627715110779 0.501960813999176
0.306157648563385 0.7884098887443542 0.29367589950561523 0.6705882549285889 0.7058823704719543 0.7254902124404907
0.21354679763317108 0.7745144367218018 0.007905138656497002 0.4588235318660736 0.45098039507865906 0.3921568691730499
0.24482758343219757 0.7846202254295349 0.00830039568245411 0.45490196347236633 0.43921568989753723 0.3333333432674408
0.2783251106739044 0.7546186447143555 0.9932806491851807 0.9607843160629272 0.9764705896377563 0.9803921580314636
0.35591134428977966 0.7123006582260132 0.9909090995788574 0.3176470696926117 0.3176470696926117 0.2862745225429535
0.3330049216747284 0.7688299417495728 0.00909090880304575 0.19607843458652496 0.1882352977991104 0.13725490868091583
0.3463054299354553 0.718932569026947 0.2964426875114441 0.5254902243614197 0.5803921818733215 0.5843137502670288
0.3541871905326843 0.7633033394813538 0.9905138611793518 0.3607843220233917 0.35686275362968445 0.34117648005485535
0.2137930989265442 0.832306981086731 0.008695651777088642 0.5254902243614197 0.5333333611488342 0.4470588266849518
0.3408867120742798 0.8296226263046265 0.00830039568245411 0.45098039507865906 0.4470588266849518 0.33725491166114807
0.15320196747779846 0.8665719032287598 0.01067193690687418 0.5921568870544434 0.5882353186607361 0.5058823823928833
0.230049267411232 0.7451444864273071 0.9936758875846863 0.9647058844566345 0.9803921580314636 0.9921568632125854
0.24679802358150482 0.7527238130569458 0.007905138656497002 0.5490196347236633 0.5529412031173706 0.4901960790157318
0.3182266056537628 0.8405179381370544 0.00830039568245411 0.6313725709915161 0.6274510025978088 0.545098066329956
0.15541872382164001 0.7716721892356873 0.9909090995788574 0.3333333432674408 0.33725491166114807 0.3176470696926117
0.24482758343219757 0.832464873790741 0.9909090995788574 0.41960784792900085 0.40784314274787903 0.37254902720451355
0.2697044312953949 0.8420969247817993 0.008695651777088642 0.6274510025978088 0.6235294342041016 0.5529412031173706
0.25 0.810358464717865 0.008695651777088642 0.5254902243614197 0.5137255191802979 0.45490196347236633
0.24729064106941223 0.8668877482414246 0.00909090880304575 0.5137255191802979 0.5215686559677124 0.46666666865348816
0.21133005619049072 0.8185694217681885 0.00830039568245411 0.48235294222831726 0.4901960790157318 0.40392157435417175
0.35443350672721863 0.8443076014518738 0.9909090995788574 0.3450980484485626 0.34117648005485535 0.32156863808631897
0.20714285969734192 0.7546186447143555 0.9932806491851807 0.9647058844566345 0.9686274528503418 0.9843137264251709
0.2903940975666046 0.8114637732505798 0.9916995763778687 0.9372549057006836 0.9529411792755127 0.95686274766922
0.20467980206012726 0.8095689415931702 0.00830039568245411 0.5058823823928833 0.49803921580314636 0.4470588266849518
0.1751231551170349 0.7754618525505066 0.007905138656497002 0.5843137502670288 0.5764706134796143 0.5254902243614197
0.12783251702785492 0.8184114694595337 0.18577075004577637 0.2980392277240753 0.30588236451148987 0.3019607961177826
0.17955665290355682 0.7326701283454895 0.9916995763778687 0.9176470637321472 0.9215686321258545 0.929411768913269
0.13768473267555237 0.7443549633026123 0.9901185631752014 0.40784314274787903 0.40392157435417175 0.38823530077934265
0.18152709305286407 0.8673614263534546 0.010276679880917072 0.48235294222831726 0.4941176474094391 0.41960784792900085
0.2618226706981659 0.8515711426734924 0.008695651777088642 0.6784313917160034 0.6549019813537598 0.5921568870544434
0.1467980295419693 0.8612031936645508 0.01067193690687418 0.5764706134796143 0.5764706134796143 0.529411792755127
0.18719211220741272 0.8283593654632568 0.00909090880304575 0.6000000238418579 0.615686297416687 0.5254902243614197
0.33448275923728943 0.7669351100921631 0.9905138611793518 0.3803921639919281 0.3764705955982208 0.3686274588108063
0.3534482717514038 0.83799147605896 0.9909090995788574 0.3529411852359772 0.3490196168422699 0.3294117748737335
0.2608374357223511 0.7227222323417664 0.9940711259841919 0.9803921580314636 0.9843137264251709 1.0
0.34433498978614807 0.7508289813995361 0.2972331941127777 0.6941176652908325 0.729411780834198 0.7254902124404907
0.25295567512512207 0.8419390320777893 0.9909090995788574 0.3294117748737335 0.3294117748737335 0.2823529541492462
0.33177340030670166 0.7969366908073425 0.9909090995788574 0.3960784375667572 0.3803921639919281 0.3764705955982208
0.16600985825061798 0.7850939631462097 0.992094874382019 0.7098039388656616 0.7215686440467834 0.7411764860153198
0.25935959815979004 0.8634138703346252 0.9905138611793518 0.3921568691730499 0.3843137323856354 0.33725491166114807
0.2731527090072632 0.7479867339134216 0.9936758875846863 0.9647058844566345 0.9803921580314636 0.9921568632125854
0.1746305376291275 0.7866730093955994 0.007905138656497002 0.501960813999176 0.501960813999176 0.3921568691730499
0.17339901626110077 0.8552029132843018 0.9897233247756958 0.40784314274787903 0.4000000059604645 0.3490196168422699
0.14778324961662292 0.8372019529342651 0.009881422854959965 0.4745098054409027 0.46666666865348816 0.41960784792900085
0.14556650817394257 0.8612031936645508 0.01067193690687418 0.48627451062202454 0.4901960790157318 0.43529412150382996
0.21108373999595642 0.7779883146286011 0.007905138656497002 0.5921568870544434 0.5960784554481506 0.5411764979362488
0.2502463161945343 0.7506710886955261 0.007905138656497002 0.529411792755127 0.5372549295425415 0.45490196347236633
0.2623152732849121 0.8005684614181519 0.008695651777088642 0.5215686559677124 0.5098039507865906 0.43529412150382996
0.2859605848789215 0.8348333835601807 0.991304337978363 0.4117647111415863 0.3843137323856354 0.3607843220233917
0.3416256010532379 0.7956734299659729 0.010276679880917072 0.3843137323856354 0.3764705955982208 0.32549020648002625
0.35172414779663086 0.8670456409454346 0.008695651777088642 0.49803921580314636 0.501960813999176 0.4313725531101227
0.14778324961662292 0.7770408987998962 0.00830039568245411 0.501960813999176 0.5058823823928833 0.45098039507865906
0.14753694832324982 0.8081477880477905 0.991304337978363 0.364705890417099 0.364705890417099 0.32549020648002625
0.3283251225948334 0.8646770715713501 0.9905138611793518 0.37254902720451355 0.37254902720451355 0.34117648005485535
0.14187191426753998 0.7107216119766235 0.00830039568245411 0.5490196347236633 0.5372549295425415 0.501960813999176
0.3532019555568695 0.7623559236526489 0.2972331941127777 0.6470588445663452 0.6823529601097107 0.6784313917160034
0.1785714328289032 0.854729175567627 0.9897233247756958 0.3960784375667572 0.3960784375667572 0.3490196168422699
0.3655172288417816 0.8089373111724854 0.9909090995788574 0.3333333432674408 0.33725491166114807 0.3176470696926117
0.336699515581131 0.7370914220809937 0.2968379557132721 0.6823529601097107 0.7176470756530762 0.6980392336845398
0.28054186701774597 0.729512095451355 0.007905138656497002 0.5803921818733215 0.5764706134796143 0.49803921580314636
0.31896552443504333 0.746407687664032 0.2972331941127777 0.7686274647712708 0.8078431487083435 0.8156862854957581
0.25295567512512207 0.8035686016082764 0.9924901127815247 0.9098039269447327 0.9137254953384399 0.929411768913269
0.3571428656578064 0.7486183643341064 0.9905138611793518 0.3450980484485626 0.3450980484485626 0.33725491166114807
0.27118226885795593 0.8357808589935303 0.00909090880304575 0.5254902243614197 0.5215686559677124 0.45098039507865906
0.24310344457626343 0.8664140105247498 0.008695651777088642 0.4941176474094391 0.5058823823928833 0.42352941632270813
0.3463054299354553 0.7898310422897339 0.9909090995788574 0.3803921639919281 0.3843137323856354 0.364705890417099
0.3209359645843506 0.78304123878479 0.9909090995788574 0.4588235318660736 0.45098039507865906 0.4627451002597809
0.23226600885391235 0.7765671610832214 0.007905138656497002 0.5215686559677124 0.5215686559677124 0.4274509847164154
0.2103448212146759 0.8360966444015503 0.9901185631752014 0.3921568691730499 0.3960784375667572 0.34117648005485535
0.1701970398426056 0.8337280750274658 0.009486165829002857 0.5803921818733215 0.5882353186607361 0.4941176474094391
0.15591132640838623 0.7599873542785645 0.00830039568245411 0.43921568989753723 0.42352941632270813 0.3764705955982208
0.222660094499588 0.8503078818321228 0.00909090880304575 0.5490196347236633 0.5607843399047852 0.47843137383461
0.12463054060935974 0.8155692219734192 0.15217390656471252 0.0784313753247261 0.08627451211214066 0.07450980693101883
0.33522167801856995 0.8373598456382751 0.007905138656497002 0.545098066329956 0.5411764979362488 0.4588235318660736
0.2591133117675781 0.843675971031189 0.008695651777088642 0.6117647290229797 0.615686297416687 0.545098066329956
0.1507389098405838 0.8593083620071411 0.01067193690687418 0.5254902243614197 0.5333333611488342 0.47843137383461
0.34778323769569397 0.7201957702636719 0.009486165829002857 0.08627451211214066 0.0784313753247261 0.08235294371843338
0.35443350672721863 0.8619927167892456 0.9905138611793518 0.3450980484485626 0.3490196168422699 0.32549020648002625
0.23300492763519287 0.821253776550293 0.9905138611793518 0.40392157435417175 0.41960784792900085 0.4156862795352936
0.32684728503227234 0.7328280210494995 0.9909090995788574 0.40784314274787903 0.40784314274787903 0.40784314274787903
0.23940886557102203 0.7451444864273071 0.9940711259841919 0.9647058844566345 0.9803921580314636 0.9921568632125854
0.12931033968925476 0.8360966444015503 0.9889327883720398 0.364705890417099 0.38823530077934265 0.3333333432674408
0.29088670015335083 0.7124585509300232 0.007905138656497002 0.4941176474094391 0.5333333611488342 0.43529412150382996
0.3605911433696747 0.7981998920440674 0.9909090995788574 0.3294117748737335 0.32549020648002625 0.30980393290519714
0.3529556691646576 0.8060950636863708 0.009881422854959965 0.40392157435417175 0.3843137323856354 0.30588236451148987
0.16798029839992523 0.7693036198616028 0.9916995763778687 0.7254902124404907 0.7450980544090271 0.7568627595901489
0.3100985288619995 0.7495657801628113 0.2972331941127777 0.800000011920929 0.8313725590705872 0.843137264251709
0.32389163970947266 0.7775145769119263 0.2972331941127777 0.7450980544090271 0.7647058963775635 0.7764706015586853
0.3339901566505432 0.7734091281890869 0.2972331941127777 0.7137255072593689 0.7333333492279053 0.7450980544090271
0.19359606504440308 0.7315648198127747 0.007905138656497002 0.47058823704719543 0.48235294222831726 0.4156862795352936
0.34458127617836 0.7855676412582397 0.009881422854959965 0.07058823853731155 0.07058823853731155 0.03921568766236305
0.237931028008461 0.8119374513626099 0.00830039568245411 0.6117647290229797 0.5921568870544434 0.5176470875740051
0.26773399114608765 0.7339333891868591 0.9940711259841919 0.9647058844566345 0.9803921580314636 0.9921568632125854
0.2628078758716583 0.827254056930542 0.008695651777088642 0.501960813999176 0.4901960790157318 0.4156862795352936
0.3561576306819916 0.7814621925354004 0.01304347813129425 0.20392157137393951 0.20000000298023224 0.18431372940540314
0.27586206793785095 0.724143385887146 0.9944664239883423 0.9647058844566345 0.9764705896377563 0.9960784316062927
0.34729063510894775 0.7358282208442688 0.9905138611793518 0.3607843220233917 0.364705890417099 0.34117648005485535
0.3418719172477722 0.7743565440177917 0.00909090880304575 0.29411765933036804 0.2862745225429535 0.239215686917305
0.3529556691646576 0.799936830997467 0.010276679880917072 0.2705882489681244 0.2666666805744171 0.19607843458652496
0.26798030734062195 0.7443549633026123 0.007905138656497002 0.5764706134796143 0.5686274766921997 0.47843137383461
0.23940886557102203 0.7456181645393372 0.9940711259841919 0.9686274528503418 0.9843137264251709 0.9960784316062927
0.16600985825061798 0.8506237268447876 0.9897233247756958 0.35686275362968445 0.3529411852359772 0.2823529541492462
0.23497536778450012 0.7620400786399841 0.007905138656497002 0.6470588445663452 0.6392157077789307 0.5568627715110779
0.3421182334423065 0.8084636330604553 0.9909090995788574 0.3764705955982208 0.37254902720451355 0.35686275362968445
0.30714285373687744 0.7735670208930969 0.9909090995788574 0.48235294222831726 0.49803921580314636 0.5411764979362488
0.20837438106536865 0.7391441464424133 0.007905138656497002 0.4627451002597809 0.4588235318660736 0.3803921639919281
0.3541871905326843 0.794094443321228 0.9909090995788574 0.30588236451148987 0.3019607961177826 0.2862745225429535
0.18940886855125427 0.8414653539657593 0.009486165829002857 0.47058823704719543 0.4627451002597809 0.4156862795352936
0.27118226885795593 0.7730933427810669 0.9932806491851807 0.9529411792755127 0.9686274528503418 0.9725490212440491
0.2423645257949829 0.7206695079803467 0.007905138656497002 0.545098066329956 0.5215686559677124 0.43529412150382996
0.1625615805387497 0.7948839664459229 0.992094874382019 0.3137255012989044 0.3333333432674408 0.3176470696926117
0.22931034862995148 0.7181430459022522 0.9928853511810303 0.9607843160629272 0.9725490212440491 0.9921568632125854
0.26699507236480713 0.7230380773544312 0.007905138656497002 0.5333333611488342 0.5333333611488342 0.43921568989753723
0.27561575174331665 0.7614085078239441 0.007905138656497002 0.5764706134796143 0.5686274766921997 0.5098039507865906
0.23719212412834167 0.8594663143157959 0.00909090880304575 0.5960784554481506 0.6000000238418579 0.529411792755127
0.17733989655971527 0.7989894151687622 0.00830039568245411 0.5137255191802979 0.5254902243614197 0.45098039507865906
0.18128079175949097 0.816042959690094 0.00909090880304575 0.5647059082984924 0.5803921818733215 0.48235294222831726
0.33103448152542114 0.8146218061447144 0.991304337978363 0.38823530077934265 0.3921568691730499 0.37254902720451355
0.3692118227481842 0.8419390320777893 0.007905138656497002 0.42352941632270813 0.4156862795352936 0.3333333432674408
0.3655172288417816 0.7670930027961731 0.9905138611793518 0.3294117748737335 0.32549020648002625 0.3176470696926117
0.2534482777118683 0.729985773563385 0.9940711259841919 0.9803921580314636 0.9843137264251709 1.0
0.30812808871269226 0.8556765913963318 0.9909090995788574 0.37254902720451355 0.37254902720451355 0.34117648005485535
0.2903940975666046 0.7612506151199341 0.2972331941127777 0.8352941274642944 0.8549019694328308 0.8705882430076599
0.19507388770580292 0.7279330492019653 0.007905138656497002 0.4941176474094391 0.5058823823928833 0.42352941632270813
0.1899014711380005 0.7528817057609558 0.007905138656497002 0.5333333611488342 0.5215686559677124 0.4627451002597809
0.1743842363357544 0.7819358706474304 0.007905138656497002 0.4588235318660736 0.46666666865348816 0.3843137323856354
0.33522167801856995 0.7711985111236572 0.2972331941127777 0.7137255072593689 0.7490196228027344 0.7450980544090271
0.14926108717918396 0.804989755153656 0.991304337978363 0.3803921639919281 0.3803921639919281 0.3333333432674408
0.29064038395881653 0.8372019529342651 0.9909090995788574 0.4117647111415863 0.4117647111415863 0.3803921639919281
0.3059113323688507 0.7453023791313171 0.2968379557132721 0.7843137383460999 0.8235294222831726 0.8313725590705872
0.36354678869247437 0.7498815655708313 0.2972331941127777 0.6117647290229797 0.6509804129600525 0.658823549747467
0.19187192618846893 0.7250908017158508 0.007905138656497002 0.4901960790157318 0.47843137383461 0.40392157435417175
0.3327586352825165 0.7801989316940308 0.2972331941127777 0.6627451181411743 0.6823529601097107 0.6980392336845398
0.27536946535110474 0.8441497087478638 0.9909090995788574 0.3921568691730499 0.3843137323856354 0.33725491166114807
0.2261083722114563 0.7307752966880798 0.007905138656497002 0.6470588445663452 0.658823549747467 0.5921568870544434
0.2935960590839386 0.7437233328819275 0.2964426875114441 0.772549033164978 0.8117647171020508 0.8196078538894653
0.36403942108154297 0.7896731495857239 0.9905138611793518 0.34117648005485535 0.33725491166114807 0.3176470696926117
0.1344827562570572 0.8656244874000549 0.17944663763046265 0.2666666805744171 0.26274511218070984 0.24313725531101227
0.20763546228408813 0.7625138163566589 0.9932806491851807 0.9686274528503418 0.9725490212440491 0.9882352948188782
0.13004925847053528 0.8610453009605408 0.9893280863761902 0.3764705955982208 0.3764705955982208 0.3294117748737335
0.24827586114406586 0.8305700421333313 0.9909090995788574 0.4000000059604645 0.38823530077934265 0.3529411852359772
0.35862070322036743 0.8073582649230957 0.009486165829002857 0.3137255012989044 0.32156863808631897 0.239215686917305
0.26009851694107056 0.8428864479064941 0.9909090995788574 0.37254902720451355 0.37254902720451355 0.3333333432674408
0.1862068921327591 0.7160903215408325 0.007905138656497002 0.47058823704719543 0.4745098054409027 0.40392157435417175
0.14950738847255707 0.7555660605430603 0.00830039568245411 0.529411792755127 0.5176470875740051 0.45098039507865906
0.14458128809928894 0.8673614263534546 0.9893280863761902 0.3921568691730499 0.3843137323856354 0.32549020648002625
0.16034482419490814 0.7797252535820007 0.9916995763778687 0.3921568691730499 0.4000000059604645 0.38823530077934265
0.19778324663639069 0.7276172637939453 0.992094874382019 0.929411768913269 0.9411764740943909 0.9607843160629272
0.25123152136802673 0.8300963044166565 0.9909090995788574 0.3843137323856354 0.3843137323856354 0.3450980484485626
0.21625615656375885 0.8569398522377014 0.009486165829002857 0.6078431606292725 0.6196078658103943 0.545098066329956
0.34310343861579895 0.8193588852882385 0.9909090995788574 0.3450980484485626 0.34117648005485535 0.32156863808631897
0.289901465177536 0.7974103689193726 0.009486165829002857 0.5058823823928833 0.5058823823928833 0.4117647111415863
0.27660098671913147 0.8559924364089966 0.9909090995788574 0.3921568691730499 0.3843137323856354 0.33725491166114807
0.18522167205810547 0.762829601764679 0.9924901127815247 0.9411764740943909 0.9529411792755127 0.9725490212440491
0.20073892176151276 0.7716721892356873 0.007905138656497002 0.4274509847164154 0.4431372582912445 0.3764705955982208
0.3337438404560089 0.7506710886955261 0.2972331941127777 0.7215686440467834 0.7607843279838562 0.7647058963775635
0.12364532053470612 0.8237801790237427 0.009486165829002857 0.25882354378700256 0.25882354378700256 0.21960784494876862
0.26428571343421936 0.8073582649230957 0.008695651777088642 0.5529412031173706 0.545098066329956 0.4470588266849518
0.2305418699979782 0.8242539167404175 0.9905138611793518 0.38823530077934265 0.4117647111415863 0.37254902720451355
0.18349753320217133 0.7882519960403442 0.9932806491851807 0.9019607901573181 0.9137254953384399 0.9333333373069763
0.13374383747577667 0.7550923824310303 0.9897233247756958 0.37254902720451355 0.3686274588108063 0.3607843220233917
0.2573891580104828 0.8343597054481506 0.9909090995788574 0.3764705955982208 0.364705890417099 0.3294117748737335
0.1788177341222763 0.7375651597976685 0.007905138656497002 0.5647059082984924 0.5607843399047852 0.4901960790157318
0.22413793206214905 0.8577293753623962 0.9905138611793518 0.3921568691730499 0.3843137323856354 0.3333333432674408
0.274137943983078 0.8150955438613892 0.00909090880304575 0.5568627715110779 0.5607843399047852 0.4901960790157318
0.1628078818321228 0.8092530965805054 0.008695651777088642 0.46666666865348816 0.47058823704719543 0.4000000059604645
0.18866994976997375 0.741038978099823 0.007905138656497002 0.5333333611488342 0.5372549295425415 0.46666666865348816
0.21699507534503937 0.7157745361328125 0.9924901127815247 0.9411764740943909 0.9529411792755127 0.9725490212440491
0.1869458109140396 0.8430444002151489 0.009486165829002857 0.5411764979362488 0.529411792755127 0.4627451002597809
0.33965516090393066 0.7448287010192871 0.2972331941127777 0.6823529601097107 0.7058823704719543 0.7058823704719543
0.24310344457626343 0.7606189846992493 0.9936758875846863 0.9686274528503418 0.9725490212440491 0.9882352948188782
0.1667487621307373 0.8563082218170166 0.9897233247756958 0.3803921639919281 0.37254902720451355 0.3137255012989044
0.314039409160614 0.7612506151199341 0.2976284623146057 0.8039215803146362 0.8313725590705872 0.8627451062202454
0.29532018303871155 0.7903047800064087 0.29169961810112 0.658823549747467 0.6941176652908325 0.7137255072593689
0.18940886855125427 0.8312016129493713 0.00909090880304575 0.6352941393852234 0.6117647290229797 0.5490196347236633
0.3499999940395355 0.7591978311538696 0.9905138611793518 0.3607843220233917 0.35686275362968445 0.34117648005485535
0.3283251225948334 0.8556765913963318 0.9909090995788574 0.364705890417099 0.3686274588108063 0.33725491166114807
0.32019704580307007 0.827411949634552 0.991304337978363 0.38823530077934265 0.3843137323856354 0.364705890417099
0.19261083006858826 0.8277277946472168 0.00909090880304575 0.5764706134796143 0.5686274766921997 0.48627451062202454
0.17315271496772766 0.7746723294258118 0.9924901127815247 0.9058823585510254 0.9176470637321472 0.9529411792755127
0.2219211757183075 0.7156165838241577 0.9924901127815247 0.9333333373069763 0.9529411792755127 0.9686274528503418
0.19950738549232483 0.8113058805465698 0.9916995763778687 0.8901960849761963 0.8941176533699036 0.9137254953384399
0.2817733883857727 0.8045160174369812 0.992094874382019 0.929411768913269 0.9450980424880981 0.9490196108818054
0.35960590839385986 0.7907784581184387 0.2968379557132721 0.5137255191802979 0.5490196347236633 0.545098066329956
0.20172414183616638 0.8469919562339783 0.9901185631752014 0.3843137323856354 0.3764705955982208 0.3294117748737335
0.2187192142009735 0.8307279348373413 0.9905138611793518 0.3960784375667572 0.3960784375667572 0.35686275362968445
0.16945812106132507 0.7206695079803467 0.007905138656497002 0.5254902243614197 0.501960813999176 0.45490196347236633
0.30024629831314087 0.8128848671913147 0.009486165829002857 0.47058823704719543 0.45098039507865906 0.364705890417099
