0.9832512140274048 0.316279798746109 0.9067193865776062 0.501960813999176 0.47843137383461 0.3843137323856354
0.979556679725647 0.32622769474983215 0.7786561250686646 0.5882353186607361 0.6039215922355652 0.615686297416687
0.9748768210411072 0.43470707535743713 0.5584980249404907 0.6117647290229797 0.6352941393852234 0.6274510025978088
0.9763546586036682 0.3761250674724579 0.4019762873649597 0.658823549747467 0.6901960968971252 0.7019608020782471
0.9780788421630859 0.42160114645957947 0.29841896891593933 0.5647059082984924 0.5568627715110779 0.49803921580314636
0.7554187178611755 0.4054950177669525 0.0063241105526685715 0.27843138575553894 0.2666666805744171 0.239215686917305
0.9761083722114563 0.3996526002883911 0.6158102750778198 0.6235294342041016 0.6392157077789307 0.6431372761726379
0.9770935773849487 0.3308068811893463 0.6415019631385803 0.6431372761726379 0.6509804129600525 0.7019608020782471
0.7807881832122803 0.3195957541465759 0.9932806491851807 0.3921568691730499 0.38823530077934265 0.3686274588108063
0.7847290635108948 0.42444339394569397 0.006719367578625679 0.3921568691730499 0.38823530077934265 0.30980393290519714
0.9800492525100708 0.4107058346271515 0.29446640610694885 0.5960784554481506 0.5921568870544434 0.5098039507865906
0.9756157398223877 0.42665404081344604 0.9881423115730286 0.239215686917305 0.2235294133424759 0.18039216101169586
0.8209359645843506 0.430127888917923 0.9901185631752014 0.2078431397676468 0.19607843458652496 0.1764705926179886
0.9147783517837524 0.4571293294429779 0.005928853526711464 0.529411792755127 0.5176470875740051 0.3960784375667572
0.9763546586036682 0.32006949186325073 0.46679842472076416 0.686274528503418 0.6980392336845398 0.7333333492279053
0.9817733764648438 0.345649778842926 0.1723320186138153 0.7254902124404907 0.7215686440467834 0.6431372761726379
0.7448275685310364 0.3560713827610016 0.27391305565834045 0.11764705926179886 0.11372549086809158 0.10588235408067703
0.8002462983131409 0.36049264669418335 0.005928853526711464 0.4745098054409027 0.47843137383461 0.40784314274787903
0.7470443248748779 0.3701247572898865 0.21264822781085968 0.10980392247438431 0.10980392247438431 0.10196078568696976
0.9763546586036682 0.36870360374450684 0.6209486126899719 0.6274510025978088 0.6509804129600525 0.6509804129600525
0.9807881712913513 0.4397599995136261 0.18063241243362427 0.7137255072593689 0.7058823704719543 0.6470588445663452
0.8413792848587036 0.41465339064598083 0.005928853526711464 0.6549019813537598 0.6352941393852234 0.5568627715110779
0.8091133236885071 0.38117796182632446 0.005928853526711464 0.545098066329956 0.5333333611488342 0.4588235318660736
0.8194581270217896 0.419074684381485 0.005928853526711464 0.5411764979362488 0.5372549295425415 0.4274509847164154
0.9807881712913513 0.44939208030700684 0.2802371680736542 0.658823549747467 0.6509804129600525 0.5686274766921997
0.7539408802986145 0.3478604257106781 0.27865612506866455 0.11372549086809158 0.11372549086809158 0.10588235408067703
0.746798038482666 0.35433444380760193 0.9928853511810303 0.364705890417099 0.3686274588108063 0.3490196168422699
0.7534482479095459 0.46360334753990173 0.3079051375389099 0.3843137323856354 0.41960784792900085 0.4470588266849518
0.9807881712913513 0.4718143045902252 0.2193675935268402 0.6941176652908325 0.7019608020782471 0.6078431606292725
0.8290640115737915 0.3939681053161621 0.005928853526711464 0.5882353186607361 0.5803921818733215 0.4901960790157318
0.7844827771186829 0.36096635460853577 0.0063241105526685715 0.5058823823928833 0.48235294222831726 0.41960784792900085
0.9206896424293518 0.408021479845047 0.005533596966415644 0.5254902243614197 0.5058823823928833 0.41960784792900085
0.9768472909927368 0.3360176980495453 0.3893280625343323 0.686274528503418 0.6980392336845398 0.7176470756530762
0.9832512140274048 0.4362861216068268 0.8411067128181458 0.5215686559677124 0.501960813999176 0.42352941632270813
0.9581280946731567 0.38986262679100037 0.0063241105526685715 0.501960813999176 0.49803921580314636 0.4274509847164154
0.7889162302017212 0.321648508310318 0.9932806491851807 0.40784314274787903 0.3960784375667572 0.3764705955982208
0.74064040184021 0.3912837505340576 0.2758893370628357 0.12156862765550613 0.12156862765550613 0.11372549086809158
0.8960590958595276 0.31991156935691833 0.9901185631752014 0.38823530077934265 0.37254902720451355 0.33725491166114807
0.748522162437439 0.3443865478038788 0.1513833999633789 0.0941176488995552 0.11372549086809158 0.09803921729326248
0.7566502690315247 0.3816516697406769 0.992094874382019 0.3607843220233917 0.35686275362968445 0.34117648005485535
0.9753694534301758 0.39223116636276245 0.4885375499725342 0.6235294342041016 0.658823549747467 0.6470588445663452
0.88768470287323 0.3655455410480499 0.0071146246045827866 0.6431372761726379 0.6392157077789307 0.5568627715110779
0.8610837459564209 0.3274909257888794 0.991304337978363 0.3843137323856354 0.37254902720451355 0.33725491166114807
0.9837438464164734 0.34075477719306946 0.926086962223053 0.4745098054409027 0.4470588266849518 0.3764705955982208
0.7458128333091736 0.3527553975582123 0.2134387344121933 0.12941177189350128 0.13333334028720856 0.11372549086809158
0.865517258644104 0.4538133442401886 0.9897233247756958 0.2666666805744171 0.25882354378700256 0.21176470816135406
0.9778324961662292 0.46360334753990173 0.7422924637794495 0.5568627715110779 0.5686274766921997 0.5333333611488342
0.9746305346488953 0.4711827039718628 0.5154150128364563 0.6039215922355652 0.6274510025978088 0.6196078658103943
0.9753694534301758 0.4389704763889313 0.5968379378318787 0.6000000238418579 0.615686297416687 0.6117647290229797
0.7475369572639465 0.3413863778114319 0.15731225907802582 0.06666667014360428 0.09019608050584793 0.09019608050584793
0.9746305346488953 0.4307595193386078 0.5466403365135193 0.6117647290229797 0.6352941393852234 0.6352941393852234
0.7490147948265076 0.43186482787132263 0.1719367653131485 0.1411764770746231 0.14901961386203766 0.14509804546833038
0.932758629322052 0.3357018828392029 0.9889327883720398 0.4000000059604645 0.3843137323856354 0.33725491166114807
0.9778324961662292 0.43470707535743713 0.29920947551727295 0.5568627715110779 0.5607843399047852 0.49803921580314636
0.8495073914527893 0.3477025032043457 0.9909090995788574 0.4000000059604645 0.38823530077934265 0.3607843220233917
0.9834975600242615 0.33412283658981323 0.9094861745834351 0.4901960790157318 0.47058823704719543 0.3843137323856354
0.9834975600242615 0.44670772552490234 0.8853754997253418 0.4627451002597809 0.43921568989753723 0.3843137323856354
0.9273399114608765 0.3500710427761078 0.00830039568245411 0.4588235318660736 0.45098039507865906 0.3686274588108063
0.9807881712913513 0.4624980390071869 0.2873517870903015 0.5882353186607361 0.5843137502670288 0.46666666865348816
0.9768472909927368 0.3244907557964325 0.4122529625892639 0.6745098233222961 0.7019608020782471 0.7333333492279053
0.9022167325019836 0.37170377373695374 0.9897233247756958 0.37254902720451355 0.3607843220233917 0.32549020648002625
0.9766010046005249 0.47039318084716797 0.3640316128730774 0.6666666865348816 0.7019608020782471 0.6980392336845398
0.9812808036804199 0.31754302978515625 0.2715415060520172 0.7019608020782471 0.7019608020782471 0.6549019813537598
0.8182265758514404 0.4711827039718628 0.006719367578625679 0.5803921818733215 0.572549045085907 0.48235294222831726
0.8455665111541748 0.34912362694740295 0.006719367578625679 0.6823529601097107 0.6901960968971252 0.6470588445663452
0.7571428418159485 0.46376124024391174 0.2865612506866455 0.18039216101169586 0.1764705926179886 0.16078431904315948
0.9800492525100708 0.442918062210083 0.7960474491119385 0.5372549295425415 0.5411764979362488 0.5215686559677124
0.8211822509765625 0.453971266746521 0.0063241105526685715 0.658823549747467 0.6509804129600525 0.5607843399047852
0.7980295419692993 0.3211748003959656 0.0063241105526685715 0.49803921580314636 0.49803921580314636 0.3960784375667572
0.9837438464164734 0.32606980204582214 0.9438735246658325 0.4431372582912445 0.4156862795352936 0.3529411852359772
0.9756157398223877 0.3339649438858032 0.5221343636512756 0.6705882549285889 0.6823529601097107 0.7098039388656616
0.7866995334625244 0.40612664818763733 0.0063241105526685715 0.3764705955982208 0.3529411852359772 0.29019609093666077
0.9812808036804199 0.33207011222839355 0.23596838116645813 0.6980392336845398 0.7019608020782471 0.6470588445663452
0.9798029661178589 0.33507025241851807 0.04743082821369171 0.250980406999588 0.21960784494876862 0.1764705926179886
0.9270936250686646 0.40044212341308594 0.005928853526711464 0.5254902243614197 0.5098039507865906 0.4117647111415863
0.9807881712913513 0.4247592091560364 0.1881422996520996 0.7098039388656616 0.7058823704719543 0.6352941393852234
0.9480295777320862 0.367440402507782 0.9885375499725342 0.3607843220233917 0.3450980484485626 0.3019607961177826
0.9418719410896301 0.31991156935691833 0.9885375499725342 0.3333333432674408 0.3176470696926117 0.2823529541492462
0.9748768210411072 0.43533870577812195 0.5501976013183594 0.6078431606292725 0.6313725709915161 0.6235294342041016
0.9807881712913513 0.4174956679344177 0.18537549674510956 0.7058823704719543 0.7137255072593689 0.6313725709915161
0.7894088625907898 0.45207643508911133 0.9901185631752014 0.24705882370471954 0.23529411852359772 0.21568627655506134
0.9753694534301758 0.35559767484664917 0.5573122501373291 0.6470588445663452 0.658823549747467 0.6784313917160034
0.7539408802986145 0.43218064308166504 0.9901185631752014 0.3607843220233917 0.3450980484485626 0.3333333432674408
0.8290640115737915 0.34343913197517395 0.9916995763778687 0.3607843220233917 0.3607843220233917 0.32156863808631897
0.9812808036804199 0.316279798746109 0.2656126618385315 0.6941176652908325 0.7019608020782471 0.658823549747467
0.870197057723999 0.34880784153938293 0.9905138611793518 0.42352941632270813 0.40784314274787903 0.37254902720451355
0.9807881712913513 0.3563871681690216 0.27430829405784607 0.6980392336845398 0.7098039388656616 0.6431372761726379
0.8435960412025452 0.46944576501846313 0.0063241105526685715 0.4745098054409027 0.4901960790157318 0.3921568691730499
0.9810344576835632 0.43770724534988403 0.13122530281543732 0.7058823704719543 0.7098039388656616 0.6392157077789307
0.9810344576835632 0.43186482787132263 0.1505928784608841 0.7019608020782471 0.7098039388656616 0.6274510025978088
0.9807881712913513 0.4448128938674927 0.23675888776779175 0.6980392336845398 0.7019608020782471 0.6392157077789307
0.9790640473365784 0.3649139404296875 0.7810276746749878 0.5803921818733215 0.5882353186607361 0.5843137502670288
0.7460591197013855 0.44733932614326477 0.3015810251235962 0.0470588244497776 0.0470588244497776 0.0470588244497776
0.7396551966667175 0.38386231660842896 0.23557312786579132 0.14509804546833038 0.14509804546833038 0.13725490868091583
0.738916277885437 0.42996999621391296 0.24901185929775238 0.1411764770746231 0.1411764770746231 0.13333334028720856
0.9756157398223877 0.40912678837776184 0.5980237126350403 0.6078431606292725 0.6313725709915161 0.6235294342041016
0.9433497786521912 0.35528185963630676 0.008695651777088642 0.4313725531101227 0.4431372582912445 0.3686274588108063
0.9763546586036682 0.3628612160682678 0.6221343874931335 0.658823549747467 0.6745098233222961 0.6784313917160034
0.9810344576835632 0.46676141023635864 0.11146245151758194 0.6901960968971252 0.7058823704719543 0.6078431606292725
0.748275876045227 0.3821253776550293 0.16916996240615845 0.0941176488995552 0.10196078568696976 0.09803921729326248
0.9810344576835632 0.43549659848213196 0.03478260710835457 0.29019609093666077 0.2705882489681244 0.1921568661928177
0.982758641242981 0.3167535066604614 0.8640316128730774 0.5568627715110779 0.529411792755127 0.45490196347236633
0.8369458317756653 0.3540186285972595 0.9909090995788574 0.38823530077934265 0.37254902720451355 0.3607843220233917
0.9775862097740173 0.4331280589103699 0.7217391133308411 0.5607843399047852 0.5647059082984924 0.545098066329956
0.934236466884613 0.3788094222545624 0.007509881630539894 0.48235294222831726 0.4745098054409027 0.3921568691730499
0.9766010046005249 0.4508132040500641 0.3549407124519348 0.7019608020782471 0.7372549176216125 0.7333333492279053
0.7692118287086487 0.3331754207611084 0.9936758875846863 0.43529412150382996 0.43921568989753723 0.4588235318660736
0.7807881832122803 0.3507026731967926 0.9924901127815247 0.4000000059604645 0.3960784375667572 0.3803921639919281
0.8534482717514038 0.4250749945640564 0.005928853526711464 0.6039215922355652 0.6117647290229797 0.5254902243614197
0.9544335007667542 0.38875728845596313 0.9881423115730286 0.3607843220233917 0.3450980484485626 0.2980392277240753
0.9780788421630859 0.3938102126121521 0.7490118741989136 0.5647059082984924 0.5803921818733215 0.5764706134796143
0.7426108121871948 0.43502289056777954 0.9901185631752014 0.3607843220233917 0.3450980484485626 0.3333333432674408
0.9088670015335083 0.41481131315231323 0.005533596966415644 0.5372549295425415 0.5372549295425415 0.43529412150382996
0.9770935773849487 0.38323068618774414 0.6806324124336243 0.5843137502670288 0.6078431606292725 0.6000000238418579
0.9766010046005249 0.4077056646347046 0.6581027507781982 0.5843137502670288 0.6078431606292725 0.6078431606292725
0.7445812821388245 0.37265118956565857 0.1462450623512268 0.062745101749897 0.062745101749897 0.054901961237192154
0.9844827651977539 0.4620243310928345 0.970355749130249 0.3490196168422699 0.32549020648002625 0.27843138575553894
0.9810344576835632 0.46407705545425415 0.17075099050998688 0.6941176652908325 0.7019608020782471 0.6196078658103943
0.9753694534301758 0.4315490424633026 0.5814229249954224 0.6117647290229797 0.6313725709915161 0.615686297416687
0.9832512140274048 0.41212695837020874 0.8924900889396667 0.4627451002597809 0.43921568989753723 0.3843137323856354
0.9197044372558594 0.3268592953681946 0.007905138656497002 0.49803921580314636 0.4941176474094391 0.4156862795352936
0.9807881712913513 0.3996526002883911 0.24703557789325714 0.7333333492279053 0.7490196228027344 0.6901960968971252
0.9807881712913513 0.38907310366630554 0.2292490154504776 0.7137255072593689 0.7176470756530762 0.6549019813537598
0.8137931227684021 0.3824411928653717 0.005928853526711464 0.6666666865348816 0.6431372761726379 0.5803921818733215
0.9810344576835632 0.4339175820350647 0.14505928754806519 0.7098039388656616 0.7058823704719543 0.6274510025978088
0.742118239402771 0.47291961312294006 0.24782608449459076 0.1764705926179886 0.18039216101169586 0.16078431904315948
0.7440886497497559 0.34012317657470703 0.18972331285476685 0.0784313753247261 0.0784313753247261 0.07058823853731155
0.9810344576835632 0.3298594653606415 0.2648221254348755 0.6980392336845398 0.6980392336845398 0.6509804129600525
0.9810344576835632 0.32370123267173767 0.08418972045183182 0.7254902124404907 0.7254902124404907 0.6941176652908325
0.9783251285552979 0.44070741534233093 0.7747035622596741 0.5529412031173706 0.5607843399047852 0.5490196347236633
0.8396551609039307 0.3617558777332306 0.9905138611793518 0.4000000059604645 0.38823530077934265 0.3607843220233917
0.9810344576835632 0.46691930294036865 0.19486166536808014 0.6901960968971252 0.6941176652908325 0.6235294342041016
0.9810344576835632 0.3699668347835541 0.06324110925197601 0.6784313917160034 0.6823529601097107 0.6196078658103943
0.9761083722114563 0.4508132040500641 0.4003952443599701 0.6549019813537598 0.6784313917160034 0.6784313917160034
0.7428571581840515 0.39507341384887695 0.14664031565189362 0.054901961237192154 0.054901961237192154 0.054901961237192154
0.9834975600242615 0.40960049629211426 0.9395256638526917 0.4156862795352936 0.3843137323856354 0.34117648005485535
0.9839901328086853 0.46423494815826416 0.9272727370262146 0.40784314274787903 0.3843137323856354 0.32156863808631897
0.8940886855125427 0.40596872568130493 0.005533596966415644 0.5411764979362488 0.5333333611488342 0.45098039507865906
0.7842364311218262 0.31738513708114624 0.9932806491851807 0.41960784792900085 0.40784314274787903 0.37254902720451355
0.9756157398223877 0.3619137704372406 0.507905125617981 0.6352941393852234 0.6666666865348816 0.6745098233222961
0.9837438464164734 0.36633506417274475 0.9359683990478516 0.43921568989753723 0.40784314274787903 0.35686275362968445
0.9773399233818054 0.4572872221469879 0.7035573124885559 0.5647059082984924 0.5686274766921997 0.545098066329956
0.8862069249153137 0.4111795425415039 0.005533596966415644 0.501960813999176 0.501960813999176 0.40784314274787903
0.7465517520904541 0.36301910877227783 0.22569170594215393 0.14901961386203766 0.15294118225574493 0.13333334028720856
0.9753694534301758 0.3884415030479431 0.573913037776947 0.6235294342041016 0.658823549747467 0.6392157077789307
0.8071428537368774 0.4304437041282654 0.0063241105526685715 0.49803921580314636 0.48235294222831726 0.3686274588108063
0.9554187059402466 0.3625454008579254 0.9881423115730286 0.35686275362968445 0.3294117748737335 0.29019609093666077
0.9748768210411072 0.4160745441913605 0.508695662021637 0.6274510025978088 0.6627451181411743 0.658823549747467
0.9763546586036682 0.4591820538043976 0.657312273979187 0.5686274766921997 0.5882353186607361 0.572549045085907
0.9763546586036682 0.3645981252193451 0.4166007936000824 0.6627451181411743 0.6784313917160034 0.7137255072593689
0.9386699795722961 0.3222801089286804 0.9889327883720398 0.3529411852359772 0.33725491166114807 0.3019607961177826
0.9770935773849487 0.3387020230293274 0.3604743182659149 0.7450980544090271 0.7607843279838562 0.772549033164978
0.9756157398223877 0.36680877208709717 0.5802371501922607 0.6274510025978088 0.6392157077789307 0.658823549747467
0.876600980758667 0.37801989912986755 0.9901185631752014 0.38823530077934265 0.3764705955982208 0.3490196168422699
0.7416256070137024 0.33507025241851807 0.22292490303516388 0.12941177189350128 0.12156862765550613 0.13333334028720856
0.7773398756980896 0.40675824880599976 0.9905138611793518 0.3843137323856354 0.3686274588108063 0.35686275362968445
0.8802955746650696 0.3655455410480499 0.9905138611793518 0.3803921639919281 0.3686274588108063 0.34117648005485535
0.9810344576835632 0.41781145334243774 0.11818181723356247 0.7058823704719543 0.7137255072593689 0.6274510025978088
0.8534482717514038 0.4276014566421509 0.9901185631752014 0.37254902720451355 0.3607843220233917 0.34117648005485535
0.7450739145278931 0.3846518099308014 0.14584980905056 0.05882352963089943 0.05882352963089943 0.05882352963089943
0.9834975600242615 0.4602873921394348 0.8640316128730774 0.4941176474094391 0.47058823704719543 0.40784314274787903
0.9768472909927368 0.36965101957321167 0.35098814964294434 0.7333333492279053 0.7647058963775635 0.772549033164978
0.9763546586036682 0.4446549713611603 0.656521737575531 0.5764706134796143 0.5843137502670288 0.5803921818733215
0.7472906112670898 0.437549352645874 0.3019762933254242 0.42352941632270813 0.4431372582912445 0.4588235318660736
0.9246305227279663 0.40912678837776184 0.9889327883720398 0.3607843220233917 0.3450980484485626 0.2980392277240753
0.81083744764328 0.33522817492485046 0.005928853526711464 0.572549045085907 0.5647059082984924 0.5058823823928833
0.9807881712913513 0.4735512435436249 0.291304349899292 0.5647059082984924 0.5647059082984924 0.4627451002597809
0.9753694534301758 0.4054950177669525 0.5683794617652893 0.6274510025978088 0.6509804129600525 0.6431372761726379
0.8889162540435791 0.3563871681690216 0.007509881630539894 0.615686297416687 0.6078431606292725 0.5490196347236633
0.7822660207748413 0.3617558777332306 0.0063241105526685715 0.572549045085907 0.5411764979362488 0.4901960790157318
0.9832512140274048 0.4602873921394348 0.842687726020813 0.5215686559677124 0.501960813999176 0.42352941632270813
0.7620689868927002 0.3450181484222412 0.0063241105526685715 0.2666666805744171 0.250980406999588 0.20392157137393951
0.9756157398223877 0.38007262349128723 0.4901185631752014 0.6352941393852234 0.6549019813537598 0.6666666865348816
0.7470443248748779 0.3481762111186981 0.27786561846733093 0.10588235408067703 0.10588235408067703 0.09803921729326248
0.8852216601371765 0.464866578578949 0.005928853526711464 0.5137255191802979 0.5254902243614197 0.4431372582912445
0.9832512140274048 0.40012630820274353 0.8581027388572693 0.529411792755127 0.49803921580314636 0.4156862795352936
0.9748768210411072 0.4280751645565033 0.5592885613441467 0.615686297416687 0.6392157077789307 0.6392157077789307
0.8724138140678406 0.4718143045902252 0.9897233247756958 0.20392157137393951 0.20392157137393951 0.16470588743686676
0.982758641242981 0.36349281668663025 0.8375493884086609 0.5803921818733215 0.5529412031173706 0.47843137383461
0.7519704699516296 0.39286279678344727 0.0063241105526685715 0.16862745583057404 0.1568627506494522 0.12156862765550613
0.7391625642776489 0.3854413330554962 0.2454545497894287 0.13333334028720856 0.13333334028720856 0.125490203499794
0.8472906351089478 0.4102321267127991 0.005928853526711464 0.5843137502670288 0.572549045085907 0.49803921580314636
0.9756157398223877 0.42128533124923706 0.5916996002197266 0.6078431606292725 0.6235294342041016 0.6196078658103943
0.9810344576835632 0.45239222049713135 0.14347825944423676 0.7019608020782471 0.7058823704719543 0.6352941393852234
0.8660098314285278 0.32070109248161316 0.991304337978363 0.4117647111415863 0.4000000059604645 0.364705890417099
0.9810344576835632 0.43818095326423645 0.15968379378318787 0.7098039388656616 0.7058823704719543 0.6274510025978088
0.9748768210411072 0.44970786571502686 0.5711462497711182 0.6039215922355652 0.6274510025978088 0.6274510025978088
0.8322660326957703 0.47276172041893005 0.9897233247756958 0.239215686917305 0.2235294133424759 0.18039216101169586
0.9834975600242615 0.45523449778556824 0.8648221492767334 0.4901960790157318 0.46666666865348816 0.40392157435417175
0.9815270900726318 0.3328596353530884 0.09486165642738342 0.7372549176216125 0.7372549176216125 0.6901960968971252
0.9775862097740173 0.42365387082099915 0.7221344113349915 0.5490196347236633 0.5764706134796143 0.545098066329956
0.9810344576835632 0.45207643508911133 0.11739130318164825 0.6980392336845398 0.7019608020782471 0.6313725709915161
0.9044334888458252 0.42918047308921814 0.9893280863761902 0.34117648005485535 0.3333333432674408 0.2862745225429535
0.9014778137207031 0.33222800493240356 0.007905138656497002 0.545098066329956 0.5490196347236633 0.47843137383461
0.7568965554237366 0.4400757849216461 0.28853756189346313 0.15294118225574493 0.15294118225574493 0.14509804546833038
0.9807881712913513 0.35259750485420227 0.2853755056858063 0.658823549747467 0.6627451181411743 0.5921568870544434
0.9751231670379639 0.43818095326423645 0.4747035503387451 0.6274510025978088 0.6509804129600525 0.6509804129600525
0.7667487859725952 0.41275855898857117 0.9905138611793518 0.40784314274787903 0.3921568691730499 0.3803921639919281
0.8519704341888428 0.40960049629211426 0.9901185631752014 0.4156862795352936 0.40392157435417175 0.3764705955982208
0.9837438464164734 0.4419706165790558 0.9098814129829407 0.4313725531101227 0.40784314274787903 0.3529411852359772
0.7674877047538757 0.4029685854911804 0.0063241105526685715 0.3764705955982208 0.3490196168422699 0.3176470696926117
0.7440886497497559 0.465024471282959 0.16482213139533997 0.13333334028720856 0.1411764770746231 0.13725490868091583
0.9748768210411072 0.40123164653778076 0.5241106748580933 0.6274510025978088 0.6627451181411743 0.6509804129600525
0.9780788421630859 0.38654667139053345 0.7403162121772766 0.5647059082984924 0.5882353186607361 0.572549045085907
0.9788177609443665 0.3612821698188782 0.7703557014465332 0.5803921818733215 0.5960784554481506 0.5921568870544434
0.7458128333091736 0.3415443003177643 0.17549407482147217 0.11372549086809158 0.11372549086809158 0.11372549086809158
0.742118239402771 0.3994947075843811 0.15019762516021729 0.09803921729326248 0.10196078568696976 0.10980392247438431
0.9536945819854736 0.37723037600517273 0.9881423115730286 0.32549020648002625 0.30980393290519714 0.26274511218070984
0.8458127975463867 0.4144954979419708 0.005928853526711464 0.5960784554481506 0.5921568870544434 0.5137255191802979
0.9763546586036682 0.42649611830711365 0.3707509934902191 0.7019608020782471 0.7333333492279053 0.7411764860153198
0.9714285731315613 0.37533554434776306 0.31897231936454773 0.5490196347236633 0.5411764979362488 0.4901960790157318
0.7416256070137024 0.47260382771492004 0.20395256578922272 0.08235294371843338 0.08235294371843338 0.07450980693101883
0.745320200920105 0.46091899275779724 0.24664030969142914 0.16470588743686676 0.16078431904315948 0.14509804546833038
0.8965517282485962 0.4201800227165222 0.005533596966415644 0.5254902243614197 0.5137255191802979 0.4470588266849518
0.9315270781517029 0.3398073613643646 0.008695651777088642 0.6313725709915161 0.6274510025978088 0.5490196347236633
0.9788177609443665 0.37470394372940063 0.7782608866691589 0.5568627715110779 0.5803921818733215 0.5647059082984924
0.9719212055206299 0.35528185963630676 0.9877470135688782 0.3019607961177826 0.29019609093666077 0.23137255012989044
0.9753694534301758 0.46676141023635864 0.01067193690687418 0.5333333611488342 0.5333333611488342 0.43921568989753723
0.738916277885437 0.37265118956565857 0.9924901127815247 0.3921568691730499 0.3960784375667572 0.37254902720451355
0.7480295300483704 0.3614400625228882 0.14466403424739838 0.11764705926179886 0.08627451211214066 0.0784313753247261
0.7955664992332458 0.39807358384132385 0.9905138611793518 0.3921568691730499 0.3764705955982208 0.364705890417099
0.9793103337287903 0.3617558777332306 0.2960474193096161 0.5647059082984924 0.5607843399047852 0.47843137383461
0.8660098314285278 0.3282804489135742 0.0071146246045827866 0.5647059082984924 0.5607843399047852 0.4901960790157318
0.9810344576835632 0.4422864317893982 0.1711462438106537 0.7098039388656616 0.7019608020782471 0.6509804129600525
0.7413793206214905 0.3396494686603546 0.006719367578625679 0.18039216101169586 0.18039216101169586 0.1411764770746231
0.9756157398223877 0.38070425391197205 0.47588932514190674 0.6352941393852234 0.6549019813537598 0.6666666865348816
0.9807881712913513 0.37233537435531616 0.26403161883354187 0.7019608020782471 0.7098039388656616 0.6549019813537598
0.8211822509765625 0.3562292754650116 0.005928853526711464 0.5960784554481506 0.5960784554481506 0.5568627715110779
0.8665024638175964 0.338228315114975 0.0071146246045827866 0.4901960790157318 0.501960813999176 0.43529412150382996
0.7918719053268433 0.41765356063842773 0.9901185631752014 0.3960784375667572 0.3803921639919281 0.3686274588108063
0.9812808036804199 0.37486183643341064 0.19604742527008057 0.7058823704719543 0.7137255072593689 0.6313725709915161
0.8401477932929993 0.40912678837776184 0.005928853526711464 0.5607843399047852 0.5529412031173706 0.47058823704719543
0.9751231670379639 0.4197063148021698 0.48142293095588684 0.6431372761726379 0.6666666865348816 0.6666666865348816
0.9758620858192444 0.33743882179260254 0.4897233247756958 0.6705882549285889 0.686274528503418 0.7215686440467834
0.8310344815254211 0.46155059337615967 0.9897233247756958 0.20000000298023224 0.1882352977991104 0.16862745583057404
0.9773399233818054 0.35828202962875366 0.6766798496246338 0.6117647290229797 0.6274510025978088 0.6313725709915161
0.7608374357223511 0.3592294454574585 0.30513834953308105 0.48235294222831726 0.5215686559677124 0.5254902243614197
0.9810344576835632 0.37865149974823 0.21739129722118378 0.7058823704719543 0.7176470756530762 0.6431372761726379
0.9807881712913513 0.4372335374355316 0.023320158943533897 0.2705882489681244 0.23529411852359772 0.1764705926179886
0.7630541920661926 0.4253908097743988 0.9901185631752014 0.3921568691730499 0.3764705955982208 0.364705890417099
0.8497536778450012 0.4084951877593994 0.005928853526711464 0.5921568870544434 0.572549045085907 0.4941176474094391
0.9832512140274048 0.327175110578537 0.8972331881523132 0.5176470875740051 0.48627451062202454 0.3960784375667572
0.934482753276825 0.46691930294036865 0.9893280863761902 0.33725491166114807 0.3294117748737335 0.2823529541492462
0.9832512140274048 0.46676141023635864 0.8332015872001648 0.5372549295425415 0.529411792755127 0.4313725531101227
0.796798050403595 0.32575398683547974 0.9928853511810303 0.4000000059604645 0.3843137323856354 0.3803921639919281
0.9763546586036682 0.3191220462322235 0.5889328122138977 0.6745098233222961 0.6941176652908325 0.7098039388656616
0.9022167325019836 0.3598610460758209 0.9901185631752014 0.3686274588108063 0.35686275362968445 0.32156863808631897
0.9832512140274048 0.3278067409992218 0.8830039501190186 0.5333333611488342 0.5098039507865906 0.42352941632270813
0.7458128333091736 0.3829149007797241 0.0063241105526685715 0.21568627655506134 0.20392157137393951 0.16862745583057404
0.756157636642456 0.46960365772247314 0.2766798436641693 0.12941177189350128 0.125490203499794 0.11764705926179886
0.940640389919281 0.39807358384132385 0.005928853526711464 0.49803921580314636 0.48627451062202454 0.41960784792900085
0.979556679725647 0.4512869119644165 0.2964426875114441 0.5607843399047852 0.5529412031173706 0.4941176474094391
0.8571428656578064 0.42918047308921814 0.005928853526711464 0.6509804129600525 0.6431372761726379 0.545098066329956
0.9763546586036682 0.3873361647129059 0.0063241105526685715 0.5137255191802979 0.48627451062202454 0.4117647111415863
0.9815270900726318 0.4143376052379608 0.06837944686412811 0.686274528503418 0.6941176652908325 0.6117647290229797
0.9770935773849487 0.36349281668663025 0.6699604988098145 0.6784313917160034 0.6980392336845398 0.7137255072593689
0.9123152494430542 0.4083372950553894 0.9893280863761902 0.3686274588108063 0.3529411852359772 0.30980393290519714
0.742118239402771 0.47323542833328247 0.2600790560245514 0.3529411852359772 0.3686274588108063 0.37254902720451355
0.9665024876594543 0.36333492398262024 0.9877470135688782 0.3176470696926117 0.3019607961177826 0.2549019753932953
0.7458128333091736 0.3503868579864502 0.22648221254348755 0.13725490868091583 0.13725490868091583 0.12941177189350128
0.9573891758918762 0.3189641535282135 0.00830039568245411 0.4901960790157318 0.46666666865348816 0.4117647111415863
0.8160098791122437 0.44607609510421753 0.9901185631752014 0.239215686917305 0.22745098173618317 0.20000000298023224
0.807881772518158 0.3821253776550293 0.005928853526711464 0.6000000238418579 0.5882353186607361 0.5137255191802979
0.9667487740516663 0.4688141345977783 0.0063241105526685715 0.5215686559677124 0.5215686559677124 0.4274509847164154
0.9770935773849487 0.4047055244445801 0.6920948624610901 0.5647059082984924 0.5882353186607361 0.5803921818733215
0.7465517520904541 0.4418127238750458 0.1826086938381195 0.09803921729326248 0.10588235408067703 0.10196078568696976
0.8177340030670166 0.3874940872192383 0.005928853526711464 0.5254902243614197 0.5176470875740051 0.43529412150382996
0.9825122952461243 0.34675508737564087 0.9873517751693726 0.3529411852359772 0.32156863808631897 0.27843138575553894
0.9807881712913513 0.3473867177963257 0.29328063130378723 0.5803921818733215 0.5764706134796143 0.49803921580314636
0.9817733764648438 0.35812410712242126 0.14466403424739838 0.7058823704719543 0.7137255072593689 0.6313725709915161
0.9756157398223877 0.448760449886322 0.42964425683021545 0.6431372761726379 0.6666666865348816 0.658823549747467
0.9793103337287903 0.38323068618774414 0.011067193932831287 0.37254902720451355 0.3450980484485626 0.2705882489681244
0.9785714149475098 0.37233537435531616 0.7652173638343811 0.5764706134796143 0.5921568870544434 0.5882353186607361
0.9157635569572449 0.4002842307090759 0.005928853526711464 0.5960784554481506 0.5921568870544434 0.48235294222831726
0.9179803133010864 0.4102321267127991 0.9893280863761902 0.3607843220233917 0.3450980484485626 0.3019607961177826
0.7460591197013855 0.36317700147628784 0.23715415596961975 0.1568627506494522 0.16078431904315948 0.13725490868091583
0.9763546586036682 0.4258645176887512 0.6588932871818542 0.5647059082984924 0.5803921818733215 0.5764706134796143
0.9812808036804199 0.4197063148021698 0.09011857956647873 0.6941176652908325 0.7019608020782471 0.6196078658103943
0.9780788421630859 0.3360176980495453 0.6996047496795654 0.6392157077789307 0.6392157077789307 0.6705882549285889
0.9763546586036682 0.39459970593452454 0.3944664001464844 0.6274510025978088 0.6745098233222961 0.658823549747467
0.9780788421630859 0.3884415030479431 0.29881423711776733 0.5607843399047852 0.5529412031173706 0.501960813999176
0.9832512140274048 0.3308068811893463 0.8841897249221802 0.529411792755127 0.5058823823928833 0.41960784792900085
0.7423645257949829 0.4107058346271515 0.9909090995788574 0.3803921639919281 0.3764705955982208 0.3607843220233917
0.9596059322357178 0.4102321267127991 0.005138339940458536 0.45490196347236633 0.4627451002597809 0.3686274588108063
0.7990148067474365 0.43186482787132263 0.9901185631752014 0.33725491166114807 0.3333333432674408 0.3176470696926117
0.7455664873123169 0.32591187953948975 0.14466403424739838 0.062745101749897 0.08627451211214066 0.07058823853731155
0.9807881712913513 0.3527553975582123 0.28893280029296875 0.6392157077789307 0.6470588445663452 0.5607843399047852
0.9775862097740173 0.351176381111145 0.3011857569217682 0.529411792755127 0.5254902243614197 0.4470588266849518
0.9807881712913513 0.41544291377067566 0.26245060563087463 0.729411780834198 0.729411780834198 0.6823529601097107
0.9834975600242615 0.3213326930999756 0.9209486246109009 0.4901960790157318 0.46666666865348816 0.3803921639919281
0.8322660326957703 0.46439287066459656 0.9897233247756958 0.23137255012989044 0.21960784494876862 0.1921568661928177
0.9768472909927368 0.35512396693229675 0.36245059967041016 0.7176470756530762 0.7529411911964417 0.7411764860153198
0.7820196747779846 0.356860876083374 0.0063241105526685715 0.41960784792900085 0.3960784375667572 0.3333333432674408
0.9766010046005249 0.42365387082099915 0.6592885255813599 0.5686274766921997 0.5843137502670288 0.5803921818733215
0.9810344576835632 0.39175745844841003 0.17035573720932007 0.7176470756530762 0.7254902124404907 0.6392157077789307
0.9837438464164734 0.42965418100357056 0.9292489886283875 0.41960784792900085 0.38823530077934265 0.3450980484485626
0.8081280589103699 0.40960049629211426 0.9901185631752014 0.3843137323856354 0.3686274588108063 0.35686275362968445
0.9768472909927368 0.43881258368492126 0.6814229488372803 0.5647059082984924 0.5647059082984924 0.5568627715110779
0.9130541682243347 0.40154746174812317 0.005928853526711464 0.5411764979362488 0.5333333611488342 0.43529412150382996
0.9714285731315613 0.419232577085495 0.3177865743637085 0.5372549295425415 0.5411764979362488 0.47843137383461
0.8948276042938232 0.40312647819519043 0.005928853526711464 0.6000000238418579 0.615686297416687 0.5254902243614197
0.9593595862388611 0.418916791677475 0.9881423115730286 0.32156863808631897 0.2980392277240753 0.250980406999588
0.8869457840919495 0.38670456409454346 0.9901185631752014 0.4000000059604645 0.38823530077934265 0.3607843220233917
0.9830049276351929 0.38986262679100037 0.8383399248123169 0.5529412031173706 0.529411792755127 0.43529412150382996
0.9394088387489319 0.3854413330554962 0.9885375499725342 0.3607843220233917 0.3529411852359772 0.3019607961177826
0.982758641242981 0.3213326930999756 0.8482213616371155 0.5882353186607361 0.5686274766921997 0.4941176474094391
0.9815270900726318 0.34975525736808777 0.18498024344444275 0.7137255072593689 0.7215686440467834 0.6392157077789307
0.9810344576835632 0.4424443244934082 0.1094861626625061 0.7058823704719543 0.7098039388656616 0.6392157077789307
0.9416255950927734 0.42128533124923706 0.005533596966415644 0.4941176474094391 0.49803921580314636 0.4274509847164154
0.9790640473365784 0.43770724534988403 0.7885375618934631 0.5529412031173706 0.5568627715110779 0.5372549295425415
0.9775862097740173 0.4217590391635895 0.7343873381614685 0.5490196347236633 0.5764706134796143 0.5490196347236633
0.9812808036804199 0.4258645176887512 0.08102767169475555 0.6941176652908325 0.7098039388656616 0.6196078658103943
0.7785714268684387 0.46391916275024414 0.0071146246045827866 0.5137255191802979 0.5058823823928833 0.4156862795352936
0.9751231670379639 0.44165483117103577 0.5837944746017456 0.6000000238418579 0.6235294342041016 0.6235294342041016
0.7440886497497559 0.3960208296775818 0.1462450623512268 0.054901961237192154 0.054901961237192154 0.062745101749897
0.9701970219612122 0.32906994223594666 0.9877470135688782 0.32549020648002625 0.30980393290519714 0.2666666805744171
0.9165024757385254 0.4053371250629425 0.9893280863761902 0.3137255012989044 0.2980392277240753 0.26274511218070984
0.8965517282485962 0.41291648149490356 0.9897233247756958 0.3803921639919281 0.364705890417099 0.3294117748737335
0.7812808156013489 0.4508132040500641 0.9901185631752014 0.24705882370471954 0.23529411852359772 0.2078431397676468
0.9815270900726318 0.37501972913742065 0.0731225311756134 0.6941176652908325 0.686274528503418 0.6274510025978088
0.9780788421630859 0.43281224370002747 0.7628458738327026 0.5568627715110779 0.5607843399047852 0.5372549295425415
0.8507389426231384 0.351018488407135 0.9909090995788574 0.3921568691730499 0.3803921639919281 0.3529411852359772
0.9768472909927368 0.40154746174812317 0.6778656244277954 0.5764706134796143 0.6000000238418579 0.6000000238418579
0.9790640473365784 0.36870360374450684 0.009486165829002857 0.38823530077934265 0.3607843220233917 0.2980392277240753
0.9810344576835632 0.45886626839637756 0.08458498120307922 0.6823529601097107 0.7137255072593689 0.6196078658103943
0.7458128333091736 0.34628137946128845 0.25335967540740967 0.11764705926179886 0.11764705926179886 0.10980392247438431
0.9758620858192444 0.44670772552490234 0.41818180680274963 0.6549019813537598 0.6745098233222961 0.686274528503418
0.9837438464164734 0.44354966282844543 0.9146245121955872 0.4274509847164154 0.40392157435417175 0.3490196168422699
0.8805418610572815 0.4571293294429779 0.9897233247756958 0.2078431397676468 0.2078431397676468 0.16862745583057404
0.9800492525100708 0.3742302358150482 0.03162055462598801 0.30588236451148987 0.2705882489681244 0.21176470816135406
0.7445812821388245 0.37470394372940063 0.27351778745651245 0.1921568661928177 0.20000000298023224 0.1882352977991104
0.7793103456497192 0.34896573424339294 0.005928853526711464 0.41960784792900085 0.38823530077934265 0.3450980484485626
0.9812808036804199 0.3709142506122589 0.1826086938381195 0.7058823704719543 0.7215686440467834 0.6313725709915161
0.9768472909927368 0.3699668347835541 0.3758893311023712 0.6705882549285889 0.7098039388656616 0.7137255072593689
0.9748768210411072 0.4448128938674927 0.49683794379234314 0.6196078658103943 0.6431372761726379 0.6431372761726379
0.7817733883857727 0.3813358545303345 0.991304337978363 0.35686275362968445 0.3607843220233917 0.3294117748737335
0.9805418848991394 0.3829149007797241 0.04110671952366829 0.29411765933036804 0.2666666805744171 0.1921568661928177
0.9832512140274048 0.3827569782733917 0.8628458380699158 0.5098039507865906 0.4901960790157318 0.4117647111415863
0.8357142806053162 0.35196590423583984 0.0063241105526685715 0.5882353186607361 0.5882353186607361 0.5490196347236633
0.9815270900726318 0.34059688448905945 0.09090909361839294 0.7137255072593689 0.7176470756530762 0.6627451181411743
0.9817733764648438 0.32591187953948975 0.18972331285476685 0.7176470756530762 0.7098039388656616 0.658823549747467
0.9834975600242615 0.37833571434020996 0.9778656363487244 0.35686275362968445 0.3333333432674408 0.27843138575553894
0.8216748833656311 0.35528185963630676 0.005928853526711464 0.5490196347236633 0.5333333611488342 0.49803921580314636
0.74064040184021 0.44433918595314026 0.2284584939479828 0.15294118225574493 0.15294118225574493 0.14509804546833038
0.7871921062469482 0.45949786901474 0.9897233247756958 0.2078431397676468 0.19607843458652496 0.16078431904315948
0.8620689511299133 0.34864991903305054 0.9905138611793518 0.38823530077934265 0.3764705955982208 0.34117648005485535
0.9751231670379639 0.3707563579082489 0.5395256876945496 0.6313725709915161 0.6666666865348816 0.6627451181411743
0.9768472909927368 0.32385915517807007 0.34584981203079224 0.7568627595901489 0.772549033164978 0.8078431487083435
0.9748768210411072 0.44418126344680786 0.5671936869621277 0.6039215922355652 0.6274510025978088 0.6196078658103943
0.898522138595581 0.46439287066459656 0.005928853526711464 0.5058823823928833 0.5058823823928833 0.3960784375667572
0.9763546586036682 0.4400757849216461 0.6494070887565613 0.5882353186607361 0.5882353186607361 0.5803921818733215
0.9807881712913513 0.40044212341308594 0.2592885494232178 0.7215686440467834 0.7333333492279053 0.6666666865348816
0.9800492525100708 0.4110216200351715 0.011067193932831287 0.35686275362968445 0.32549020648002625 0.250980406999588
0.8416256308555603 0.35796621441841125 0.9909090995788574 0.4000000059604645 0.38823530077934265 0.3686274588108063
0.8022167682647705 0.3274909257888794 0.005928853526711464 0.4901960790157318 0.5372549295425415 0.4588235318660736
0.9773399233818054 0.32338544726371765 0.6588932871818542 0.6431372761726379 0.6549019813537598 0.6901960968971252
0.9778324961662292 0.3874940872192383 0.7347826361656189 0.5803921818733215 0.6000000238418579 0.5843137502670288
0.9758620858192444 0.43833884596824646 0.625296413898468 0.5921568870544434 0.5921568870544434 0.5843137502670288
0.9812808036804199 0.36886152625083923 0.1822134405374527 0.7058823704719543 0.7137255072593689 0.6274510025978088
0.9763546586036682 0.4132322669029236 0.37193676829338074 0.686274528503418 0.7215686440467834 0.7176470756530762
0.9834975600242615 0.34343913197517395 0.9158102869987488 0.4745098054409027 0.45490196347236633 0.3764705955982208
0.7847290635108948 0.3364914059638977 0.005928853526711464 0.47058823704719543 0.4588235318660736 0.3921568691730499
0.9807881712913513 0.4170219600200653 0.2553359568119049 0.7333333492279053 0.7372549176216125 0.6823529601097107
0.7886699438095093 0.3192799687385559 0.9932806491851807 0.4000000059604645 0.3803921639919281 0.35686275362968445
0.9807881712913513 0.4392862915992737 0.20158103108406067 0.7098039388656616 0.7058823704719543 0.6352941393852234
0.865517258644104 0.44402337074279785 0.9897233247756958 0.250980406999588 0.24313725531101227 0.19607843458652496
0.9125615954399109 0.45286592841148376 0.005928853526711464 0.6235294342041016 0.6196078658103943 0.5098039507865906
0.9832512140274048 0.3614400625228882 0.8691699504852295 0.5176470875740051 0.49803921580314636 0.41960784792900085
0.9307881593704224 0.46076110005378723 0.9893280863761902 0.3450980484485626 0.3294117748737335 0.2823529541492462
0.9766010046005249 0.36965101957321167 0.37826088070869446 0.6705882549285889 0.7098039388656616 0.7176470756530762
0.9834975600242615 0.3993368148803711 0.8790513873100281 0.48235294222831726 0.4627451002597809 0.38823530077934265
0.9820197224617004 0.3211748003959656 0.11225296556949615 0.7137255072593689 0.7058823704719543 0.6549019813537598
0.9810344576835632 0.45555028319358826 0.16403162479400635 0.7019608020782471 0.6980392336845398 0.6196078658103943
0.9147783517837524 0.40075793862342834 0.005928853526711464 0.5764706134796143 0.572549045085907 0.4627451002597809
0.746798038482666 0.3448602557182312 0.17075099050998688 0.11764705926179886 0.125490203499794 0.12156862765550613
0.757881760597229 0.4564976990222931 0.007509881630539894 0.3490196168422699 0.32549020648002625 0.2705882489681244
0.9761083722114563 0.33159640431404114 0.47747036814689636 0.6784313917160034 0.6941176652908325 0.729411780834198
0.7396551966667175 0.3197536766529083 0.007509881630539894 0.19607843458652496 0.18431372940540314 0.14901961386203766
0.7970443367958069 0.3680720031261444 0.005928853526711464 0.4627451002597809 0.45490196347236633 0.37254902720451355
0.7711822390556335 0.46644559502601624 0.007509881630539894 0.34117648005485535 0.3294117748737335 0.2705882489681244
0.7455664873123169 0.3930206894874573 0.16324110329151154 0.09803921729326248 0.09803921729326248 0.09019608050584793
0.9766010046005249 0.43202275037765503 0.6687747240066528 0.5529412031173706 0.5803921818733215 0.5490196347236633
0.8667487502098083 0.3540186285972595 0.9905138611793518 0.40392157435417175 0.3921568691730499 0.364705890417099
0.9763546586036682 0.4476551413536072 0.6541501879692078 0.5764706134796143 0.5843137502670288 0.572549045085907
0.9810344576835632 0.4571293294429779 0.18577075004577637 0.6980392336845398 0.7058823704719543 0.6235294342041016
0.9753694534301758 0.45823463797569275 0.5948616862297058 0.5960784554481506 0.615686297416687 0.6274510025978088
0.9812808036804199 0.3339649438858032 0.24189724028110504 0.7098039388656616 0.7098039388656616 0.6627451181411743
0.9766010046005249 0.42381179332733154 0.35098814964294434 0.7215686440467834 0.7607843279838562 0.7647058963775635
0.9807881712913513 0.4448128938674927 0.19130434095859528 0.7098039388656616 0.7058823704719543 0.6352941393852234
0.9751231670379639 0.3900205194950104 0.5466403365135193 0.6235294342041016 0.658823549747467 0.6549019813537598
0.9763546586036682 0.3383862376213074 0.6102766990661621 0.6392157077789307 0.6509804129600525 0.6784313917160034
0.979556679725647 0.33254382014274597 0.7810276746749878 0.5882353186607361 0.6039215922355652 0.6078431606292725
0.9719212055206299 0.37138795852661133 0.32608696818351746 0.38823530077934265 0.3803921639919281 0.32156863808631897
0.7413793206214905 0.3657034635543823 0.9924901127815247 0.4117647111415863 0.3960784375667572 0.3921568691730499
0.8054187297821045 0.43470707535743713 0.9901185631752014 0.3294117748737335 0.3176470696926117 0.29019609093666077
0.9125615954399109 0.31754302978515625 0.9897233247756958 0.3960784375667572 0.3803921639919281 0.33725491166114807
0.8633005023002625 0.39854729175567627 0.9901185631752014 0.4000000059604645 0.38823530077934265 0.3686274588108063
0.9832512140274048 0.46091899275779724 0.843478262424469 0.5215686559677124 0.501960813999176 0.42352941632270813
0.761083722114563 0.3390178382396698 0.0063241105526685715 0.3529411852359772 0.33725491166114807 0.29019609093666077
0.9810344576835632 0.3306489884853363 0.27865612506866455 0.6980392336845398 0.6901960968971252 0.6431372761726379
0.8073891401290894 0.413390189409256 0.9901185631752014 0.38823530077934265 0.3843137323856354 0.3686274588108063
0.9751231670379639 0.3942839205265045 0.34150198101997375 0.6392157077789307 0.6784313917160034 0.6470588445663452
0.7470443248748779 0.36365070939064026 0.2035573124885559 0.16078431904315948 0.16078431904315948 0.15294118225574493
0.982758641242981 0.3483341336250305 0.8387351632118225 0.5843137502670288 0.5607843399047852 0.49803921580314636
0.9837438464164734 0.34549185633659363 0.9822134375572205 0.3607843220233917 0.33725491166114807 0.29019609093666077
0.9768472909927368 0.3672824800014496 0.36640316247940063 0.6901960968971252 0.7254902124404907 0.7215686440467834
0.8785714507102966 0.3477025032043457 0.9905138611793518 0.38823530077934265 0.37254902720451355 0.33725491166114807
0.9761083722114563 0.4130743741989136 0.6335968375205994 0.5882353186607361 0.6078431606292725 0.6196078658103943
0.8635467886924744 0.43518081307411194 0.005928853526711464 0.5490196347236633 0.5411764979362488 0.45098039507865906
0.9334975481033325 0.32859623432159424 0.9889327883720398 0.3686274588108063 0.3529411852359772 0.30980393290519714
0.94852215051651 0.33175429701805115 0.008695651777088642 0.6549019813537598 0.6549019813537598 0.615686297416687
0.9822660088539124 0.32101690769195557 0.14268775284290314 0.7176470756530762 0.729411780834198 0.6627451181411743
