0.198029562830925 0.1179535761475563 0.9909090995788574 0.35686275362968445 0.34117648005485535 0.29411765933036804
0.2694581151008606 0.2098531574010849 0.006719367578625679 0.5882353186607361 0.5882353186607361 0.4941176474094391
0.14014779031276703 0.18537817895412445 0.9901185631752014 0.3960784375667572 0.3960784375667572 0.364705890417099
0.15270936489105225 0.1864835023880005 0.9901185631752014 0.3921568691730499 0.3803921639919281 0.3450980484485626
0.24827586114406586 0.08432022482156754 0.9905138611793518 0.2666666805744171 0.250980406999588 0.21568627655506134
0.13768473267555237 0.15979787707328796 0.9905138611793518 0.3490196168422699 0.33725491166114807 0.30980393290519714
0.2940886616706848 0.1664298176765442 0.0063241105526685715 0.5411764979362488 0.545098066329956 0.48235294222831726
0.15197044610977173 0.09995263069868088 0.9909090995788574 0.3764705955982208 0.3529411852359772 0.30588236451148987
0.34433498978614807 0.12190115451812744 0.0063241105526685715 0.6470588445663452 0.658823549747467 0.5921568870544434
0.3603448271751404 0.21616926789283752 0.9889327883720398 0.29019609093666077 0.27450981736183167 0.26274511218070984
0.3206896483898163 0.17164061963558197 0.0063241105526685715 0.6117647290229797 0.6274510025978088 0.5607843399047852
0.3179802894592285 0.21995894610881805 0.0063241105526685715 0.4000000059604645 0.38823530077934265 0.3529411852359772
0.2854679822921753 0.21695879101753235 0.006719367578625679 0.5137255191802979 0.4941176474094391 0.40784314274787903
0.35517242550849915 0.13958629965782166 0.9905138611793518 0.30588236451148987 0.2862745225429535 0.26274511218070984
0.1669950783252716 0.21111637353897095 0.992094874382019 1.0 1.0 1.0
0.17980295419692993 0.21127428114414215 0.992094874382019 0.9764705896377563 0.9921568632125854 0.9960784316062927
0.33078816533088684 0.10232117772102356 0.0071146246045827866 0.5607843399047852 0.5686274766921997 0.5254902243614197
0.230049267411232 0.17085109651088715 0.9972332119941711 0.9647058844566345 0.9803921580314636 0.9921568632125854
0.368719220161438 0.16011369228363037 0.9901185631752014 0.2980392277240753 0.2862745225429535 0.2666666805744171
0.24876847863197327 0.23322279751300812 0.006719367578625679 0.35686275362968445 0.364705890417099 0.27843138575553894
0.2864531874656677 0.11921679973602295 0.006719367578625679 0.6235294342041016 0.6352941393852234 0.5686274766921997
0.3327586352825165 0.1353229135274887 0.005928853526711464 0.7058823704719543 0.6980392336845398 0.6392157077789307
0.32315272092819214 0.0890573188662529 0.007509881630539894 0.7176470756530762 0.7019608020782471 0.658823549747467
0.16477832198143005 0.15427127480506897 0.9940711259841919 0.9215686321258545 0.9529411792755127 0.9607843160629272
0.17315271496772766 0.16579820215702057 0.0071146246045827866 0.48627451062202454 0.4941176474094391 0.4117647111415863
0.1822660118341446 0.1147955134510994 0.9909090995788574 0.34117648005485535 0.3333333432674408 0.27450981736183167
0.19334974884986877 0.22801199555397034 0.9909090995788574 0.9686274528503418 0.9803921580314636 1.0
0.1472906470298767 0.09174167364835739 0.00830039568245411 0.5254902243614197 0.5215686559677124 0.45098039507865906
0.14926108717918396 0.15158692002296448 0.0071146246045827866 0.4470588266849518 0.45098039507865906 0.3803921639919281
0.2620689570903778 0.11305858194828033 0.0071146246045827866 0.6627451181411743 0.6509804129600525 0.5921568870544434
0.25591132044792175 0.22027474641799927 0.9932806491851807 0.9529411792755127 0.9647058844566345 0.9843137264251709
0.3463054299354553 0.17937786877155304 0.9897233247756958 0.3019607961177826 0.29019609093666077 0.2705882489681244
0.2729063928127289 0.2272224873304367 0.26719367504119873 0.062745101749897 0.07058823853731155 0.06666667014360428
0.18103447556495667 0.12126953899860382 0.9909090995788574 0.33725491166114807 0.3294117748737335 0.2705882489681244
0.3482758700847626 0.11905889958143234 0.0063241105526685715 0.6470588445663452 0.6235294342041016 0.5764706134796143
0.31108373403549194 0.11132165044546127 0.9901185631752014 0.27843138575553894 0.25882354378700256 0.23529411852359772
0.24729064106941223 0.09032054245471954 0.9905138611793518 0.2823529541492462 0.2666666805744171 0.23137255012989044
0.3334975242614746 0.19706299901008606 0.9893280863761902 0.32549020648002625 0.3137255012989044 0.29411765933036804
0.22684729099273682 0.20290541648864746 0.9940711259841919 0.9686274528503418 0.9803921580314636 1.0
0.2665024697780609 0.15332385897636414 0.999209463596344 0.8352941274642944 0.8470588326454163 0.8666666746139526
0.2625615894794464 0.10437391698360443 0.0071146246045827866 0.5098039507865906 0.5215686559677124 0.45490196347236633
0.2625615894794464 0.143375962972641 0.005928853526711464 0.5686274766921997 0.5764706134796143 0.5254902243614197
0.286699503660202 0.10026843845844269 0.007509881630539894 0.5686274766921997 0.572549045085907 0.5176470875740051
0.18177339434623718 0.20558977127075195 0.9928853511810303 0.9843137264251709 1.0 1.0
0.32266008853912354 0.11984841525554657 0.9901185631752014 0.32156863808631897 0.29411765933036804 0.2705882489681244
0.2746305465698242 0.2330649048089981 0.2664031684398651 0.10980392247438431 0.10980392247438431 0.11764705926179886
0.29113301634788513 0.2093794345855713 0.0063241105526685715 0.572549045085907 0.5803921818733215 0.49803921580314636
0.314039409160614 0.11321648210287094 0.006719367578625679 0.5921568870544434 0.5960784554481506 0.572549045085907
0.2573891580104828 0.14148113131523132 0.005928853526711464 0.6627451181411743 0.658823549747467 0.5803921818733215
0.3283251225948334 0.23069635033607483 0.9885375499725342 0.3607843220233917 0.35686275362968445 0.34117648005485535
0.33990147709846497 0.08826780319213867 0.9897233247756958 0.26274511218070984 0.23529411852359772 0.19607843458652496
0.205911323428154 0.2008526772260666 0.9936758875846863 0.9647058844566345 0.9764705896377563 0.9960784316062927
0.22142857313156128 0.22027474641799927 0.0071146246045827866 0.529411792755127 0.5254902243614197 0.4431372582912445
0.34261083602905273 0.11984841525554657 0.9901185631752014 0.30980393290519714 0.29019609093666077 0.2666666805744171
0.1982758641242981 0.11747986823320389 0.9909090995788574 0.3607843220233917 0.3450980484485626 0.2980392277240753
0.29975369572639465 0.09379441291093826 0.007509881630539894 0.5333333611488342 0.5254902243614197 0.47843137383461
0.12807881832122803 0.10405810922384262 0.008695651777088642 0.49803921580314636 0.4901960790157318 0.4313725531101227
0.17758621275424957 0.1665877103805542 0.9964426755905151 0.9647058844566345 0.9843137264251709 1.0
0.1748768538236618 0.18443076312541962 0.9944664239883423 0.9333333373069763 0.9607843160629272 0.9843137264251709
0.14187191426753998 0.11747986823320389 0.00830039568245411 0.47058823704719543 0.4627451002597809 0.4117647111415863
0.3288177251815796 0.22627507150173187 0.29486167430877686 0.5882353186607361 0.6274510025978088 0.6313725709915161
0.30000001192092896 0.13990209996700287 0.9909090995788574 0.32156863808631897 0.30588236451148987 0.29411765933036804
0.27142858505249023 0.22753828763961792 0.23003952205181122 0.04313725605607033 0.04313725605607033 0.05098039284348488
0.1709359586238861 0.15663982927799225 0.006719367578625679 0.6117647290229797 0.6313725709915161 0.545098066329956
0.2928571403026581 0.14511290192604065 0.005928853526711464 0.6000000238418579 0.5921568870544434 0.5333333611488342
0.170689657330513 0.12995420396327972 0.0071146246045827866 0.6117647290229797 0.6196078658103943 0.5647059082984924
0.12339901179075241 0.11558502912521362 0.008695651777088642 0.4588235318660736 0.4470588266849518 0.4117647111415863
0.190640389919281 0.11905889958143234 0.9909090995788574 0.3490196168422699 0.33725491166114807 0.27843138575553894
0.29975369572639465 0.0860571637749672 0.9901185631752014 0.2862745225429535 0.25882354378700256 0.22745098173618317
0.16600985825061798 0.12853308022022247 0.9909090995788574 0.32156863808631897 0.30980393290519714 0.24313725531101227
0.18866994976997375 0.14700773358345032 0.9932806491851807 0.7058823704719543 0.7098039388656616 0.7176470756530762
0.29532018303871155 0.11037422716617584 0.0071146246045827866 0.6352941393852234 0.6392157077789307 0.5843137502670288
0.19261083006858826 0.1839570552110672 0.9948616623878479 0.9372549057006836 0.95686274766922 0.9686274528503418
0.30394089221954346 0.13627032935619354 0.9905138611793518 0.3607843220233917 0.34117648005485535 0.32549020648002625
0.21650245785713196 0.08495184034109116 0.9905138611793518 0.27843138575553894 0.250980406999588 0.21960784494876862
0.35862070322036743 0.1665877103805542 0.9901185631752014 0.32549020648002625 0.3137255012989044 0.27843138575553894
0.12586206197738647 0.1954839676618576 0.007905138656497002 0.47058823704719543 0.46666666865348816 0.3960784375667572
0.27660098671913147 0.23180167376995087 0.26205533742904663 0.09019608050584793 0.0941176488995552 0.10196078568696976
0.22832512855529785 0.10421600937843323 0.006719367578625679 0.6313725709915161 0.6235294342041016 0.572549045085907
0.16748768091201782 0.13279646635055542 0.9909090995788574 0.3176470696926117 0.30588236451148987 0.239215686917305
0.286699503660202 0.19058898091316223 0.0063241105526685715 0.5372549295425415 0.5490196347236633 0.48235294222831726
0.3650246262550354 0.08100426197052002 0.9893280863761902 0.3686274588108063 0.3333333432674408 0.2980392277240753
0.14556650817394257 0.09426812082529068 0.9909090995788574 0.35686275362968445 0.34117648005485535 0.2980392277240753
0.2544334828853607 0.23448602855205536 0.26166006922721863 0.12941177189350128 0.12941177189350128 0.12941177189350128
0.26748767495155334 0.22548554837703705 0.9928853511810303 0.9607843160629272 0.9647058844566345 0.9803921580314636
0.3263546824455261 0.10168956220149994 0.0071146246045827866 0.5568627715110779 0.5490196347236633 0.501960813999176
0.1827586144208908 0.20243170857429504 0.9928853511810303 0.9764705896377563 1.0 1.0
0.30024629831314087 0.15979787707328796 0.9940711259841919 0.3764705955982208 0.3607843220233917 0.35686275362968445
0.18891625106334686 0.21332702040672302 0.007509881630539894 0.49803921580314636 0.48627451062202454 0.4274509847164154
0.33965516090393066 0.1348492056131363 0.005928853526711464 0.6509804129600525 0.6549019813537598 0.6000000238418579
0.1307881772518158 0.08574135601520538 0.008695651777088642 0.5411764979362488 0.5215686559677124 0.4431372582912445
0.26798030734062195 0.143375962972641 0.9909090995788574 0.3490196168422699 0.3450980484485626 0.3294117748737335
0.12783251702785492 0.17621980607509613 0.9901185631752014 0.3764705955982208 0.364705890417099 0.3294117748737335
0.24113300442695618 0.15711353719234467 0.9988142251968384 0.9058823585510254 0.9215686321258545 0.9333333373069763
0.35541871190071106 0.20480024814605713 0.0063241105526685715 0.5058823823928833 0.501960813999176 0.3921568691730499
0.24482758343219757 0.1605874001979828 0.0063241105526685715 0.5803921818733215 0.5803921818733215 0.48627451062202454
0.317241370677948 0.1236380860209465 0.9905138611793518 0.33725491166114807 0.30980393290519714 0.2862745225429535
0.19507388770580292 0.224222332239151 0.991304337978363 0.95686274766922 0.9686274528503418 0.9960784316062927
0.28325122594833374 0.15348176658153534 0.999209463596344 1.0 1.0 1.0
0.29064038395881653 0.14179693162441254 0.9909090995788574 0.364705890417099 0.3450980484485626 0.3333333432674408
0.3182266056537628 0.20069476962089539 0.0063241105526685715 0.529411792755127 0.5254902243614197 0.4470588266849518
0.35467979311943054 0.09663666784763336 0.0071146246045827866 0.6078431606292725 0.615686297416687 0.5647059082984924
0.12931033968925476 0.16595610976219177 0.007905138656497002 0.545098066329956 0.545098066329956 0.45098039507865906
0.15246304869651794 0.20590557157993317 0.007509881630539894 0.5882353186607361 0.5882353186607361 0.5411764979362488
0.24088670313358307 0.17653560638427734 0.0063241105526685715 0.529411792755127 0.5490196347236633 0.4588235318660736
0.2571428716182709 0.11337438970804214 0.9901185631752014 0.34117648005485535 0.3137255012989044 0.27450981736183167
0.29064038395881653 0.22248539328575134 0.9928853511810303 1.0 1.0 1.0
0.143349751830101 0.0975840836763382 0.00830039568245411 0.46666666865348816 0.47058823704719543 0.4156862795352936
0.17684729397296906 0.15442918241024017 0.006719367578625679 0.6901960968971252 0.7019608020782471 0.6352941393852234
0.14014779031276703 0.178272545337677 0.007509881630539894 0.5215686559677124 0.529411792755127 0.4431372582912445
0.16527093946933746 0.23417021334171295 0.007509881630539894 0.4901960790157318 0.48235294222831726 0.42352941632270813
0.2504926025867462 0.17937786877155304 0.9968379735946655 0.95686274766922 0.9686274528503418 0.9882352948188782
0.25295567512512207 0.1032685935497284 0.9901185631752014 0.33725491166114807 0.30980393290519714 0.2705882489681244
0.25246304273605347 0.17385125160217285 0.9976284503936768 0.9529411792755127 0.9647058844566345 0.9843137264251709
0.33990147709846497 0.0920574739575386 0.007509881630539894 0.5411764979362488 0.5411764979362488 0.4941176474094391
0.25615763664245605 0.22501184046268463 0.1664031594991684 0.14901961386203766 0.1568627506494522 0.15294118225574493
0.13251231610774994 0.1807989925146103 0.9901185631752014 0.35686275362968445 0.3490196168422699 0.3019607961177826
0.1231527104973793 0.08937312662601471 0.1881422996520996 0.1764705926179886 0.18431372940540314 0.18039216101169586
0.2746305465698242 0.23132796585559845 0.19011858105659485 0.06666667014360428 0.07450980693101883 0.062745101749897
0.2733990252017975 0.22753828763961792 0.006719367578625679 0.4274509847164154 0.43529412150382996 0.3529411852359772
0.21699507534503937 0.18885204195976257 0.006719367578625679 0.49803921580314636 0.5098039507865906 0.43529412150382996
0.33472907543182373 0.22753828763961792 0.29525691270828247 0.5882353186607361 0.6235294342041016 0.6117647290229797
0.20418719947338104 0.15348176658153534 0.9948616623878479 0.8980392217636108 0.8941176533699036 0.9254902005195618
0.2704433500766754 0.21316911280155182 0.006719367578625679 0.5137255191802979 0.5137255191802979 0.41960784792900085
0.3288177251815796 0.23622295260429382 0.9885375499725342 0.3607843220233917 0.3529411852359772 0.35686275362968445
0.14556650817394257 0.08953102678060532 0.9909090995788574 0.3607843220233917 0.32549020648002625 0.29019609093666077
0.23940886557102203 0.1261645406484604 0.9905138611793518 0.33725491166114807 0.32156863808631897 0.27843138575553894
0.15738916397094727 0.19469445943832397 0.007509881630539894 0.5647059082984924 0.5803921818733215 0.5254902243614197
0.2864531874656677 0.21474814414978027 0.9936758875846863 1.0 1.0 1.0
0.12512315809726715 0.08416232466697693 0.008695651777088642 0.4901960790157318 0.48235294222831726 0.4000000059604645
0.2896551787853241 0.15174482762813568 0.9972332119941711 1.0 0.9960784316062927 1.0
0.30418717861175537 0.2324332892894745 0.1719367653131485 0.16470588743686676 0.18039216101169586 0.1764705926179886
0.25295567512512207 0.10879520326852798 0.9901185631752014 0.32156863808631897 0.29411765933036804 0.2549019753932953
0.1748768538236618 0.14795514941215515 0.006719367578625679 0.5882353186607361 0.5921568870544434 0.529411792755127
0.24458128213882446 0.09853149950504303 0.0071146246045827866 0.5686274766921997 0.5686274766921997 0.5215686559677124
0.35123151540756226 0.16816674172878265 0.9901185631752014 0.3137255012989044 0.3019607961177826 0.27450981736183167
0.15000000596046448 0.21964314579963684 0.9897233247756958 0.3607843220233917 0.37254902720451355 0.33725491166114807
0.36379310488700867 0.16579820215702057 0.9901185631752014 0.32549020648002625 0.3137255012989044 0.2862745225429535
0.3692118227481842 0.12695404887199402 0.9901185631752014 0.33725491166114807 0.30980393290519714 0.2705882489681244
0.13669951260089874 0.08005684614181519 0.18853755295276642 0.21176470816135406 0.22745098173618317 0.2235294133424759
0.23965516686439514 0.15885046124458313 0.0063241105526685715 0.5568627715110779 0.5647059082984924 0.48235294222831726
0.25246304273605347 0.23038055002689362 0.15335968136787415 0.11764705926179886 0.11764705926179886 0.11764705926179886
0.3105911314487457 0.13042791187763214 0.9905138611793518 0.32156863808631897 0.3019607961177826 0.27843138575553894
0.31551724672317505 0.1206379309296608 0.0063241105526685715 0.6000000238418579 0.6039215922355652 0.5411764979362488
0.12339901179075241 0.14132322371006012 0.007905138656497002 0.5803921818733215 0.5843137502670288 0.5215686559677124
0.20123152434825897 0.19137848913669586 0.9944664239883423 0.9607843160629272 0.9725490212440491 0.9921568632125854
0.2586206793785095 0.1552186906337738 0.0063241105526685715 0.572549045085907 0.5764706134796143 0.5137255191802979
0.35147783160209656 0.19311542809009552 0.9893280863761902 0.30588236451148987 0.3019607961177826 0.2823529541492462
0.3322660028934479 0.2240644246339798 0.9889327883720398 0.3764705955982208 0.3607843220233917 0.3490196168422699
0.2935960590839386 0.20022106170654297 0.0063241105526685715 0.5529412031173706 0.545098066329956 0.4627451002597809
0.36354678869247437 0.15048161149024963 0.9901185631752014 0.32549020648002625 0.32549020648002625 0.2862745225429535
0.25517240166664124 0.13405968248844147 0.0063241105526685715 0.5137255191802979 0.5215686559677124 0.46666666865348816
0.2743842303752899 0.1293226033449173 0.9905138611793518 0.30980393290519714 0.29019609093666077 0.2666666805744171
0.17167487740516663 0.1634296476840973 0.0071146246045827866 0.5843137502670288 0.5882353186607361 0.5333333611488342
0.16970443725585938 0.2210642695426941 0.007509881630539894 0.38823530077934265 0.3921568691730499 0.33725491166114807
0.3024630546569824 0.22548554837703705 0.9905138611793518 0.3529411852359772 0.3607843220233917 0.35686275362968445
0.15935960412025452 0.10611084848642349 0.9909090995788574 0.3686274588108063 0.35686275362968445 0.2980392277240753
0.22413793206214905 0.224222332239151 0.992094874382019 0.9725490212440491 0.9843137264251709 1.0
0.35073891282081604 0.19374704360961914 0.9893280863761902 0.3333333432674408 0.3294117748737335 0.30980393290519714
0.30369457602500916 0.11526922136545181 0.006719367578625679 0.6313725709915161 0.6235294342041016 0.5647059082984924
0.23177340626716614 0.11116374284029007 0.006719367578625679 0.6705882549285889 0.6549019813537598 0.6078431606292725
0.20837438106536865 0.13058581948280334 0.9909090995788574 0.3294117748737335 0.3176470696926117 0.25882354378700256
0.12389162927865982 0.21616926789283752 0.00830039568245411 0.4941176474094391 0.47843137383461 0.4431372582912445
0.143349751830101 0.18222011625766754 0.9901185631752014 0.33725491166114807 0.33725491166114807 0.30588236451148987
0.23522166907787323 0.13611242175102234 0.0063241105526685715 0.6784313917160034 0.6705882549285889 0.6117647290229797
0.1830049306154251 0.09837359935045242 0.9909090995788574 0.3764705955982208 0.3607843220233917 0.3176470696926117
0.33891624212265015 0.09821569919586182 0.9897233247756958 0.3529411852359772 0.32549020648002625 0.29411765933036804
0.17931035161018372 0.1207958310842514 0.9909090995788574 0.33725491166114807 0.3294117748737335 0.2705882489681244
0.23251231014728546 0.15348176658153534 0.9948616623878479 0.8823529481887817 0.8980392217636108 0.9098039269447327
0.16009852290153503 0.183799147605896 0.992094874382019 0.772549033164978 0.8196078538894653 0.8039215803146362
0.22315271198749542 0.1376914530992508 0.0063241105526685715 0.5098039507865906 0.5176470875740051 0.4313725531101227
0.25172412395477295 0.2354334443807602 0.28932806849479675 0.09803921729326248 0.13333334028720856 0.15294118225574493
0.2694581151008606 0.19958944618701935 0.9952569007873535 0.9647058844566345 0.9803921580314636 0.9921568632125854
0.2339901477098465 0.17448286712169647 0.0063241105526685715 0.6274510025978088 0.6431372761726379 0.5529412031173706
0.27906402945518494 0.13374388217926025 0.0063241105526685715 0.6352941393852234 0.6392157077789307 0.5764706134796143
0.22758620977401733 0.12095373123884201 0.9905138611793518 0.3333333432674408 0.30980393290519714 0.26274511218070984
0.30812808871269226 0.12995420396327972 0.0063241105526685715 0.5254902243614197 0.5215686559677124 0.4431372582912445
0.35098522901535034 0.11100584268569946 0.9901185631752014 0.3137255012989044 0.29411765933036804 0.2705882489681244
0.2591133117675781 0.0805305540561676 0.007509881630539894 0.5882353186607361 0.5843137502670288 0.5137255191802979
0.1472906470298767 0.14890258014202118 0.0071146246045827866 0.48627451062202454 0.47843137383461 0.3803921639919281
0.1472906470298767 0.09442602097988129 0.9909090995788574 0.37254902720451355 0.35686275362968445 0.3137255012989044
0.21921181678771973 0.08163587749004364 0.9905138611793518 0.2666666805744171 0.250980406999588 0.2078431397676468
0.2610837519168854 0.10611084848642349 0.0071146246045827866 0.6745098233222961 0.6666666865348816 0.6078431606292725
0.20763546228408813 0.224222332239151 0.9916995763778687 0.9803921580314636 0.9843137264251709 1.0
0.2618226706981659 0.10611084848642349 0.0071146246045827866 0.6901960968971252 0.6941176652908325 0.6313725709915161
0.13399015367031097 0.14732354879379272 0.9905138611793518 0.34117648005485535 0.3333333432674408 0.2862745225429535
0.3561576306819916 0.08684667944908142 0.9893280863761902 0.35686275362968445 0.32156863808631897 0.2862745225429535
0.17955665290355682 0.14448128640651703 0.006719367578625679 0.5529412031173706 0.5764706134796143 0.5215686559677124
0.3137930929660797 0.15363965928554535 0.005928853526711464 0.5607843399047852 0.5529412031173706 0.501960813999176
0.14532019197940826 0.22611716389656067 0.007905138656497002 0.5686274766921997 0.545098066329956 0.48235294222831726
0.26724138855934143 0.15000788867473602 0.9936758875846863 0.9529411792755127 0.9764705896377563 0.9764705896377563
0.2221674919128418 0.08226748555898666 0.9905138611793518 0.2862745225429535 0.2705882489681244 0.23529411852359772
0.24901477992534637 0.13027001917362213 0.9905138611793518 0.3450980484485626 0.3176470696926117 0.27843138575553894
0.13399015367031097 0.12474340945482254 0.9909090995788574 0.364705890417099 0.34117648005485535 0.2862745225429535
0.2258620709180832 0.21048475801944733 0.9932806491851807 0.9686274528503418 0.9803921580314636 1.0
0.32438424229621887 0.1062687486410141 0.9901185631752014 0.32549020648002625 0.2980392277240753 0.27450981736183167
0.35517242550849915 0.13958629965782166 0.9905138611793518 0.30588236451148987 0.2862745225429535 0.26274511218070984
0.36748769879341125 0.16295593976974487 0.005928853526711464 0.5490196347236633 0.5647059082984924 0.5058823823928833
0.30369457602500916 0.14021790027618408 0.9909090995788574 0.3686274588108063 0.3490196168422699 0.33725491166114807
0.3519704341888428 0.18237802386283875 0.9897233247756958 0.32156863808631897 0.30980393290519714 0.29019609093666077
0.30369457602500916 0.2359071522951126 0.006719367578625679 0.29411765933036804 0.2823529541492462 0.21568627655506134
0.2738916277885437 0.17906205356121063 0.0063241105526685715 0.6745098233222961 0.6901960968971252 0.6235294342041016
0.12487684935331345 0.21395863592624664 0.9893280863761902 0.41960784792900085 0.40784314274787903 0.3803921639919281
0.28004926443099976 0.21332702040672302 0.9944664239883423 0.9686274528503418 0.9725490212440491 0.9803921580314636
0.2182265967130661 0.09963682293891907 0.9905138611793518 0.3450980484485626 0.3294117748737335 0.2862745225429535
0.22881773114204407 0.08179377764463425 0.0071146246045827866 0.5568627715110779 0.5529412031173706 0.48235294222831726
0.3455665111541748 0.23417021334171295 0.9885375499725342 0.3333333432674408 0.32156863808631897 0.3019607961177826
0.3103448152542114 0.09395231306552887 0.9897233247756958 0.3137255012989044 0.2862745225429535 0.2549019753932953
0.15246304869651794 0.20290541648864746 0.007509881630539894 0.6470588445663452 0.6470588445663452 0.6000000238418579
0.29605910181999207 0.1667456179857254 0.0063241105526685715 0.5058823823928833 0.49803921580314636 0.43921568989753723
0.16921181976795197 0.1406916081905365 0.0071146246045827866 0.501960813999176 0.49803921580314636 0.41960784792900085
0.16970443725585938 0.20574766397476196 0.9924901127815247 1.0 0.9960784316062927 1.0
0.1741379350423813 0.2156955599784851 0.007509881630539894 0.545098066329956 0.5372549295425415 0.47843137383461
0.3300492465496063 0.1722722202539444 0.0063241105526685715 0.6313725709915161 0.6352941393852234 0.572549045085907
0.2736453115940094 0.10705826431512833 0.0071146246045827866 0.5372549295425415 0.529411792755127 0.48235294222831726
0.3684729039669037 0.19311542809009552 0.0063241105526685715 0.5647059082984924 0.5568627715110779 0.5098039507865906
0.341379314661026 0.12474340945482254 0.9901185631752014 0.32156863808631897 0.30588236451148987 0.2705882489681244
0.3645320236682892 0.2011684775352478 0.9893280863761902 0.32156863808631897 0.3019607961177826 0.2862745225429535
0.24039408564567566 0.09079425036907196 0.9905138611793518 0.2862745225429535 0.25882354378700256 0.23529411852359772
0.24285714328289032 0.09632086008787155 0.0071146246045827866 0.49803921580314636 0.48235294222831726 0.43529412150382996
0.2608374357223511 0.08700457960367203 0.9901185631752014 0.27450981736183167 0.2549019753932953 0.23137255012989044
0.2539408802986145 0.23448602855205536 0.2747035622596741 0.1921568661928177 0.19607843458652496 0.21568627655506134
0.16009852290153503 0.20069476962089539 0.007509881630539894 0.5098039507865906 0.4941176474094391 0.4470588266849518
0.2381773442029953 0.08432022482156754 0.9905138611793518 0.2823529541492462 0.2666666805744171 0.23137255012989044
0.32438424229621887 0.12158534675836563 0.9901185631752014 0.27843138575553894 0.250980406999588 0.22745098173618317
0.16551724076271057 0.10990051925182343 0.9909090995788574 0.3529411852359772 0.34117648005485535 0.27450981736183167
0.2108374387025833 0.1692720651626587 0.006719367578625679 0.5803921818733215 0.5960784554481506 0.5058823823928833
0.2458128035068512 0.21695879101753235 0.9932806491851807 0.9647058844566345 0.9764705896377563 0.9960784316062927
0.27142858505249023 0.18000946938991547 0.0063241105526685715 0.6078431606292725 0.615686297416687 0.5333333611488342
0.3527093529701233 0.1555345058441162 0.9901185631752014 0.3176470696926117 0.30588236451148987 0.27843138575553894
0.20492610335350037 0.1639033704996109 0.9972332119941711 0.95686274766922 0.9725490212440491 0.9843137264251709
0.3322660028934479 0.2209063619375229 0.29525691270828247 0.6039215922355652 0.658823549747467 0.658823549747467
0.23177340626716614 0.12758566439151764 0.006719367578625679 0.5372549295425415 0.5333333611488342 0.45490196347236633
0.24039408564567566 0.1522185355424881 0.0063241105526685715 0.6823529601097107 0.686274528503418 0.6235294342041016
0.18078817427158356 0.10990051925182343 0.9909090995788574 0.3529411852359772 0.34117648005485535 0.2823529541492462
0.33152708411216736 0.19785252213478088 0.9893280863761902 0.3450980484485626 0.32549020648002625 0.3137255012989044
0.33842363953590393 0.10595294833183289 0.0071146246045827866 0.6196078658103943 0.6196078658103943 0.572549045085907
0.336699515581131 0.15285015106201172 0.005928853526711464 0.6705882549285889 0.6705882549285889 0.6235294342041016
0.17389161884784698 0.21048475801944733 0.007509881630539894 0.5647059082984924 0.5529412031173706 0.4941176474094391
0.14137931168079376 0.09884730726480484 0.00830039568245411 0.5058823823928833 0.5176470875740051 0.43529412150382996
0.31133005023002625 0.2267487794160843 0.29486167430877686 0.6235294342041016 0.658823549747467 0.6470588445663452
0.16896551847457886 0.11684825271368027 0.007509881630539894 0.6196078658103943 0.6000000238418579 0.5254902243614197
0.20541872084140778 0.15948207676410675 0.9976284503936768 0.9411764740943909 0.9450980424880981 0.9529411792755127
0.27241379022598267 0.23480182886123657 0.9924901127815247 0.9764705896377563 0.9803921580314636 0.9960784316062927
0.27684730291366577 0.20843201875686646 0.006719367578625679 0.4745098054409027 0.48235294222831726 0.38823530077934265
0.25935959815979004 0.0947418287396431 0.9901185631752014 0.29019609093666077 0.27450981736183167 0.239215686917305
0.2945812940597534 0.11005842685699463 0.0071146246045827866 0.6352941393852234 0.6274510025978088 0.5803921818733215
0.3615763485431671 0.10105795413255692 0.0071146246045827866 0.7019608020782471 0.6941176652908325 0.6352941393852234
0.2738916277885437 0.1692720651626587 0.9984189867973328 1.0 1.0 1.0
0.3416256010532379 0.2295910269021988 0.0063241105526685715 0.364705890417099 0.35686275362968445 0.30588236451148987
0.14532019197940826 0.21316911280155182 0.007905138656497002 0.43921568989753723 0.4274509847164154 0.3686274588108063
0.15541872382164001 0.17937786877155304 0.9905138611793518 0.3686274588108063 0.3529411852359772 0.34117648005485535
0.12512315809726715 0.16627191007137299 0.9901185631752014 0.34117648005485535 0.3333333432674408 0.2862745225429535
0.24285714328289032 0.1320069432258606 0.0063241105526685715 0.572549045085907 0.5764706134796143 0.5058823823928833
0.23177340626716614 0.19927364587783813 0.9944664239883423 0.9647058844566345 0.9764705896377563 0.9960784316062927
0.3487684726715088 0.2014842927455902 0.9893280863761902 0.3137255012989044 0.30980393290519714 0.29411765933036804
0.3339901566505432 0.1699036806821823 0.0063241105526685715 0.5098039507865906 0.5254902243614197 0.46666666865348816
0.12586206197738647 0.20574766397476196 0.00830039568245411 0.545098066329956 0.5372549295425415 0.45490196347236633
0.3059113323688507 0.20622138679027557 0.0063241105526685715 0.4901960790157318 0.49803921580314636 0.4117647111415863
0.21551723778247833 0.19106268882751465 0.006719367578625679 0.5333333611488342 0.545098066329956 0.4627451002597809
0.1780788153409958 0.12253276258707047 0.0071146246045827866 0.7098039388656616 0.686274528503418 0.6235294342041016
0.21945813298225403 0.22311700880527496 0.0071146246045827866 0.5215686559677124 0.5176470875740051 0.43529412150382996
0.1504926085472107 0.08305700123310089 0.00830039568245411 0.529411792755127 0.5098039507865906 0.4313725531101227
0.36379310488700867 0.12174324691295624 0.9901185631752014 0.3490196168422699 0.32156863808631897 0.2823529541492462
0.29187193512916565 0.2239065170288086 0.9924901127815247 0.9137254953384399 0.9686274528503418 1.0
0.35935959219932556 0.1984841376543045 0.0063241105526685715 0.4901960790157318 0.49803921580314636 0.4470588266849518
0.29507389664649963 0.1664298176765442 0.9952569007873535 1.0 1.0 1.0
0.2652709484100342 0.1722722202539444 0.0063241105526685715 0.5411764979362488 0.5568627715110779 0.46666666865348816
0.2857142984867096 0.21064266562461853 0.0063241105526685715 0.5058823823928833 0.49803921580314636 0.4156862795352936
0.24901477992534637 0.14148113131523132 0.0063241105526685715 0.7333333492279053 0.7176470756530762 0.6705882549285889
0.22807881236076355 0.12237486243247986 0.9905138611793518 0.35686275362968445 0.3333333432674408 0.2862745225429535
0.14827586710453033 0.21190589666366577 0.007905138656497002 0.6196078658103943 0.5960784554481506 0.5333333611488342
0.17660097777843475 0.11037422716617584 0.007509881630539894 0.6274510025978088 0.6352941393852234 0.5529412031173706
0.3541871905326843 0.18253591656684875 0.0063241105526685715 0.5490196347236633 0.5529412031173706 0.4901960790157318
0.27586206793785095 0.18000946938991547 0.9976284503936768 1.0 1.0 1.0
0.32684728503227234 0.0947418287396431 0.007509881630539894 0.615686297416687 0.615686297416687 0.5764706134796143
0.29064038395881653 0.10753197222948074 0.0071146246045827866 0.5960784554481506 0.6039215922355652 0.5490196347236633
0.15320196747779846 0.15727142989635468 0.0071146246045827866 0.529411792755127 0.545098066329956 0.45490196347236633
0.1788177341222763 0.22911731898784637 0.007509881630539894 0.6274510025978088 0.6313725709915161 0.5686274766921997
0.33891624212265015 0.2153797596693039 0.0063241105526685715 0.4470588266849518 0.43529412150382996 0.3764705955982208
0.21724137663841248 0.11684825271368027 0.0063241105526685715 0.615686297416687 0.6235294342041016 0.5411764979362488
0.26724138855934143 0.22343280911445618 0.006719367578625679 0.30588236451148987 0.2980392277240753 0.24705882370471954
0.3610837459564209 0.20274750888347626 0.9893280863761902 0.3450980484485626 0.3333333432674408 0.30588236451148987
0.22118227183818817 0.21364282071590424 0.9928853511810303 0.9725490212440491 0.9843137264251709 1.0
0.3288177251815796 0.1691141575574875 0.0063241105526685715 0.5490196347236633 0.5607843399047852 0.48627451062202454
0.3017241358757019 0.12758566439151764 0.9905138611793518 0.3137255012989044 0.2980392277240753 0.2549019753932953
0.35443350672721863 0.2270645797252655 0.9885375499725342 0.3019607961177826 0.30588236451148987 0.2862745225429535
0.20812807977199554 0.20574766397476196 0.0071146246045827866 0.5411764979362488 0.5490196347236633 0.45490196347236633
0.20492610335350037 0.08163587749004364 0.9905138611793518 0.29019609093666077 0.27450981736183167 0.23137255012989044
0.26354679465293884 0.22943313419818878 0.19486166536808014 0.6196078658103943 0.6235294342041016 0.5921568870544434
0.27216747403144836 0.1261645406484604 0.9905138611793518 0.30980393290519714 0.29019609093666077 0.2666666805744171
0.3541871905326843 0.23322279751300812 0.9885375499725342 0.30588236451148987 0.3137255012989044 0.29411765933036804
0.3290640413761139 0.08305700123310089 0.9897233247756958 0.33725491166114807 0.30980393290519714 0.2705882489681244
0.17389161884784698 0.1381651610136032 0.9909090995788574 0.3529411852359772 0.33725491166114807 0.29019609093666077
0.29064038395881653 0.18300963938236237 0.9956521987915039 0.9960784316062927 0.9960784316062927 0.9960784316062927
0.312561571598053 0.12426970154047012 0.9905138611793518 0.32156863808631897 0.29411765933036804 0.2705882489681244
0.31871920824050903 0.1523764431476593 0.005928853526711464 0.5568627715110779 0.5647059082984924 0.5137255191802979
0.3578817844390869 0.11463761329650879 0.006719367578625679 0.615686297416687 0.6352941393852234 0.5490196347236633
0.3403940796852112 0.17606189846992493 0.0063241105526685715 0.4901960790157318 0.501960813999176 0.4588235318660736
0.24729064106941223 0.2185378223657608 0.9928853511810303 0.9647058844566345 0.9764705896377563 0.9960784316062927
0.31921181082725525 0.19674719870090485 0.0063241105526685715 0.5058823823928833 0.501960813999176 0.42352941632270813
0.22093595564365387 0.16200852394104004 0.9980236887931824 0.929411768913269 0.9450980424880981 0.9490196108818054
0.14359605312347412 0.22295910120010376 0.9893280863761902 0.4000000059604645 0.40392157435417175 0.3803921639919281
0.12586206197738647 0.15853466093540192 0.9901185631752014 0.38823530077934265 0.37254902720451355 0.32549020648002625
0.36699506640434265 0.11005842685699463 0.006719367578625679 0.5764706134796143 0.5882353186607361 0.5137255191802979
0.2704433500766754 0.16769303381443024 0.9984189867973328 1.0 1.0 1.0
0.36330050230026245 0.19011527299880981 0.9897233247756958 0.30980393290519714 0.2980392277240753 0.27843138575553894
0.17783251404762268 0.20558977127075195 0.9924901127815247 1.0 1.0 1.0
0.28374382853507996 0.14874467253684998 0.005928853526711464 0.5843137502670288 0.5882353186607361 0.5254902243614197
0.23497536778450012 0.12584872543811798 0.006719367578625679 0.5960784554481506 0.5921568870544434 0.5215686559677124
0.18866994976997375 0.16485078632831573 0.006719367578625679 0.4588235318660736 0.47843137383461 0.3921568691730499
0.25270935893058777 0.16611400246620178 0.9984189867973328 0.9372549057006836 0.9529411792755127 0.9647058844566345
0.3332512378692627 0.12837517261505127 0.9905138611793518 0.3294117748737335 0.30980393290519714 0.2862745225429535
0.1512315273284912 0.08195168524980545 0.9909090995788574 0.3529411852359772 0.32549020648002625 0.2862745225429535
0.18152709305286407 0.13327017426490784 0.9909090995788574 0.32549020648002625 0.3137255012989044 0.24705882370471954
0.3012315332889557 0.18222011625766754 0.9928853511810303 0.364705890417099 0.364705890417099 0.35686275362968445
0.35098522901535034 0.22264330089092255 0.9889327883720398 0.3019607961177826 0.2862745225429535 0.27450981736183167
0.2692118287086487 0.1953260749578476 0.006719367578625679 0.5098039507865906 0.5058823823928833 0.42352941632270813
0.2775862216949463 0.1806410849094391 0.0063241105526685715 0.5411764979362488 0.5529412031173706 0.47843137383461
0.3364531993865967 0.23322279751300812 0.0063241105526685715 0.33725491166114807 0.3137255012989044 0.250980406999588
0.13842365145683289 0.16627191007137299 0.007509881630539894 0.5568627715110779 0.545098066329956 0.47058823704719543
0.1431034505367279 0.19611558318138123 0.007905138656497002 0.6000000238418579 0.615686297416687 0.5490196347236633
0.3174876868724823 0.17290383577346802 0.0063241105526685715 0.5098039507865906 0.5215686559677124 0.43921568989753723
0.33965516090393066 0.14811305701732635 0.9905138611793518 0.3294117748737335 0.30980393290519714 0.29411765933036804
0.25197044014930725 0.23669667541980743 0.2818181812763214 0.11372549086809158 0.12941177189350128 0.125490203499794
0.29950737953186035 0.16011369228363037 0.0063241105526685715 0.6980392336845398 0.7019608020782471 0.6313725709915161
0.3206896483898163 0.17432495951652527 0.0063241105526685715 0.5843137502670288 0.5921568870544434 0.5411764979362488
0.22142857313156128 0.1296384036540985 0.006719367578625679 0.6274510025978088 0.6196078658103943 0.5372549295425415
0.3657635450363159 0.10279488563537598 0.0071146246045827866 0.6392157077789307 0.6274510025978088 0.5686274766921997
0.2655172348022461 0.09821569919586182 0.007509881630539894 0.6666666865348816 0.6549019813537598 0.5960784554481506
0.28399014472961426 0.0975840836763382 0.9901185631752014 0.29019609093666077 0.2705882489681244 0.24705882370471954
0.18423645198345184 0.16279804706573486 0.006719367578625679 0.6431372761726379 0.6627451181411743 0.5764706134796143
0.2977832555770874 0.15300805866718292 0.005928853526711464 0.7882353067398071 0.7882353067398071 0.7490196228027344
0.3487684726715088 0.17337754368782043 0.9901185631752014 0.3333333432674408 0.3137255012989044 0.29019609093666077
0.2061576396226883 0.11732196062803268 0.006719367578625679 0.5254902243614197 0.5333333611488342 0.4470588266849518
0.2105911374092102 0.16469287872314453 0.006719367578625679 0.5882353186607361 0.5764706134796143 0.501960813999176
0.18325123190879822 0.1264803409576416 0.0071146246045827866 0.6470588445663452 0.6431372761726379 0.5607843399047852
0.2549261152744293 0.08274119347333908 0.9901185631752014 0.29019609093666077 0.27450981736183167 0.239215686917305
0.23300492763519287 0.17874625325202942 0.9964426755905151 0.9686274528503418 0.9803921580314636 1.0
0.13620689511299133 0.19043107330799103 0.9901185631752014 0.3921568691730499 0.3843137323856354 0.33725491166114807
0.14211823046207428 0.08479394018650055 0.16047431528568268 0.0941176488995552 0.09019608050584793 0.07450980693101883
0.31945812702178955 0.149849995970726 0.9905138611793518 0.33725491166114807 0.3176470696926117 0.29411765933036804
0.30369457602500916 0.23195958137512207 0.006719367578625679 0.45098039507865906 0.4274509847164154 0.364705890417099
0.27118226885795593 0.2038528323173523 0.9948616623878479 0.9647058844566345 0.9803921580314636 0.9921568632125854
0.23251231014728546 0.12126953899860382 0.9905138611793518 0.3450980484485626 0.32156863808631897 0.27450981736183167
0.13669951260089874 0.1954839676618576 0.9897233247756958 0.3921568691730499 0.3803921639919281 0.3450980484485626
0.2667487561702728 0.21364282071590424 0.006719367578625679 0.4901960790157318 0.48627451062202454 0.40784314274787903
0.12463054060935974 0.19090478122234344 0.9897233247756958 0.4117647111415863 0.40392157435417175 0.35686275362968445
0.2736453115940094 0.09868940711021423 0.007509881630539894 0.6078431606292725 0.6196078658103943 0.5529412031173706
0.3206896483898163 0.1582188606262207 0.005928853526711464 0.7058823704719543 0.6901960968971252 0.6470588445663452
0.1426108330488205 0.2183799147605896 0.9897233247756958 0.41960784792900085 0.4156862795352936 0.3960784375667572
0.19334974884986877 0.15379756689071655 0.9948616623878479 0.8784313797950745 0.8980392217636108 0.9215686321258545
0.3009852170944214 0.2210642695426941 0.9909090995788574 0.3764705955982208 0.3686274588108063 0.37254902720451355
0.2216748744249344 0.1376914530992508 0.9909090995788574 0.30980393290519714 0.29411765933036804 0.24705882370471954
0.2376847267150879 0.2325911819934845 0.9916995763778687 0.9686274528503418 0.9803921580314636 1.0
0.23128078877925873 0.22659087181091309 0.992094874382019 0.9725490212440491 0.9843137264251709 1.0
0.13349753618240356 0.2325911819934845 0.007905138656497002 0.5921568870544434 0.5960784554481506 0.5333333611488342
0.34408867359161377 0.20590557157993317 0.0063241105526685715 0.5058823823928833 0.501960813999176 0.42352941632270813
0.12364532053470612 0.10611084848642349 0.9909090995788574 0.35686275362968445 0.3450980484485626 0.2862745225429535
0.28029558062553406 0.160903200507164 0.9996047616004944 1.0 1.0 1.0
0.28743842244148254 0.17937786877155304 0.0063241105526685715 0.6431372761726379 0.6235294342041016 0.545098066329956
0.16083744168281555 0.22943313419818878 0.9901185631752014 0.8117647171020508 0.8352941274642944 0.8823529481887817
0.1470443308353424 0.1552186906337738 0.9905138611793518 0.35686275362968445 0.35686275362968445 0.3176470696926117
0.3499999940395355 0.16311384737491608 0.9901185631752014 0.3176470696926117 0.30588236451148987 0.2862745225429535
0.15172414481639862 0.160745307803154 0.0071146246045827866 0.48627451062202454 0.501960813999176 0.4431372582912445
0.17364531755447388 0.103426493704319 0.9909090995788574 0.37254902720451355 0.35686275362968445 0.3137255012989044
0.12610837817192078 0.23495973646640778 0.007905138656497002 0.4901960790157318 0.4941176474094391 0.42352941632270813
0.27610838413238525 0.08810990303754807 0.007509881630539894 0.6392157077789307 0.6431372761726379 0.572549045085907
0.19162560999393463 0.10468971729278564 0.9909090995788574 0.37254902720451355 0.3490196168422699 0.29411765933036804
0.27931034564971924 0.11732196062803268 0.9901185631752014 0.3176470696926117 0.3019607961177826 0.2666666805744171
0.1743842363357544 0.10958471149206161 0.9909090995788574 0.37254902720451355 0.3490196168422699 0.29411765933036804
0.2623152732849121 0.18269382417201996 0.9968379735946655 0.9647058844566345 0.9686274528503418 0.9882352948188782
0.17906403541564941 0.19611558318138123 0.0071146246045827866 0.5686274766921997 0.5647059082984924 0.45490196347236633
0.25197044014930725 0.19974735379219055 0.006719367578625679 0.501960813999176 0.501960813999176 0.4000000059604645
0.27266010642051697 0.15079741179943085 0.0063241105526685715 0.5137255191802979 0.5215686559677124 0.46666666865348816
0.21945813298225403 0.22311700880527496 0.0071146246045827866 0.5215686559677124 0.5176470875740051 0.43529412150382996
0.22019705176353455 0.2043265402317047 0.0071146246045827866 0.545098066329956 0.5529412031173706 0.46666666865348816
0.2423645257949829 0.22943313419818878 0.006719367578625679 0.38823530077934265 0.40784314274787903 0.3294117748737335
0.31945812702178955 0.07958313822746277 0.9897233247756958 0.3019607961177826 0.27450981736183167 0.250980406999588
0.36280786991119385 0.13121743500232697 0.9905138611793518 0.34117648005485535 0.3137255012989044 0.2823529541492462
0.17142857611179352 0.08637296408414841 0.007905138656497002 0.4470588266849518 0.4274509847164154 0.3019607961177826
0.285221666097641 0.23511764407157898 0.006719367578625679 0.27843138575553894 0.2549019753932953 0.2078431397676468
0.18349753320217133 0.080372653901577 0.007905138656497002 0.5333333611488342 0.545098066329956 0.43921568989753723
0.28423646092414856 0.17921996116638184 0.9972332119941711 1.0 1.0 1.0
0.3100985288619995 0.2096952497959137 0.0063241105526685715 0.48235294222831726 0.48235294222831726 0.38823530077934265
0.14975368976593018 0.18316753208637238 0.9901185631752014 0.4000000059604645 0.38823530077934265 0.3529411852359772
0.21231527626514435 0.0920574739575386 0.9905138611793518 0.3490196168422699 0.3333333432674408 0.29019609093666077
0.2266009896993637 0.21206378936767578 0.0071146246045827866 0.545098066329956 0.5411764979362488 0.4313725531101227
0.32315272092819214 0.11116374284029007 0.9901185631752014 0.3176470696926117 0.29019609093666077 0.2666666805744171
0.25270935893058777 0.1605874001979828 0.9988142251968384 0.9254902005195618 0.929411768913269 0.9450980424880981
0.24088670313358307 0.1261645406484604 0.006719367578625679 0.7450980544090271 0.7372549176216125 0.6784313917160034
0.29211822152137756 0.16137690842151642 0.9964426755905151 0.729411780834198 0.7529411911964417 0.7529411911964417
0.336699515581131 0.14700773358345032 0.005928853526711464 0.615686297416687 0.615686297416687 0.5686274766921997
0.1862068921327591 0.11353228986263275 0.9909090995788574 0.3450980484485626 0.3333333432674408 0.27450981736183167
0.33472907543182373 0.12979631125926971 0.9905138611793518 0.2980392277240753 0.27843138575553894 0.2549019753932953
0.34704434871673584 0.22516974806785583 0.0063241105526685715 0.32156863808631897 0.32156863808631897 0.29019609093666077
0.2975369393825531 0.15316595137119293 0.005928853526711464 0.6196078658103943 0.6196078658103943 0.5882353186607361
0.21896551549434662 0.2125374972820282 0.0071146246045827866 0.501960813999176 0.501960813999176 0.40784314274787903
0.18177339434623718 0.15190273523330688 0.9944664239883423 0.8941176533699036 0.9058823585510254 0.9254902005195618
0.35960590839385986 0.132322758436203 0.005928853526711464 0.658823549747467 0.6666666865348816 0.615686297416687
0.13965517282485962 0.20180009305477142 0.007905138656497002 0.5098039507865906 0.5098039507865906 0.47058823704719543
0.23645320534706116 0.20180009305477142 0.9944664239883423 0.9686274528503418 0.9803921580314636 1.0
0.20541872084140778 0.18316753208637238 0.9952569007873535 0.9686274528503418 0.9803921580314636 1.0
0.13374383747577667 0.07910943031311035 0.1881422996520996 0.1882352977991104 0.2078431397676468 0.1921568661928177
0.23226600885391235 0.21648508310317993 0.0071146246045827866 0.5176470875740051 0.5254902243614197 0.43921568989753723
0.27192118763923645 0.22564345598220825 0.1671936810016632 0.11372549086809158 0.11372549086809158 0.11372549086809158
0.1270935982465744 0.15600821375846863 0.007509881630539894 0.5372549295425415 0.529411792755127 0.47058823704719543
0.24704433977603912 0.21332702040672302 0.9936758875846863 0.9647058844566345 0.9764705896377563 0.9960784316062927
0.19704432785511017 0.19611558318138123 0.9940711259841919 0.9529411792755127 0.9647058844566345 0.9843137264251709
0.34458127617836 0.22880151867866516 0.0063241105526685715 0.3019607961177826 0.29411765933036804 0.24313725531101227
0.30000001192092896 0.15142902731895447 0.005928853526711464 0.6352941393852234 0.6392157077789307 0.5764706134796143
0.1990147829055786 0.22201168537139893 0.9916995763778687 0.9607843160629272 0.9725490212440491 1.0
0.2416256219148636 0.13421759009361267 0.9909090995788574 0.35686275362968445 0.34117648005485535 0.29411765933036804
