0.35862070322036743 0.35780829191207886 0.006719367578625679 0.49803921580314636 0.47843137383461 0.364705890417099
0.43374383449554443 0.3644402325153351 0.9877470135688782 0.3686274588108063 0.35686275362968445 0.3294117748737335
0.3285714387893677 0.2584872841835022 0.1774703562259674 0.0941176488995552 0.0941176488995552 0.08627451211214066
0.3997536897659302 0.2616453468799591 0.29486167430877686 0.5254902243614197 0.5490196347236633 0.5333333611488342
0.35886698961257935 0.33459654450416565 0.26324111223220825 0.08627451211214066 0.08627451211214066 0.0784313753247261
0.4325123131275177 0.2963840067386627 0.004743082914501429 0.18431372940540314 0.18039216101169586 0.16078431904315948
0.4364531934261322 0.3535449206829071 0.29525691270828247 0.5686274766921997 0.5882353186607361 0.6117647290229797
0.28768473863601685 0.38038843870162964 0.9889327883720398 0.3921568691730499 0.3843137323856354 0.3333333432674408
0.4561576247215271 0.36096635460853577 0.9873517751693726 0.37254902720451355 0.3607843220233917 0.3333333432674408
0.41847291588783264 0.24585504829883575 0.29446640610694885 0.5333333611488342 0.5686274766921997 0.5568627715110779
0.4440886676311493 0.2521711587905884 0.9881423115730286 0.250980406999588 0.239215686917305 0.21960784494876862
0.37955665588378906 0.2785409688949585 0.006719367578625679 0.05882352963089943 0.054901961237192154 0.0470588244497776
0.4083743989467621 0.28612032532691956 0.0063241105526685715 0.16862745583057404 0.1568627506494522 0.12941177189350128
0.4399014711380005 0.3789673149585724 0.9881423115730286 0.3529411852359772 0.33725491166114807 0.3019607961177826
0.3012315332889557 0.3819674849510193 0.9889327883720398 0.3686274588108063 0.3607843220233917 0.30980393290519714
0.25270935893058777 0.29685771465301514 0.2865612506866455 0.1921568661928177 0.20000000298023224 0.19607843458652496
0.35443350672721863 0.2869098484516144 0.9881423115730286 0.2823529541492462 0.2862745225429535 0.2666666805744171
0.3541871905326843 0.34975525736808777 0.198023721575737 0.054901961237192154 0.062745101749897 0.05882352963089943
0.40640392899513245 0.351176381111145 0.1715414971113205 0.054901961237192154 0.054901961237192154 0.054901961237192154
0.2847290635108948 0.29401546716690063 0.16916996240615845 0.09803921729326248 0.10588235408067703 0.10196078568696976
0.48300492763519287 0.3559134602546692 0.2964426875114441 0.5568627715110779 0.5686274766921997 0.5882353186607361
0.34433498978614807 0.36080846190452576 0.30039525032043457 0.0941176488995552 0.0941176488995552 0.08627451211214066
0.37857142090797424 0.3930206894874573 0.9885375499725342 0.3843137323856354 0.3764705955982208 0.3294117748737335
0.4253694713115692 0.2752250134944916 0.29407113790512085 0.6117647290229797 0.6431372761726379 0.6509804129600525
0.4049261212348938 0.2723827660083771 0.18142291903495789 0.05882352963089943 0.05882352963089943 0.05882352963089943
0.43078818917274475 0.24601294100284576 0.9881423115730286 0.26274511218070984 0.250980406999588 0.23137255012989044
0.38620689511299133 0.3500710427761078 0.17351779341697693 0.08627451211214066 0.08627451211214066 0.08627451211214066
0.3652709424495697 0.3770724833011627 0.14980237185955048 0.29411765933036804 0.2862745225429535 0.29019609093666077
0.46970441937446594 0.3592294454574585 0.9877470135688782 0.35686275362968445 0.3529411852359772 0.3333333432674408
0.3645320236682892 0.34959733486175537 0.1664031594991684 0.25882354378700256 0.29411765933036804 0.29019609093666077
0.42266011238098145 0.25690826773643494 0.005533596966415644 0.0941176488995552 0.09019608050584793 0.07450980693101883
0.46157634258270264 0.3300173580646515 0.0031620552763342857 0.07450980693101883 0.0784313753247261 0.05882352963089943
0.39039409160614014 0.35796621441841125 0.15454545617103577 0.250980406999588 0.24313725531101227 0.24705882370471954
0.3064039349555969 0.3941259980201721 0.0071146246045827866 0.6431372761726379 0.6509804129600525 0.5686274766921997
0.35566502809524536 0.34943944215774536 0.20948617160320282 0.250980406999588 0.2666666805744171 0.26274511218070984
0.3847290575504303 0.24822358787059784 0.0063241105526685715 0.08627451211214066 0.07058823853731155 0.05882352963089943
0.4605911374092102 0.373282790184021 0.2956521809101105 0.5764706134796143 0.5882353186607361 0.615686297416687
0.278817743062973 0.31501656770706177 0.9881423115730286 1.0 1.0 1.0
0.39113301038742065 0.3279646337032318 0.005928853526711464 0.16862745583057404 0.1568627506494522 0.12156862765550613
0.35812807083129883 0.38607296347618103 0.9885375499725342 0.37254902720451355 0.364705890417099 0.3137255012989044
0.3980295658111572 0.24348649382591248 0.17865613102912903 0.05098039284348488 0.07058823853731155 0.0470588244497776
0.3527093529701233 0.32970157265663147 0.3019762933254242 0.054901961237192154 0.05882352963089943 0.0784313753247261
0.33472907543182373 0.270172119140625 0.006719367578625679 0.27450981736183167 0.26274511218070984 0.20392157137393951
0.39162561297416687 0.33522817492485046 0.0063241105526685715 0.16470588743686676 0.15294118225574493 0.11764705926179886
0.38275861740112305 0.24869729578495026 0.9881423115730286 0.2823529541492462 0.2705882489681244 0.24313725531101227
0.4480295479297638 0.3339649438858032 0.29407113790512085 0.572549045085907 0.5843137502670288 0.6117647290229797
0.35394087433815 0.24490763247013092 0.006719367578625679 0.22745098173618317 0.21176470816135406 0.16862745583057404
0.38719213008880615 0.247276172041893 0.9881423115730286 0.27450981736183167 0.26274511218070984 0.23529411852359772
0.49064040184020996 0.3393336534500122 0.0035573123022913933 0.5607843399047852 0.5490196347236633 0.4274509847164154
0.3600985109806061 0.2643297016620636 0.18537549674510956 0.07058823853731155 0.07058823853731155 0.062745101749897
0.4672413766384125 0.25185537338256836 0.005138339940458536 0.30588236451148987 0.2980392277240753 0.239215686917305
0.41133004426956177 0.2992262840270996 0.29486167430877686 0.5803921818733215 0.6000000238418579 0.615686297416687
0.26847290992736816 0.28296226263046265 0.16521738469600677 0.11372549086809158 0.11372549086809158 0.11372549086809158
0.3800492584705353 0.24285489320755005 0.2956521809101105 0.5333333611488342 0.5568627715110779 0.5490196347236633
0.47093597054481506 0.3068056106567383 0.002766798483207822 0.30588236451148987 0.3137255012989044 0.29411765933036804
0.35886698961257935 0.3589136302471161 0.2138339877128601 0.13333334028720856 0.13725490868091583 0.11764705926179886
0.32709360122680664 0.24285489320755005 0.9885375499725342 0.3137255012989044 0.30588236451148987 0.30980393290519714
0.4640394151210785 0.3617558777332306 0.005928853526711464 0.33725491166114807 0.35686275362968445 0.3294117748737335
0.2541871964931488 0.3483341336250305 0.006719367578625679 0.6705882549285889 0.6745098233222961 0.6039215922355652
0.30000001192092896 0.3882835805416107 0.9889327883720398 0.3843137323856354 0.35686275362968445 0.32549020648002625
0.35862070322036743 0.33554399013519287 0.30039525032043457 0.239215686917305 0.25882354378700256 0.2823529541492462
0.37093594670295715 0.3353860676288605 0.0063241105526685715 0.364705890417099 0.34117648005485535 0.29411765933036804
0.41083744168281555 0.36965101957321167 0.9877470135688782 0.37254902720451355 0.3607843220233917 0.32549020648002625
0.45369458198547363 0.3129638433456421 0.29446640610694885 0.6392157077789307 0.6392157077789307 0.6470588445663452
0.4041872024536133 0.2894362807273865 0.9877470135688782 0.32156863808631897 0.32156863808631897 0.29019609093666077
0.2928571403026581 0.2851729094982147 0.17391304671764374 0.24313725531101227 0.2549019753932953 0.27450981736183167
0.2613300383090973 0.2726985514163971 0.16363635659217834 0.14901961386203766 0.16470588743686676 0.16862745583057404
0.2775862216949463 0.25501343607902527 0.22292490303516388 0.20000000298023224 0.20392157137393951 0.21960784494876862
0.26699507236480713 0.2843833863735199 0.9897233247756958 0.9764705896377563 0.9803921580314636 0.9960784316062927
0.2896551787853241 0.2989104688167572 0.0071146246045827866 0.2078431397676468 0.1921568661928177 0.1568627506494522
0.36650246381759644 0.2676456570625305 0.9881423115730286 0.3137255012989044 0.3019607961177826 0.2823529541492462
0.38620689511299133 0.3240170478820801 0.9877470135688782 0.29411765933036804 0.2980392277240753 0.2666666805744171
0.4613300561904907 0.3451760709285736 0.29525691270828247 0.5764706134796143 0.5960784554481506 0.6196078658103943
0.2689655125141144 0.281383216381073 0.24347825348377228 0.07450980693101883 0.07450980693101883 0.07450980693101883
0.40344828367233276 0.31154271960258484 0.29446640610694885 0.5647059082984924 0.5803921818733215 0.5921568870544434
0.3499999940395355 0.3508605659008026 0.2766798436641693 0.0941176488995552 0.09803921729326248 0.0784313753247261
0.2689655125141144 0.275856614112854 0.1667984127998352 0.16078431904315948 0.16078431904315948 0.15294118225574493
0.35837438702583313 0.37217748165130615 0.17944663763046265 0.1921568661928177 0.21568627655506134 0.21568627655506134
0.368719220161438 0.2693825960159302 0.17786560952663422 0.05098039284348488 0.054901961237192154 0.03529411926865578
0.4278325140476227 0.37738826870918274 0.18102766573429108 0.05098039284348488 0.05098039284348488 0.04313725605607033
0.4091132879257202 0.28248855471611023 0.1822134405374527 0.0470588244497776 0.0470588244497776 0.0470588244497776
0.3007389307022095 0.39459970593452454 0.9889327883720398 0.35686275362968445 0.35686275362968445 0.3176470696926117
0.32389163970947266 0.3041212558746338 0.0071146246045827866 0.4117647111415863 0.42352941632270813 0.3176470696926117
0.4194581210613251 0.30964788794517517 0.29446640610694885 0.5921568870544434 0.6039215922355652 0.6235294342041016
0.3305418789386749 0.29701563715934753 0.17470355331897736 0.07450980693101883 0.07450980693101883 0.07450980693101883
0.3137930929660797 0.25990840792655945 0.29446640610694885 0.5607843399047852 0.5686274766921997 0.5568627715110779
0.41527092456817627 0.3447023630142212 0.9873517751693726 0.32156863808631897 0.30980393290519714 0.27450981736183167
0.45369458198547363 0.38938891887664795 0.29525691270828247 0.572549045085907 0.5843137502670288 0.6117647290229797
0.35394087433815 0.30333176255226135 0.9881423115730286 0.30588236451148987 0.29411765933036804 0.27450981736183167
0.39556649327278137 0.3309647738933563 0.9877470135688782 0.3333333432674408 0.30588236451148987 0.2823529541492462
0.3564039468765259 0.3884415030479431 0.9885375499725342 0.40784314274787903 0.40784314274787903 0.3607843220233917
0.4204433560371399 0.3538607358932495 0.29446640610694885 0.572549045085907 0.5843137502670288 0.6196078658103943
0.411822646856308 0.32543817162513733 0.17509882152080536 0.09803921729326248 0.09803921729326248 0.09803921729326248
0.3963054120540619 0.33712300658226013 0.0063241105526685715 0.1882352977991104 0.18039216101169586 0.12941177189350128
0.3768472969532013 0.3829149007797241 0.1462450623512268 0.32156863808631897 0.3137255012989044 0.3176470696926117
0.28029558062553406 0.37738826870918274 0.9889327883720398 0.3803921639919281 0.3686274588108063 0.30980393290519714
0.4364531934261322 0.35180798172950745 0.29486167430877686 0.572549045085907 0.5843137502670288 0.6196078658103943
0.42561575770378113 0.3278067409992218 0.29446640610694885 0.572549045085907 0.5764706134796143 0.5921568870544434
0.31083744764328003 0.23906521499156952 0.29446640610694885 0.6352941393852234 0.6431372761726379 0.6235294342041016
0.46650245785713196 0.3470709025859833 0.004743082914501429 0.43921568989753723 0.4274509847164154 0.3529411852359772
0.3576354682445526 0.3645981252193451 0.25296443700790405 0.12156862765550613 0.12156862765550613 0.11372549086809158
0.40197044610977173 0.35528185963630676 0.15770751237869263 0.21568627655506134 0.2078431397676468 0.21176470816135406
0.37142857909202576 0.2551713287830353 0.9881423115730286 0.2980392277240753 0.2862745225429535 0.2666666805744171
0.4293103516101837 0.25659245252609253 0.005533596966415644 0.12156862765550613 0.10980392247438431 0.09019608050584793
0.4753694534301758 0.259276807308197 0.004743082914501429 0.11764705926179886 0.12156862765550613 0.09803921729326248
0.39507389068603516 0.24317069351673126 0.0063241105526685715 0.14901961386203766 0.13725490868091583 0.10980392247438431
0.35911330580711365 0.32606980204582214 0.27430829405784607 0.07450980693101883 0.07450980693101883 0.06666667014360428
0.42733991146087646 0.3882835805416107 0.9881423115730286 0.38823530077934265 0.3764705955982208 0.34117648005485535
0.3261083662509918 0.2843833863735199 0.18063241243362427 0.10980392247438431 0.10980392247438431 0.10196078568696976
0.35911330580711365 0.2674877643585205 0.0071146246045827866 0.26274511218070984 0.2549019753932953 0.2078431397676468
0.25566503405570984 0.23969683051109314 0.17984189093112946 0.21176470816135406 0.21960784494876862 0.21568627655506134
0.25935959815979004 0.259276807308197 0.006719367578625679 0.10980392247438431 0.08627451211214066 0.03921568766236305
0.37093594670295715 0.34391283988952637 0.15533596277236938 0.21568627655506134 0.2078431397676468 0.21176470816135406
0.34753695130348206 0.34943944215774536 0.27786561846733093 0.09019608050584793 0.09019608050584793 0.08235294371843338
0.24827586114406586 0.2760145366191864 0.2501976191997528 0.16862745583057404 0.16470588743686676 0.14901961386203766
0.43522167205810547 0.34091266989707947 0.9873517751693726 0.3333333432674408 0.3137255012989044 0.29019609093666077
0.274137943983078 0.2640138864517212 0.17470355331897736 0.125490203499794 0.13333334028720856 0.12941177189350128
0.39137929677963257 0.3451760709285736 0.9873517751693726 0.32156863808631897 0.30980393290519714 0.29019609093666077
0.33940887451171875 0.32306963205337524 0.006719367578625679 0.5607843399047852 0.5686274766921997 0.4745098054409027
0.25 0.259276807308197 0.24189724028110504 0.14901961386203766 0.14901961386203766 0.1411764770746231
0.3970443308353424 0.3769145607948303 0.0071146246045827866 0.1764705926179886 0.1764705926179886 0.13725490868091583
0.3958128094673157 0.3426496088504791 0.16956521570682526 0.07058823853731155 0.07058823853731155 0.07058823853731155
0.27093595266342163 0.270330011844635 0.2288537621498108 0.08235294371843338 0.08235294371843338 0.08235294371843338
0.47364532947540283 0.3851255476474762 0.005928853526711464 0.125490203499794 0.12941177189350128 0.13725490868091583
0.47068965435028076 0.34043896198272705 0.9873517751693726 0.37254902720451355 0.3607843220233917 0.3333333432674408
0.28793102502822876 0.3650718331336975 0.9885375499725342 0.37254902720451355 0.3803921639919281 0.32549020648002625
0.35172414779663086 0.3657034635543823 0.31581026315689087 0.24313725531101227 0.26274511218070984 0.27843138575553894
0.4251231551170349 0.27790936827659607 0.005928853526711464 0.15294118225574493 0.1411764770746231 0.11372549086809158
0.4169950783252716 0.26006633043289185 0.29446640610694885 0.5529412031173706 0.5882353186607361 0.5843137502670288
0.3726601004600525 0.3475446105003357 0.15296442806720734 0.2235294133424759 0.21568627655506134 0.21960784494876862
0.25960591435432434 0.24348649382591248 0.2960474193096161 0.18431372940540314 0.20000000298023224 0.23529411852359772
0.3899014890193939 0.2576977610588074 0.29525691270828247 0.5254902243614197 0.5490196347236633 0.5333333611488342
0.31921181082725525 0.3450181484222412 0.0063241105526685715 0.615686297416687 0.6000000238418579 0.48627451062202454
0.43916255235671997 0.36080846190452576 0.1711462438106537 0.06666667014360428 0.05882352963089943 0.062745101749897
0.289901465177536 0.2411179542541504 0.006719367578625679 0.2666666805744171 0.250980406999588 0.20392157137393951
0.42266011238098145 0.3797568380832672 0.29486167430877686 0.5647059082984924 0.5803921818733215 0.6235294342041016
0.4325123131275177 0.3450181484222412 0.1719367653131485 0.0470588244497776 0.0470588244497776 0.0470588244497776
0.34729063510894775 0.3879677951335907 0.0071146246045827866 0.6980392336845398 0.7058823704719543 0.6509804129600525
0.4096059203147888 0.2498026192188263 0.9881423115730286 0.23137255012989044 0.21568627655506134 0.20392157137393951
0.31477832794189453 0.30254223942756653 0.16482213139533997 0.21960784494876862 0.21176470816135406 0.16078431904315948
0.41847291588783264 0.28312015533447266 0.29486167430877686 0.5960784554481506 0.615686297416687 0.6313725709915161
0.3288177251815796 0.35780829191207886 0.9881423115730286 0.37254902720451355 0.35686275362968445 0.30980393290519714
0.3490147888660431 0.24490763247013092 0.17351779341697693 0.0784313753247261 0.07450980693101883 0.06666667014360428
0.42266011238098145 0.3848097324371338 0.15968379378318787 0.49803921580314636 0.48235294222831726 0.48627451062202454
0.37512314319610596 0.3914416432380676 0.29407113790512085 0.6980392336845398 0.7450980544090271 0.800000011920929
0.29655173420906067 0.27696195244789124 0.17351779341697693 0.26274511218070984 0.27450981736183167 0.29411765933036804
0.40985220670700073 0.25706616044044495 0.29446640610694885 0.5254902243614197 0.5607843399047852 0.5490196347236633
0.43916255235671997 0.37249329686164856 0.1822134405374527 0.05098039284348488 0.05098039284348488 0.04313725605607033
0.25123152136802673 0.3442286550998688 0.006719367578625679 0.6392157077789307 0.6470588445663452 0.5960784554481506
0.3970443308353424 0.3394915461540222 0.16403162479400635 0.13333334028720856 0.13333334028720856 0.13333334028720856
0.4403941035270691 0.24553923308849335 0.29407113790512085 0.6431372761726379 0.6784313917160034 0.6666666865348816
0.4416256248950958 0.2952786982059479 0.29486167430877686 0.6627451181411743 0.6823529601097107 0.6941176652908325
0.35837438702583313 0.3440707325935364 0.261264830827713 0.09019608050584793 0.09019608050584793 0.08235294371843338
0.44679802656173706 0.3139112591743469 0.004347825888544321 0.0784313753247261 0.0784313753247261 0.0784313753247261
0.4721674919128418 0.28375178575515747 0.0015810276381671429 0.3333333432674408 0.3294117748737335 0.32156863808631897
0.3182266056537628 0.2384335994720459 0.29486167430877686 0.6039215922355652 0.6313725709915161 0.6000000238418579
0.3694581389427185 0.2414337545633316 0.006719367578625679 0.3019607961177826 0.29019609093666077 0.26274511218070984
0.2502463161945343 0.3587557375431061 0.9889327883720398 0.40392157435417175 0.3921568691730499 0.364705890417099
0.3499999940395355 0.2791725993156433 0.29486167430877686 0.5137255191802979 0.5137255191802979 0.5058823823928833
0.30689653754234314 0.3246486783027649 0.9881423115730286 0.35686275362968445 0.3529411852359772 0.3333333432674408
0.3736453056335449 0.3413863778114319 0.15810276567935944 0.2078431397676468 0.20000000298023224 0.20392157137393951
0.4128078818321228 0.3017527163028717 0.005928853526711464 0.1411764770746231 0.12156862765550613 0.09803921729326248
0.41453200578689575 0.281225323677063 0.29407113790512085 0.5882353186607361 0.6078431606292725 0.6235294342041016
0.2928571403026581 0.29464709758758545 0.0071146246045827866 0.3921568691730499 0.3921568691730499 0.2980392277240753
0.3854679763317108 0.2723827660083771 0.9881423115730286 0.26274511218070984 0.2666666805744171 0.24705882370471954
0.3689655065536499 0.24838149547576904 0.29525691270828247 0.5372549295425415 0.5607843399047852 0.545098066329956
0.34384235739707947 0.3505447506904602 0.31067192554473877 0.45098039507865906 0.46666666865348816 0.4627451002597809
0.41847291588783264 0.36965101957321167 0.1766798347234726 0.05882352963089943 0.05882352963089943 0.05882352963089943
0.3923645317554474 0.38907310366630554 0.17826086282730103 0.3450980484485626 0.3294117748737335 0.3176470696926117
0.42635467648506165 0.38023054599761963 0.29486167430877686 0.572549045085907 0.5882353186607361 0.6235294342041016
0.3305418789386749 0.27759355306625366 0.18023715913295746 0.10588235408067703 0.10588235408067703 0.09803921729326248
0.381280779838562 0.2709616422653198 0.9881423115730286 0.2823529541492462 0.27843138575553894 0.26274511218070984
0.40541872382164 0.3818095624446869 0.15335968136787415 0.4627451002597809 0.4470588266849518 0.45098039507865906
0.3497537076473236 0.34691300988197327 0.312648206949234 0.2549019753932953 0.27450981736183167 0.29019609093666077
0.38694581389427185 0.24774987995624542 0.9881423115730286 0.30588236451148987 0.29411765933036804 0.2666666805744171
0.43054187297821045 0.31470078229904175 0.004347825888544321 0.06666667014360428 0.07058823853731155 0.0470588244497776
0.4810344874858856 0.35812410712242126 0.2960474193096161 0.5686274766921997 0.5803921818733215 0.6000000238418579
0.37487685680389404 0.327333003282547 0.005928853526711464 0.3176470696926117 0.32156863808631897 0.25882354378700256
0.45024630427360535 0.3366492986679077 0.9873517751693726 0.30980393290519714 0.30980393290519714 0.2705882489681244
0.371921181678772 0.3844939172267914 0.9885375499725342 0.35686275362968445 0.3490196168422699 0.3019607961177826
0.41034483909606934 0.28264644742012024 0.9877470135688782 0.2980392277240753 0.2980392277240753 0.2666666805744171
0.3650246262550354 0.35228168964385986 0.14980237185955048 0.239215686917305 0.23137255012989044 0.23529411852359772
0.45467981696128845 0.30301594734191895 0.005533596966415644 0.23137255012989044 0.23529411852359772 0.21176470816135406
0.3482758700847626 0.3597031533718109 0.31897231936454773 0.2705882489681244 0.3019607961177826 0.3137255012989044
0.4041872024536133 0.2820148468017578 0.9877470135688782 0.29411765933036804 0.2823529541492462 0.2549019753932953
0.2655172348022461 0.34943944215774536 0.006719367578625679 0.6196078658103943 0.6196078658103943 0.5254902243614197
0.31576353311538696 0.3131217360496521 0.0071146246045827866 0.529411792755127 0.529411792755127 0.3803921639919281
0.45369458198547363 0.3657034635543823 0.18339921534061432 0.03529411926865578 0.027450980618596077 0.0313725508749485
0.42610836029052734 0.34864991903305054 0.1671936810016632 0.054901961237192154 0.054901961237192154 0.054901961237192154
0.4002462923526764 0.38670456409454346 0.1822134405374527 0.08627451211214066 0.10196078568696976 0.09803921729326248
0.26724138855934143 0.2589609920978546 0.16758893430233002 0.1725490242242813 0.19607843458652496 0.1882352977991104
0.34753695130348206 0.27411970496177673 0.18339921534061432 0.0941176488995552 0.0941176488995552 0.08627451211214066
0.4009852111339569 0.3079109489917755 0.29446640610694885 0.5686274766921997 0.5803921818733215 0.6078431606292725
0.26699507236480713 0.2728564739227295 0.006719367578625679 0.3686274588108063 0.34117648005485535 0.2666666805744171
0.35837438702583313 0.3473867177963257 0.25849801301956177 0.0941176488995552 0.0941176488995552 0.08627451211214066
0.4807881712913513 0.2936996817588806 0.0019762846641242504 0.29411765933036804 0.2980392277240753 0.27843138575553894
0.3566502332687378 0.3770724833011627 0.1513833999633789 0.19607843458652496 0.1882352977991104 0.1921568661928177
0.4433497488498688 0.356702983379364 0.18418972194194794 0.05882352963089943 0.05882352963089943 0.05882352963089943
0.37906405329704285 0.24617084860801697 0.17470355331897736 0.1411764770746231 0.11764705926179886 0.054901961237192154
0.3603448271751404 0.3761250674724579 0.29328063130378723 0.13725490868091583 0.1568627506494522 0.1725490242242813
0.35960590839385986 0.3615979850292206 0.23320157825946808 0.12941177189350128 0.12941177189350128 0.12156862765550613
0.3261083662509918 0.2731722593307495 0.17905138432979584 0.10980392247438431 0.10980392247438431 0.10196078568696976
0.3098522126674652 0.2959102988243103 0.29367589950561523 0.48235294222831726 0.4901960790157318 0.47843137383461
0.33546799421310425 0.24048633873462677 0.17075099050998688 0.07450980693101883 0.07058823853731155 0.062745101749897
0.4366995096206665 0.2528027892112732 0.17312252521514893 0.062745101749897 0.0784313753247261 0.07450980693101883
0.3463054299354553 0.3412284851074219 0.3071146309375763 0.3764705955982208 0.3843137323856354 0.3803921639919281
0.3605911433696747 0.24664455652236938 0.9881423115730286 0.26274511218070984 0.2666666805744171 0.24313725531101227
0.41157636046409607 0.2559608519077301 0.1762845814228058 0.09019608050584793 0.054901961237192154 0.07450980693101883
0.4199507534503937 0.30917418003082275 0.29446640610694885 0.6078431606292725 0.6196078658103943 0.6392157077789307
0.3421182334423065 0.24032843112945557 0.17075099050998688 0.0784313753247261 0.07450980693101883 0.06666667014360428
0.43497535586357117 0.38054633140563965 0.29525691270828247 0.5607843399047852 0.572549045085907 0.6078431606292725
0.4083743989467621 0.3049107789993286 0.9877470135688782 0.2862745225429535 0.2823529541492462 0.26274511218070984
0.37487685680389404 0.3876519799232483 0.1774703562259674 0.11764705926179886 0.1568627506494522 0.16078431904315948
0.3495073914527893 0.24601294100284576 0.006719367578625679 0.23137255012989044 0.2078431397676468 0.16078431904315948
0.4650246202945709 0.36917731165885925 0.006719367578625679 0.48235294222831726 0.4941176474094391 0.38823530077934265
0.2780788242816925 0.30885836482048035 0.0071146246045827866 0.45098039507865906 0.45098039507865906 0.30980393290519714
0.2862069010734558 0.3039633631706238 0.0071146246045827866 0.4431372582912445 0.4470588266849518 0.3764705955982208
0.3854679763317108 0.26322439312934875 0.0063241105526685715 0.13333334028720856 0.11372549086809158 0.09803921729326248
0.34261083602905273 0.28296226263046265 0.0071146246045827866 0.33725491166114807 0.3450980484485626 0.26274511218070984
0.29655173420906067 0.32338544726371765 0.9885375499725342 0.929411768913269 0.9490196108818054 0.9607843160629272
0.42216747999191284 0.2502763271331787 0.29446640610694885 0.5607843399047852 0.5921568870544434 0.6039215922355652
0.4002462923526764 0.2993841767311096 0.29486167430877686 0.5686274766921997 0.5803921818733215 0.6000000238418579
0.31231528520584106 0.3248065710067749 0.0071146246045827866 0.529411792755127 0.5490196347236633 0.4313725531101227
0.42241379618644714 0.2900679111480713 0.005533596966415644 0.1411764770746231 0.12941177189350128 0.0941176488995552
0.2746305465698242 0.24064424633979797 0.1873517781496048 0.08627451211214066 0.08627451211214066 0.08627451211214066
0.27167487144470215 0.32654350996017456 0.9881423115730286 1.0 1.0 1.0
0.32438424229621887 0.2763303220272064 0.17905138432979584 0.11764705926179886 0.11764705926179886 0.10980392247438431
0.2662561535835266 0.2835938632488251 0.0071146246045827866 0.3529411852359772 0.3450980484485626 0.26274511218070984
0.3105911314487457 0.27727773785591125 0.1762845814228058 0.250980406999588 0.2666666805744171 0.27843138575553894
0.45073890686035156 0.3641244173049927 0.1818181872367859 0.05098039284348488 0.05098039284348488 0.05098039284348488
0.28374382853507996 0.292278528213501 0.17075099050998688 0.16862745583057404 0.1882352977991104 0.20000000298023224
0.475862056016922 0.3186483383178711 0.29446640610694885 0.054901961237192154 0.05882352963089943 0.06666667014360428
0.35517242550849915 0.2676456570625305 0.18458497524261475 0.0784313753247261 0.0784313753247261 0.07058823853731155
0.2901477813720703 0.24617084860801697 0.9916995763778687 1.0 1.0 0.9921568632125854
0.27561575174331665 0.2989104688167572 0.15691699087619781 0.5372549295425415 0.5215686559677124 0.4745098054409027
0.445320188999176 0.3701247572898865 0.006719367578625679 0.4156862795352936 0.4156862795352936 0.3843137323856354
0.34359607100486755 0.3453339636325836 0.0063241105526685715 0.6078431606292725 0.6000000238418579 0.5176470875740051
0.38300493359565735 0.25785568356513977 0.1762845814228058 0.062745101749897 0.062745101749897 0.062745101749897
0.25246304273605347 0.3819674849510193 0.006719367578625679 0.545098066329956 0.5372549295425415 0.47843137383461
0.37857142090797424 0.3762829601764679 0.9881423115730286 0.3843137323856354 0.3843137323856354 0.33725491166114807
0.4770936071872711 0.30901625752449036 0.0035573123022913933 0.26274511218070984 0.2666666805744171 0.24705882370471954
0.4046798050403595 0.27948838472366333 0.29407113790512085 0.5529412031173706 0.572549045085907 0.5843137502670288
0.43399015069007874 0.25090792775154114 0.9881423115730286 0.27843138575553894 0.2666666805744171 0.23137255012989044
0.36748769879341125 0.2982788681983948 0.9881423115730286 0.27450981736183167 0.27843138575553894 0.2549019753932953
0.37487685680389404 0.33175429701805115 0.1881422996520996 0.054901961237192154 0.054901961237192154 0.054901961237192154
0.47438424825668335 0.30633190274238586 0.9877470135688782 0.3019607961177826 0.29019609093666077 0.26274511218070984
0.463300496339798 0.367756187915802 0.9877470135688782 0.37254902720451355 0.3607843220233917 0.34117648005485535
0.4413793087005615 0.35449233651161194 0.9873517751693726 0.35686275362968445 0.3450980484485626 0.30980393290519714
0.41009852290153503 0.34328123927116394 0.17391304671764374 0.054901961237192154 0.054901961237192154 0.054901961237192154
0.4209359586238861 0.3240170478820801 0.17826086282730103 0.08627451211214066 0.08627451211214066 0.08627451211214066
0.3455665111541748 0.37470394372940063 0.9885375499725342 0.3803921639919281 0.37254902720451355 0.32549020648002625
0.4514778256416321 0.23906521499156952 0.17549407482147217 0.24313725531101227 0.2549019753932953 0.21176470816135406
0.32339900732040405 0.3554397523403168 0.0063241105526685715 0.6509804129600525 0.686274528503418 0.6117647290229797
0.3083743751049042 0.2621190547943115 0.29407113790512085 0.5921568870544434 0.6000000238418579 0.5960784554481506
0.39507389068603516 0.3554397523403168 0.16798418760299683 0.07450980693101883 0.07450980693101883 0.07450980693101883
0.27635467052459717 0.24253907799720764 0.21067193150520325 0.35686275362968445 0.3450980484485626 0.30980393290519714
0.46650245785713196 0.29748934507369995 0.29446640610694885 0.5921568870544434 0.6117647290229797 0.6352941393852234
0.27266010642051697 0.27190905809402466 0.006719367578625679 0.3294117748737335 0.2980392277240753 0.2235294133424759
0.4913793206214905 0.3339649438858032 0.003952569328248501 0.5058823823928833 0.5254902243614197 0.40784314274787903
0.2504926025867462 0.3077530264854431 0.9885375499725342 1.0 1.0 1.0
0.4487684667110443 0.3615979850292206 0.2956521809101105 0.5607843399047852 0.572549045085907 0.6078431606292725
0.2652709484100342 0.38654667139053345 0.9893280863761902 0.40392157435417175 0.3960784375667572 0.3490196168422699
0.4849753677845001 0.3530712127685547 0.9877470135688782 0.3607843220233917 0.3490196168422699 0.32156863808631897
0.37955665588378906 0.35843992233276367 0.29407113790512085 0.5215686559677124 0.5411764979362488 0.5568627715110779
0.4524630606174469 0.2790146768093109 0.17905138432979584 0.0784313753247261 0.07450980693101883 0.06666667014360428
0.44285714626312256 0.3042791783809662 0.9877470135688782 0.3176470696926117 0.3137255012989044 0.29411765933036804
0.2935960590839386 0.2985946536064148 0.9897233247756958 0.7843137383460999 0.8156862854957581 0.8901960849761963
0.435960590839386 0.2674877643585205 0.17865613102912903 0.06666667014360428 0.06666667014360428 0.07450980693101883
0.27906402945518494 0.2963840067386627 0.15177865326404572 0.5803921818733215 0.5490196347236633 0.4745098054409027
0.37512314319610596 0.25706616044044495 0.18102766573429108 0.03529411926865578 0.0470588244497776 0.019607843831181526
0.45098522305488586 0.34580767154693604 0.005138339940458536 0.26274511218070984 0.23137255012989044 0.1882352977991104
0.37832513451576233 0.36601927876472473 0.14980237185955048 0.27843138575553894 0.2705882489681244 0.27450981736183167
0.3280788064002991 0.24617084860801697 0.29486167430877686 0.572549045085907 0.5921568870544434 0.5764706134796143
0.3334975242614746 0.3530712127685547 0.9881423115730286 0.3686274588108063 0.3607843220233917 0.30980393290519714
0.37487685680389404 0.26606664061546326 0.006719367578625679 0.08235294371843338 0.0784313753247261 0.07058823853731155
0.42709359526634216 0.2848570942878723 0.18063241243362427 0.054901961237192154 0.054901961237192154 0.054901961237192154
0.27906402945518494 0.3195957541465759 0.006719367578625679 0.5607843399047852 0.5607843399047852 0.46666666865348816
0.4642857015132904 0.30601611733436584 0.0019762846641242504 0.30980393290519714 0.30588236451148987 0.29019609093666077
0.37167486548423767 0.3813358545303345 0.14822134375572205 0.30980393290519714 0.3019607961177826 0.30588236451148987
0.4610837399959564 0.321648508310318 0.9873517751693726 0.3294117748737335 0.30980393290519714 0.2862745225429535
0.336699515581131 0.23795989155769348 0.16916996240615845 0.07058823853731155 0.06666667014360428 0.05882352963089943
0.43399015069007874 0.3535449206829071 0.16956521570682526 0.054901961237192154 0.05098039284348488 0.04313725605607033
0.4834975302219391 0.33759671449661255 0.29525691270828247 0.5490196347236633 0.5607843399047852 0.5960784554481506
0.2655172348022461 0.2678035795688629 0.27391305565834045 0.125490203499794 0.13725490868091583 0.1568627506494522
0.371921181678772 0.3795989155769348 0.21541501581668854 0.12941177189350128 0.12941177189350128 0.12156862765550613
0.25615763664245605 0.3225959241390228 0.006719367578625679 0.4901960790157318 0.501960813999176 0.3960784375667572
0.2662561535835266 0.29685771465301514 0.2284584939479828 0.27450981736183167 0.29411765933036804 0.30980393290519714
0.4923645257949829 0.2704879343509674 0.29486167430877686 0.5137255191802979 0.545098066329956 0.5568627715110779
0.4199507534503937 0.33554399013519287 0.005533596966415644 0.18039216101169586 0.16862745583057404 0.13333334028720856
0.34778323769569397 0.2982788681983948 0.9881423115730286 0.2862745225429535 0.29019609093666077 0.2705882489681244
0.35443350672721863 0.2638559937477112 0.18379446864128113 0.08235294371843338 0.08235294371843338 0.07450980693101883
0.4527093470096588 0.27490919828414917 0.9877470135688782 0.25882354378700256 0.24705882370471954 0.22745098173618317
0.41034483909606934 0.28264644742012024 0.9877470135688782 0.2980392277240753 0.2980392277240753 0.2666666805744171
0.2746305465698242 0.38007262349128723 0.006719367578625679 0.6509804129600525 0.6549019813537598 0.5921568870544434
0.47881773114204407 0.3077530264854431 0.29446640610694885 0.5529412031173706 0.5647059082984924 0.5921568870544434
0.3130541741847992 0.3480183184146881 0.9881423115730286 0.33725491166114807 0.33725491166114807 0.2980392277240753
0.35147783160209656 0.34659719467163086 0.0063241105526685715 0.4941176474094391 0.5137255191802979 0.42352941632270813
0.3490147888660431 0.25485551357269287 0.006719367578625679 0.23529411852359772 0.22745098173618317 0.18039216101169586
0.31970444321632385 0.30301594734191895 0.29367589950561523 0.4627451002597809 0.47058823704719543 0.45098039507865906
0.4613300561904907 0.356545090675354 0.2960474193096161 0.5529412031173706 0.5647059082984924 0.6000000238418579
0.2738916277885437 0.24522343277931213 0.992094874382019 0.9882352948188782 0.9921568632125854 1.0
0.4564039409160614 0.24569714069366455 0.29367589950561523 0.686274528503418 0.7333333492279053 0.7333333492279053
0.39433497190475464 0.3480183184146881 0.006719367578625679 0.1882352977991104 0.1882352977991104 0.14901961386203766
0.43152710795402527 0.24917100369930267 0.9881423115730286 0.30588236451148987 0.29411765933036804 0.2666666805744171
0.28423646092414856 0.27727773785591125 0.9905138611793518 0.9803921580314636 0.9803921580314636 0.9882352948188782
0.43866994976997375 0.38891521096229553 0.006719367578625679 0.3137255012989044 0.3019607961177826 0.2823529541492462
0.4761083722114563 0.2409600466489792 0.9881423115730286 0.29411765933036804 0.2980392277240753 0.27450981736183167
0.4123152792453766 0.26575082540512085 0.29446640610694885 0.5490196347236633 0.5843137502670288 0.5803921818733215
0.40763548016548157 0.3098057806491852 0.9877470135688782 0.29019609093666077 0.2862745225429535 0.2666666805744171
0.47733989357948303 0.35496604442596436 0.005138339940458536 0.46666666865348816 0.4588235318660736 0.3764705955982208
0.4556650221347809 0.3336491286754608 0.9873517751693726 0.3137255012989044 0.3137255012989044 0.27450981736183167
0.3421182334423065 0.2704879343509674 0.29486167430877686 0.5098039507865906 0.5176470875740051 0.5058823823928833
0.2736453115940094 0.25722405314445496 0.19130434095859528 0.24313725531101227 0.25882354378700256 0.2549019753932953
0.4238916337490082 0.2581714689731598 0.005138339940458536 0.1568627506494522 0.14509804546833038 0.125490203499794
0.4684728980064392 0.23922312259674072 0.005533596966415644 0.34117648005485535 0.3294117748737335 0.2705882489681244
0.38300493359565735 0.26606664061546326 0.0063241105526685715 0.08627451211214066 0.08235294371843338 0.06666667014360428
0.3933497667312622 0.3308068811893463 0.16798418760299683 0.1411764770746231 0.1411764770746231 0.1411764770746231
0.34261083602905273 0.34580767154693604 0.9877470135688782 0.32156863808631897 0.32156863808631897 0.2823529541492462
0.4879310429096222 0.26259276270866394 0.004347825888544321 0.34117648005485535 0.3529411852359772 0.2705882489681244
0.4763546884059906 0.36949312686920166 0.9877470135688782 0.3803921639919281 0.3686274588108063 0.3490196168422699
0.4366995096206665 0.3598610460758209 0.006719367578625679 0.2235294133424759 0.21568627655506134 0.16862745583057404
0.39926108717918396 0.3685457110404968 0.29446640610694885 0.5490196347236633 0.5607843399047852 0.5882353186607361
0.32339900732040405 0.3901784420013428 0.0071146246045827866 0.615686297416687 0.6274510025978088 0.545098066329956
0.2497536987066269 0.27996209263801575 0.0071146246045827866 0.4470588266849518 0.4627451002597809 0.3333333432674408
0.4120689630508423 0.275856614112854 0.9877470135688782 0.29411765933036804 0.29411765933036804 0.26274511218070984
0.41108375787734985 0.34107059240341187 0.9873517751693726 0.3333333432674408 0.32156863808631897 0.29411765933036804
0.36305418610572815 0.2387494146823883 0.9885375499725342 0.2862745225429535 0.2705882489681244 0.25882354378700256
0.2778325080871582 0.2531185746192932 0.2446640282869339 0.45098039507865906 0.45490196347236633 0.4313725531101227
0.26773399114608765 0.24838149547576904 0.006719367578625679 0.13333334028720856 0.12156862765550613 0.0941176488995552
0.43768471479415894 0.3844939172267914 0.18418972194194794 0.04313725605607033 0.05098039284348488 0.0470588244497776
0.39458128809928894 0.33238592743873596 0.9877470135688782 0.32549020648002625 0.3137255012989044 0.2862745225429535
0.3280788064002991 0.27696195244789124 0.29446640610694885 0.49803921580314636 0.5058823823928833 0.48627451062202454
0.41798028349876404 0.37249329686164856 0.006719367578625679 0.18039216101169586 0.1725490242242813 0.12156862765550613
0.39408865571022034 0.28012001514434814 0.16916996240615845 0.062745101749897 0.062745101749897 0.062745101749897
0.33522167801856995 0.30017369985580444 0.0071146246045827866 0.10588235408067703 0.11764705926179886 0.09019608050584793
0.29064038395881653 0.3393336534500122 0.006719367578625679 0.6666666865348816 0.686274528503418 0.5960784554481506
0.3135468065738678 0.3848097324371338 0.0071146246045827866 0.6901960968971252 0.7019608020782471 0.6196078658103943
0.3729064166545868 0.34912362694740295 0.0063241105526685715 0.3686274588108063 0.3764705955982208 0.32549020648002625
0.475862056016922 0.34391283988952637 0.2960474193096161 0.5529412031173706 0.5686274766921997 0.6117647290229797
0.34236451983451843 0.2816990315914154 0.29486167430877686 0.49803921580314636 0.5058823823928833 0.4941176474094391
0.2694581151008606 0.27190905809402466 0.24308300018310547 0.0784313753247261 0.07450980693101883 0.06666667014360428
0.3576354682445526 0.3328596353530884 0.2699604630470276 0.08235294371843338 0.07450980693101883 0.0784313753247261
0.4911330044269562 0.27475130558013916 0.0031620552763342857 0.1882352977991104 0.18431372940540314 0.16862745583057404
0.4645320177078247 0.36096635460853577 0.005928853526711464 0.4431372582912445 0.4470588266849518 0.42352941632270813
0.46305418014526367 0.3617558777332306 0.005928853526711464 0.3764705955982208 0.3960784375667572 0.3686274588108063
0.492118239402771 0.2673298716545105 0.003952569328248501 0.15294118225574493 0.15294118225574493 0.11372549086809158
0.33842363953590393 0.34864991903305054 0.0063241105526685715 0.615686297416687 0.6313725709915161 0.5411764979362488
0.3536945879459381 0.32322752475738525 0.9877470135688782 0.3019607961177826 0.3019607961177826 0.26274511218070984
0.48275861144065857 0.3933365046977997 0.9881423115730286 0.3764705955982208 0.364705890417099 0.3450980484485626
0.3295566439628601 0.27506712079048157 0.9881423115730286 0.25882354378700256 0.26274511218070984 0.239215686917305
0.4394088685512543 0.259118914604187 0.9877470135688782 0.27450981736183167 0.26274511218070984 0.23529411852359772
0.34729063510894775 0.3484920263290405 0.31581026315689087 0.2823529541492462 0.3019607961177826 0.3176470696926117
0.4211822748184204 0.3336491286754608 0.9873517751693726 0.30588236451148987 0.29411765933036804 0.2666666805744171
0.3490147888660431 0.2790146768093109 0.29486167430877686 0.5137255191802979 0.5137255191802979 0.5058823823928833
0.4248768389225006 0.3936522901058197 0.17865613102912903 0.4117647111415863 0.3960784375667572 0.3843137323856354
0.36206895112991333 0.3470709025859833 0.9877470135688782 0.32156863808631897 0.32156863808631897 0.27450981736183167
0.33596059679985046 0.24759197235107422 0.29486167430877686 0.5490196347236633 0.572549045085907 0.5568627715110779
0.2613300383090973 0.27143535017967224 0.006719367578625679 0.2980392277240753 0.25882354378700256 0.21960784494876862
0.29211822152137756 0.26054003834724426 0.991304337978363 0.9333333373069763 0.9450980424880981 0.9803921580314636
0.2573891580104828 0.23811779916286469 0.006719367578625679 0.4000000059604645 0.3960784375667572 0.3137255012989044
0.3921182155609131 0.3740723133087158 0.1762845814228058 0.13333334028720856 0.13333334028720856 0.13333334028720856
0.4886699616909027 0.327175110578537 0.9877470135688782 0.3450980484485626 0.3333333432674408 0.3137255012989044
0.38226601481437683 0.3879677951335907 0.18102766573429108 0.3843137323856354 0.32549020648002625 0.3137255012989044
0.36280786991119385 0.372967004776001 0.208695650100708 0.14901961386203766 0.1568627506494522 0.15294118225574493
0.29630541801452637 0.2529606819152832 0.17391304671764374 0.18039216101169586 0.1882352977991104 0.18431372940540314
0.37068966031074524 0.3246486783027649 0.005928853526711464 0.37254902720451355 0.364705890417099 0.2823529541492462
0.44211822748184204 0.24332860112190247 0.17351779341697693 0.07450980693101883 0.07058823853731155 0.062745101749897
0.31871920824050903 0.27727773785591125 0.29407113790512085 0.501960813999176 0.5058823823928833 0.48627451062202454
0.48546797037124634 0.3039633631706238 0.0035573123022913933 0.3176470696926117 0.32549020648002625 0.30588236451148987
0.4416256248950958 0.2955945134162903 0.005138339940458536 0.06666667014360428 0.07058823853731155 0.0470588244497776
0.4369458258152008 0.37565135955810547 0.29525691270828247 0.572549045085907 0.5843137502670288 0.6117647290229797
0.35862070322036743 0.2526448667049408 0.006719367578625679 0.20392157137393951 0.19607843458652496 0.14901961386203766
0.2785714268684387 0.24869729578495026 0.23003952205181122 0.0941176488995552 0.09019608050584793 0.08235294371843338
0.4288177192211151 0.30064740777015686 0.29486167430877686 0.6039215922355652 0.6235294342041016 0.6392157077789307
0.32044336199760437 0.281383216381073 0.9881423115730286 0.364705890417099 0.37254902720451355 0.3529411852359772
0.34679803252220154 0.33554399013519287 0.2976284623146057 0.0784313753247261 0.0784313753247261 0.07058823853731155
0.41551724076271057 0.25485551357269287 0.005928853526711464 0.1411764770746231 0.13725490868091583 0.11764705926179886
0.48201969265937805 0.31770092248916626 0.9877470135688782 0.32549020648002625 0.3137255012989044 0.27843138575553894
0.48201969265937805 0.29796305298805237 0.9877470135688782 0.29019609093666077 0.27843138575553894 0.25882354378700256
0.27118226885795593 0.2679614722728729 0.9905138611793518 0.9803921580314636 0.9843137264251709 1.0
0.4157635569572449 0.37217748165130615 0.29486167430877686 0.5647059082984924 0.5803921818733215 0.615686297416687
0.34261083602905273 0.3139112591743469 0.0071146246045827866 0.09019608050584793 0.09019608050584793 0.08235294371843338
0.31970444321632385 0.3219643235206604 0.0071146246045827866 0.5333333611488342 0.5529412031173706 0.4627451002597809
0.42709359526634216 0.3699668347835541 0.1620553433895111 0.5490196347236633 0.5333333611488342 0.5372549295425415
0.4157635569572449 0.3243328630924225 0.17786560952663422 0.05098039284348488 0.05098039284348488 0.05098039284348488
0.3251231610774994 0.31217432022094727 0.0071146246045827866 0.48627451062202454 0.45490196347236633 0.364705890417099
0.4325123131275177 0.286594033241272 0.9877470135688782 0.27843138575553894 0.27843138575553894 0.24705882370471954
0.27536946535110474 0.32370123267173767 0.006719367578625679 0.47843137383461 0.4941176474094391 0.4274509847164154
0.3660098612308502 0.3794410228729248 0.18498024344444275 0.4117647111415863 0.4274509847164154 0.37254902720451355
0.3935960531234741 0.34043896198272705 0.16245059669017792 0.14901961386203766 0.14901961386203766 0.14901961386203766
0.29556649923324585 0.28327807784080505 0.17430830001831055 0.27843138575553894 0.29019609093666077 0.30980393290519714
0.27487683296203613 0.2387494146823883 0.26205533742904663 0.33725491166114807 0.3450980484485626 0.32549020648002625
0.24704433977603912 0.270172119140625 0.2699604630470276 0.16470588743686676 0.16862745583057404 0.14901961386203766
0.33916255831718445 0.3154902756214142 0.291304349899292 0.0784313753247261 0.0784313753247261 0.07058823853731155
0.4049261212348938 0.34059688448905945 0.17272727191448212 0.054901961237192154 0.054901961237192154 0.054901961237192154
0.4559113383293152 0.3022264242172241 0.29446640610694885 0.615686297416687 0.6313725709915161 0.6431372761726379
0.33916255831718445 0.3701247572898865 0.006719367578625679 0.5490196347236633 0.5490196347236633 0.45490196347236633
0.2825123071670532 0.27427759766578674 0.1723320186138153 0.239215686917305 0.2549019753932953 0.2666666805744171
0.29630541801452637 0.3477025032043457 0.9881423115730286 0.34117648005485535 0.34117648005485535 0.3019607961177826
0.2657635509967804 0.2880151569843292 0.2711462378501892 0.14509804546833038 0.16078431904315948 0.1725490242242813
0.27684730291366577 0.2726985514163971 0.9905138611793518 0.9843137264251709 0.9882352948188782 0.9960784316062927
0.2657635509967804 0.32038527727127075 0.9881423115730286 1.0 1.0 1.0
0.321921169757843 0.38038843870162964 0.9885375499725342 0.3764705955982208 0.3686274588108063 0.32156863808631897
0.46650245785713196 0.29748934507369995 0.29446640610694885 0.5921568870544434 0.6117647290229797 0.6352941393852234
0.48571428656578064 0.3420180082321167 0.9877470135688782 0.30980393290519714 0.30980393290519714 0.27843138575553894
0.3758620619773865 0.34391283988952637 0.0063241105526685715 0.25882354378700256 0.26274511218070984 0.20000000298023224
0.4674876928329468 0.3276488184928894 0.9873517751693726 0.3333333432674408 0.3333333432674408 0.29411765933036804
0.36280786991119385 0.3453339636325836 0.16442687809467316 0.23137255012989044 0.26274511218070984 0.2705882489681244
