0.18399015069007874 0.707721471786499 0.991304337978363 0.9529411792755127 0.95686274766922 0.9647058844566345
0.21748767793178558 0.7141954898834229 0.007905138656497002 0.5764706134796143 0.5647059082984924 0.4901960790157318
0.005911330226808786 0.6894047260284424 0.8229249119758606 0.6313725709915161 0.6470588445663452 0.5803921818733215
0.00665024621412158 0.751776397228241 0.8213438987731934 0.6666666865348816 0.6666666865348816 0.6274510025978088
0.00665024621412158 0.7055107951164246 0.6083003878593445 0.6980392336845398 0.7019608020782471 0.6470588445663452
0.12783251702785492 0.6668245792388916 0.9909090995788574 0.41960784792900085 0.40392157435417175 0.4000000059604645
0.23201970756053925 0.7438812851905823 0.9936758875846863 0.9647058844566345 0.9803921580314636 0.9921568632125854
0.00665024621412158 0.6905100345611572 0.5241106748580933 0.6823529601097107 0.6941176652908325 0.6509804129600525
0.00665024621412158 0.6698247194290161 0.4158102869987488 0.686274528503418 0.6901960968971252 0.658823549747467
0.00911330059170723 0.6715616583824158 0.04782608523964882 0.2823529541492462 0.24705882370471954 0.18039216101169586
0.22512315213680267 0.6955628991127014 0.9936758875846863 0.9490196108818054 0.9686274528503418 0.9921568632125854
0.18546797335147858 0.6584557294845581 0.00830039568245411 0.5137255191802979 0.5137255191802979 0.46666666865348816
0.008374384604394436 0.7470393180847168 0.17588932812213898 0.7019608020782471 0.7176470756530762 0.658823549747467
0.008374384604394436 0.7705668807029724 0.16956521570682526 0.7098039388656616 0.7098039388656616 0.6627451181411743
0.05591132864356041 0.6715616583824158 0.01067193690687418 0.5333333611488342 0.5411764979362488 0.49803921580314636
0.18128079175949097 0.6475604176521301 0.00830039568245411 0.5490196347236633 0.5333333611488342 0.48627451062202454
0.00665024621412158 0.654666006565094 0.37707510590553284 0.686274528503418 0.6901960968971252 0.6705882549285889
0.0064039407297968864 0.6317700743675232 0.343478262424469 0.6627451181411743 0.686274528503418 0.6392157077789307
0.007635468151420355 0.6995105147361755 0.23636363446712494 0.6509804129600525 0.6823529601097107 0.6235294342041016
0.008128078654408455 0.7536712288856506 0.2656126618385315 0.6705882549285889 0.686274528503418 0.6313725709915161
0.0071428571827709675 0.7805147767066956 0.6608695387840271 0.6745098233222961 0.6705882549285889 0.6509804129600525
0.00665024621412158 0.745934009552002 0.9363636374473572 0.47843137383461 0.48235294222831726 0.41960784792900085
0.006896551698446274 0.7470393180847168 0.7063241004943848 0.7137255072593689 0.7058823704719543 0.658823549747467
0.0064039407297968864 0.7254065871238708 0.7743083238601685 0.6941176652908325 0.6980392336845398 0.6352941393852234
0.2337438464164734 0.7231959700584412 0.9932806491851807 0.9686274528503418 0.9803921580314636 1.0
0.21527093648910522 0.6984052062034607 0.9932806491851807 0.9372549057006836 0.95686274766922 0.9803921580314636
0.005665024742484093 0.6701405048370361 0.7430830001831055 0.7137255072593689 0.7176470756530762 0.6549019813537598
0.12068965286016464 0.6755092144012451 0.9909090995788574 0.43921568989753723 0.42352941632270813 0.4117647111415863
0.0071428571827709675 0.696984052658081 0.33992093801498413 0.6352941393852234 0.658823549747467 0.6196078658103943
0.00665024621412158 0.6740881204605103 0.3853754997253418 0.6901960968971252 0.686274528503418 0.6666666865348816
0.005911330226808786 0.6783515214920044 0.6426877379417419 0.7098039388656616 0.7137255072593689 0.6901960968971252
0.24285714328289032 0.7740407586097717 0.9936758875846863 0.9647058844566345 0.9686274528503418 0.9843137264251709
0.006896551698446274 0.7045633792877197 0.5359683632850647 0.6745098233222961 0.6901960968971252 0.6313725709915161
0.006896551698446274 0.7686720490455627 0.7928853631019592 0.6941176652908325 0.6901960968971252 0.6823529601097107
0.23645320534706116 0.7421443462371826 0.007905138656497002 0.6352941393852234 0.615686297416687 0.5372549295425415
0.006157635245472193 0.6481919884681702 0.4592885375022888 0.6823529601097107 0.6941176652908325 0.658823549747467
0.007635468151420355 0.7492499351501465 0.41383400559425354 0.6549019813537598 0.6627451181411743 0.658823549747467
0.18004925549030304 0.7123006582260132 0.9909090995788574 0.9490196108818054 0.9490196108818054 0.95686274766922
0.0071428571827709675 0.6870361566543579 0.3110671937465668 0.6392157077789307 0.6509804129600525 0.6078431606292725
0.23719212412834167 0.7385125756263733 0.9936758875846863 0.9764705896377563 0.9803921580314636 1.0
0.008620689623057842 0.6516658663749695 0.06047431007027626 0.30588236451148987 0.27450981736183167 0.2235294133424759
0.11305418610572815 0.777672529220581 0.008695651777088642 0.5411764979362488 0.5372549295425415 0.46666666865348816
0.005911330226808786 0.6745617985725403 0.6126482486724854 0.7098039388656616 0.7098039388656616 0.6627451181411743
0.007881773635745049 0.740881085395813 0.2703557312488556 0.658823549747467 0.6745098233222961 0.6196078658103943
0.08128079026937485 0.638086199760437 0.9909090995788574 0.30980393290519714 0.2980392277240753 0.2705882489681244
0.006896551698446274 0.7751460671424866 0.9241106510162354 0.48627451062202454 0.4901960790157318 0.43529412150382996
0.007881773635745049 0.7560397982597351 0.3909091055393219 0.6352941393852234 0.6431372761726379 0.6313725709915161
0.00665024621412158 0.6811937689781189 0.4521739184856415 0.686274528503418 0.6941176652908325 0.6392157077789307
0.006896551698446274 0.6881414651870728 0.46126481890678406 0.6705882549285889 0.6941176652908325 0.6392157077789307
0.007635468151420355 0.7838307023048401 0.5320158004760742 0.6392157077789307 0.6470588445663452 0.6039215922355652
0.008128078654408455 0.7824096083641052 0.4205533564090729 0.6509804129600525 0.6549019813537598 0.6313725709915161
0.007635468151420355 0.7561976909637451 0.4794466495513916 0.6313725709915161 0.6509804129600525 0.6352941393852234
0.008374384604394436 0.7557240128517151 0.2031620591878891 0.7019608020782471 0.7176470756530762 0.658823549747467
0.005665024742484093 0.6729828119277954 0.9418972134590149 0.4588235318660736 0.4627451002597809 0.4000000059604645
0.015517241321504116 0.7170377373695374 0.011462450958788395 0.42352941632270813 0.4117647111415863 0.3529411852359772
0.0064039407297968864 0.7413548231124878 0.9355731010437012 0.48235294222831726 0.48627451062202454 0.42352941632270813
0.14433497190475464 0.7621980309486389 0.00830039568245411 0.5803921818733215 0.5764706134796143 0.5058823823928833
0.006157635245472193 0.7173535227775574 0.8707509636878967 0.5882353186607361 0.6000000238418579 0.5647059082984924
0.008374384604394436 0.75746089220047 0.17826086282730103 0.7058823704719543 0.7176470756530762 0.6509804129600525
0.0913793072104454 0.7034580707550049 0.00909090880304575 0.5098039507865906 0.5137255191802979 0.4588235318660736
0.21699507534503937 0.6428232789039612 0.007905138656497002 0.48627451062202454 0.49803921580314636 0.4313725531101227
0.20812807977199554 0.6939839124679565 0.00830039568245411 0.5568627715110779 0.5568627715110779 0.5098039507865906
0.10935960710048676 0.7607768774032593 0.9897233247756958 0.40784314274787903 0.40392157435417175 0.3843137323856354
0.09187192469835281 0.6477183103561401 0.009486165829002857 0.46666666865348816 0.4745098054409027 0.4313725531101227
0.10073891282081604 0.7381967306137085 0.008695651777088642 0.529411792755127 0.5372549295425415 0.48627451062202454
0.1189655140042305 0.718616783618927 0.9905138611793518 0.4117647111415863 0.4000000059604645 0.3803921639919281
0.0064039407297968864 0.7321964502334595 0.8636363744735718 0.6078431606292725 0.6117647290229797 0.5803921818733215
0.19162560999393463 0.7440391778945923 0.007905138656497002 0.658823549747467 0.6627451181411743 0.5921568870544434
0.008128078654408455 0.7127743363380432 0.19486166536808014 0.6745098233222961 0.7019608020782471 0.6392157077789307
0.005665024742484093 0.6702984571456909 0.9739130139350891 0.3843137323856354 0.37254902720451355 0.30588236451148987
0.0071428571827709675 0.7681983113288879 0.6624506115913391 0.6745098233222961 0.6666666865348816 0.6784313917160034
0.2103448212146759 0.6685615181922913 0.9960474371910095 0.9490196108818054 0.9686274528503418 0.9921568632125854
0.009605911560356617 0.7566714286804199 0.06007905304431915 0.30588236451148987 0.29411765933036804 0.23529411852359772
0.22315271198749542 0.6871940493583679 0.9944664239883423 0.9490196108818054 0.9607843160629272 0.9882352948188782
0.0071428571827709675 0.7025106549263 0.36758893728256226 0.6666666865348816 0.6705882549285889 0.6392157077789307
0.00665024621412158 0.7623559236526489 0.8177865743637085 0.658823549747467 0.6666666865348816 0.6470588445663452
0.008374384604394436 0.7730933427810669 0.25691699981689453 0.6901960968971252 0.7058823704719543 0.6509804129600525
0.005418719258159399 0.6552976369857788 0.89486163854599 0.5372549295425415 0.5372549295425415 0.4901960790157318
0.22487685084342957 0.6691930890083313 0.9960474371910095 1.0 1.0 1.0
0.007635468151420355 0.6660350561141968 0.2023715376853943 0.658823549747467 0.6745098233222961 0.615686297416687
0.007881773635745049 0.746565580368042 0.31936758756637573 0.6235294342041016 0.6509804129600525 0.5882353186607361
0.0071428571827709675 0.7157745361328125 0.4466403126716614 0.6705882549285889 0.6823529601097107 0.6392157077789307
0.13768473267555237 0.7727774977684021 0.00830039568245411 0.5137255191802979 0.5176470875740051 0.4627451002597809
0.007881773635745049 0.7432496547698975 0.24861660599708557 0.6784313917160034 0.6941176652908325 0.6352941393852234
0.11231526732444763 0.7590399384498596 0.9897233247756958 0.4000000059604645 0.3960784375667572 0.3764705955982208
0.21527093648910522 0.6991946697235107 0.007905138656497002 0.5254902243614197 0.529411792755127 0.4588235318660736
0.13349753618240356 0.6644560098648071 0.9909090995788574 0.4117647111415863 0.3960784375667572 0.4000000059604645
0.00665024621412158 0.7170377373695374 0.6304348111152649 0.7019608020782471 0.7019608020782471 0.6627451181411743
0.05246305465698242 0.7651981711387634 0.009486165829002857 0.48627451062202454 0.4745098054409027 0.4000000059604645
0.1822660118341446 0.7037738561630249 0.00830039568245411 0.5411764979362488 0.5176470875740051 0.47058823704719543
0.005172413773834705 0.6319279670715332 0.8411067128181458 0.5960784554481506 0.6078431606292725 0.5647059082984924
0.007635468151420355 0.7344070672988892 0.37747034430503845 0.6470588445663452 0.6549019813537598 0.6431372761726379
0.005911330226808786 0.6635085940361023 0.6007905006408691 0.7098039388656616 0.7176470756530762 0.6745098233222961
0.06477832794189453 0.751460611820221 0.00909090880304575 0.5254902243614197 0.5215686559677124 0.4431372582912445
0.007389162667095661 0.7260382175445557 0.4055335819721222 0.6705882549285889 0.6705882549285889 0.6627451181411743
0.008374384604394436 0.7724617123603821 0.2968379557132721 0.658823549747467 0.6666666865348816 0.6117647290229797
0.005665024742484093 0.6627190709114075 0.9083003997802734 0.5176470875740051 0.5176470875740051 0.47058823704719543
0.21477831900119781 0.6892467737197876 0.00830039568245411 0.5803921818733215 0.5764706134796143 0.5058823823928833
0.006896551698446274 0.7503553032875061 0.6806324124336243 0.6980392336845398 0.6901960968971252 0.6431372761726379
0.22684729099273682 0.7511448264122009 0.007905138656497002 0.4470588266849518 0.45098039507865906 0.3803921639919281
0.18078817427158356 0.7329859733581543 0.007905138656497002 0.572549045085907 0.5647059082984924 0.5137255191802979
0.13842365145683289 0.7629875540733337 0.00830039568245411 0.5254902243614197 0.5333333611488342 0.48235294222831726
0.007635468151420355 0.7059845328330994 0.2600790560245514 0.6431372761726379 0.6745098233222961 0.615686297416687
0.006896551698446274 0.7138797044754028 0.5308300256729126 0.6627451181411743 0.6901960968971252 0.6196078658103943
0.00665024621412158 0.7418285012245178 0.7719367742538452 0.6941176652908325 0.6980392336845398 0.6431372761726379
0.006896551698446274 0.7854097485542297 0.8256916999816895 0.6431372761726379 0.6470588445663452 0.6235294342041016
0.031527094542980194 0.7091425657272339 0.9901185631752014 0.41960784792900085 0.4117647111415863 0.364705890417099
0.007389162667095661 0.7224064469337463 0.35177865624427795 0.6352941393852234 0.6666666865348816 0.6235294342041016
0.00665024621412158 0.6642981171607971 0.40434783697128296 0.6901960968971252 0.6901960968971252 0.6509804129600525
0.08866994827985764 0.7825675010681152 0.00909090880304575 0.501960813999176 0.49803921580314636 0.4274509847164154
0.0672413781285286 0.7697773575782776 0.9897233247756958 0.3764705955982208 0.3686274588108063 0.32156863808631897
0.10000000149011612 0.7206695079803467 0.9901185631752014 0.4156862795352936 0.40784314274787903 0.3607843220233917
0.00665024621412158 0.7310910820960999 0.7197628617286682 0.7137255072593689 0.7176470756530762 0.6627451181411743
0.008866994641721249 0.7831991314888 0.12134387344121933 0.6431372761726379 0.6470588445663452 0.5843137502670288
0.006157635245472193 0.6706142425537109 0.5245059132575989 0.6901960968971252 0.7019608020782471 0.658823549747467
0.20566502213478088 0.7194063067436218 0.992094874382019 0.9450980424880981 0.95686274766922 0.9764705896377563
0.0517241396009922 0.7467235326766968 0.009486165829002857 0.47843137383461 0.48627451062202454 0.40392157435417175
0.18965516984462738 0.7375651597976685 0.007905138656497002 0.6470588445663452 0.6509804129600525 0.5882353186607361
0.00665024621412158 0.7563555836677551 0.9015810489654541 0.545098066329956 0.5490196347236633 0.5254902243614197
0.17192117869853973 0.7083530426025391 0.9909090995788574 0.929411768913269 0.9333333373069763 0.9490196108818054
0.20000000298023224 0.7781462073326111 0.9936758875846863 0.9450980424880981 0.95686274766922 0.9764705896377563
0.11231526732444763 0.6499289274215698 0.00909090880304575 0.6196078658103943 0.6117647290229797 0.5647059082984924
0.22512315213680267 0.7175114750862122 0.007905138656497002 0.5254902243614197 0.5215686559677124 0.4431372582912445
0.00665024621412158 0.7727774977684021 0.9312252998352051 0.47843137383461 0.47058823704719543 0.41960784792900085
0.1943349689245224 0.7203537225723267 0.007905138656497002 0.5058823823928833 0.501960813999176 0.41960784792900085
0.007881773635745049 0.7863571643829346 0.520948588848114 0.6431372761726379 0.6509804129600525 0.6078431606292725
0.009852216579020023 0.6892467737197876 0.045059289783239365 0.2862745225429535 0.2549019753932953 0.21176470816135406
0.007881773635745049 0.7372493147850037 0.2450592815876007 0.6784313917160034 0.6941176652908325 0.6352941393852234
0.007635468151420355 0.7489341497421265 0.47075098752975464 0.6470588445663452 0.6549019813537598 0.6352941393852234
0.08275862038135529 0.7861992716789246 0.00909090880304575 0.501960813999176 0.5058823823928833 0.4431372582912445
0.10024630278348923 0.7173535227775574 0.9905138611793518 0.4470588266849518 0.43529412150382996 0.40784314274787903
0.22487685084342957 0.6729828119277954 0.9956521987915039 0.9372549057006836 0.95686274766922 0.9803921580314636
0.19334974884986877 0.6516658663749695 0.9968379735946655 1.0 1.0 1.0
0.16576354205608368 0.643139123916626 0.00830039568245411 0.5803921818733215 0.572549045085907 0.5254902243614197
0.11798029392957687 0.6835622787475586 0.008695651777088642 0.5333333611488342 0.5176470875740051 0.4745098054409027
0.05344827473163605 0.6570345759391785 0.01067193690687418 0.4901960790157318 0.4745098054409027 0.4274509847164154
0.23694580793380737 0.6494552493095398 0.9972332119941711 0.9764705896377563 0.9803921580314636 0.9960784316062927
0.00911330059170723 0.7051950097084045 0.11541502177715302 0.6823529601097107 0.6980392336845398 0.6313725709915161
0.0064039407297968864 0.7359861135482788 0.9335968494415283 0.4901960790157318 0.4901960790157318 0.4431372582912445
0.0071428571827709675 0.7127743363380432 0.44545453786849976 0.6784313917160034 0.6901960968971252 0.6470588445663452
0.009852216579020023 0.7723038196563721 0.030830038711428642 0.19607843458652496 0.1764705926179886 0.16078431904315948
0.19581280648708344 0.6892467737197876 0.9936758875846863 0.9529411792755127 0.95686274766922 0.9725490212440491
0.18571428954601288 0.6734564900398254 0.9948616623878479 0.9254902005195618 0.9411764740943909 0.9529411792755127
0.009852216579020023 0.7195641994476318 0.03952569141983986 0.239215686917305 0.2078431397676468 0.16470588743686676
0.008620689623057842 0.7756197452545166 0.25217390060424805 0.6980392336845398 0.7137255072593689 0.6549019813537598
0.14901477098464966 0.6549818515777588 0.9909090995788574 0.3843137323856354 0.3764705955982208 0.3803921639919281
0.0071428571827709675 0.6606663465499878 0.23873518407344818 0.6431372761726379 0.6666666865348816 0.6117647290229797
0.04137931019067764 0.6644560098648071 0.9905138611793518 0.3764705955982208 0.3686274588108063 0.32156863808631897
0.00665024621412158 0.6826148629188538 0.3893280625343323 0.6901960968971252 0.6784313917160034 0.6509804129600525
0.0064039407297968864 0.7268277406692505 0.9304347634315491 0.49803921580314636 0.49803921580314636 0.45098039507865906
0.006157635245472193 0.659876823425293 0.4956521689891815 0.6784313917160034 0.7019608020782471 0.6549019813537598
0.07216748595237732 0.7868309020996094 0.009486165829002857 0.5333333611488342 0.5372549295425415 0.48235294222831726
0.0071428571827709675 0.6565608978271484 0.2403162121772766 0.6549019813537598 0.6705882549285889 0.615686297416687
0.15147782862186432 0.7650402784347534 0.9905138611793518 0.38823530077934265 0.38823530077934265 0.3490196168422699
0.005911330226808786 0.6811937689781189 0.977470338344574 0.37254902720451355 0.364705890417099 0.3137255012989044
0.23226600885391235 0.6361913681030273 0.007905138656497002 0.5647059082984924 0.5686274766921997 0.5058823823928833
0.005911330226808786 0.6867203712463379 0.8458498120307922 0.615686297416687 0.615686297416687 0.5764706134796143
0.005911330226808786 0.6605084538459778 0.5620553493499756 0.686274528503418 0.7098039388656616 0.6705882549285889
0.06305418908596039 0.7247750163078308 0.009486165829002857 0.3803921639919281 0.38823530077934265 0.3019607961177826
0.008866994641721249 0.7178272604942322 0.13399209082126617 0.6784313917160034 0.6941176652908325 0.6352941393852234
0.0071428571827709675 0.7797252535820007 0.7482213377952576 0.7098039388656616 0.7019608020782471 0.6549019813537598
0.006896551698446274 0.7569872140884399 0.7422924637794495 0.7137255072593689 0.7019608020782471 0.6666666865348816
0.12413793057203293 0.6947734355926514 0.9905138611793518 0.41960784792900085 0.40392157435417175 0.3921568691730499
0.006896551698446274 0.6688773036003113 0.31343874335289 0.6549019813537598 0.6705882549285889 0.615686297416687
0.02068965509533882 0.6753513216972351 0.9905138611793518 0.37254902720451355 0.364705890417099 0.3176470696926117
0.0071428571827709675 0.6882993578910828 0.33043476939201355 0.6431372761726379 0.6549019813537598 0.6117647290229797
0.005418719258159399 0.6620875000953674 0.8201581239700317 0.6431372761726379 0.6509804129600525 0.6078431606292725
0.006896551698446274 0.7730933427810669 0.8774703741073608 0.5764706134796143 0.5803921818733215 0.5568627715110779
0.0064039407297968864 0.7222485542297363 0.9205533862113953 0.5176470875740051 0.5254902243614197 0.48235294222831726
0.07413793355226517 0.6905100345611572 0.9905138611793518 0.4274509847164154 0.41960784792900085 0.37254902720451355
0.0071428571827709675 0.7325122356414795 0.5403162240982056 0.6627451181411743 0.6705882549285889 0.6196078658103943
0.0071428571827709675 0.6721932888031006 0.24229249358177185 0.6352941393852234 0.6666666865348816 0.615686297416687
0.005911330226808786 0.6590873003005981 0.573913037776947 0.6941176652908325 0.7058823704719543 0.6705882549285889
0.06699507683515549 0.6935101747512817 0.9905138611793518 0.45098039507865906 0.43529412150382996 0.38823530077934265
0.017980296164751053 0.6794568300247192 0.9905138611793518 0.3333333432674408 0.32156863808631897 0.2862745225429535
0.008374384604394436 0.7719879746437073 0.28300395607948303 0.658823549747467 0.686274528503418 0.6235294342041016
0.006157635245472193 0.6881414651870728 0.939920961856842 0.47058823704719543 0.47843137383461 0.4274509847164154
0.0071428571827709675 0.7822517156600952 0.657312273979187 0.6745098233222961 0.6745098233222961 0.6431372761726379
0.07807882130146027 0.6475604176521301 0.9909090995788574 0.364705890417099 0.364705890417099 0.32549020648002625
0.008866994641721249 0.6592452526092529 0.04387351870536804 0.250980406999588 0.22745098173618317 0.1725490242242813
0.0071428571827709675 0.7375651597976685 0.5616600513458252 0.6549019813537598 0.6666666865348816 0.6313725709915161
0.00911330059170723 0.7209852933883667 0.10830039530992508 0.6549019813537598 0.6705882549285889 0.6039215922355652
0.0064039407297968864 0.7421443462371826 0.8221343755722046 0.6549019813537598 0.6627451181411743 0.6117647290229797
0.005665024742484093 0.6680877804756165 0.9446640610694885 0.4431372582912445 0.45490196347236633 0.38823530077934265
0.00665024621412158 0.6620875000953674 0.343082994222641 0.6745098233222961 0.6784313917160034 0.6470588445663452
0.04137931019067764 0.7446707487106323 0.9897233247756958 0.38823530077934265 0.3843137323856354 0.3137255012989044
0.006896551698446274 0.7596715688705444 0.7055336236953735 0.7098039388656616 0.6980392336845398 0.6627451181411743
0.185960590839386 0.730143666267395 0.007905138656497002 0.5490196347236633 0.545098066329956 0.4745098054409027
0.0357142873108387 0.6991946697235107 0.011067193932831287 0.4117647111415863 0.4000000059604645 0.3333333432674408
0.008374384604394436 0.7598294615745544 0.23596838116645813 0.6980392336845398 0.7058823704719543 0.6627451181411743
0.006157635245472193 0.713563859462738 0.9213438630104065 0.5137255191802979 0.5215686559677124 0.47843137383461
0.10960590839385986 0.7882519960403442 0.9893280863761902 0.3764705955982208 0.3764705955982208 0.33725491166114807
0.005418719258159399 0.6560871601104736 0.8928853869438171 0.545098066329956 0.545098066329956 0.49803921580314636
0.009605911560356617 0.6984052062034607 0.05889328196644783 0.25882354378700256 0.23137255012989044 0.1568627506494522
0.005418719258159399 0.6584557294845581 0.7996047139167786 0.658823549747467 0.6705882549285889 0.6274510025978088
0.190640389919281 0.6650876402854919 0.00830039568245411 0.5372549295425415 0.545098066329956 0.501960813999176
0.007881773635745049 0.7757776975631714 0.48260870575904846 0.6392157077789307 0.6470588445663452 0.6431372761726379
0.22807881236076355 0.7590399384498596 0.9940711259841919 0.9686274528503418 0.9725490212440491 0.9882352948188782
0.0514778308570385 0.6605084538459778 0.9905138611793518 0.3803921639919281 0.364705890417099 0.32156863808631897
0.08251231163740158 0.7817779779434204 0.00909090880304575 0.6117647290229797 0.615686297416687 0.5529412031173706
0.00665024621412158 0.6447181701660156 0.3221343755722046 0.6666666865348816 0.6784313917160034 0.6431372761726379
0.06970443576574326 0.6723511815071106 0.9905138611793518 0.4313725531101227 0.42352941632270813 0.3764705955982208
0.005665024742484093 0.632243812084198 0.6015810370445251 0.6823529601097107 0.6941176652908325 0.658823549747467
0.1783251166343689 0.6352439522743225 0.00830039568245411 0.772549033164978 0.7843137383460999 0.7411764860153198
0.008128078654408455 0.7645665407180786 0.30039525032043457 0.6549019813537598 0.658823549747467 0.6039215922355652
0.06871920824050903 0.7183009386062622 0.009486165829002857 0.4274509847164154 0.41960784792900085 0.37254902720451355
0.005418719258159399 0.6606663465499878 0.8802371621131897 0.5490196347236633 0.572549045085907 0.5333333611488342
0.056157633662223816 0.7580925226211548 0.9897233247756958 0.4117647111415863 0.40392157435417175 0.3529411852359772
0.005911330226808786 0.6390336155891418 0.4944663941860199 0.6666666865348816 0.6980392336845398 0.6392157077789307
0.007389162667095661 0.7347228527069092 0.4205533564090729 0.658823549747467 0.658823549747467 0.6509804129600525
0.2337438464164734 0.6791409850120544 0.9952569007873535 0.95686274766922 0.9686274528503418 0.9882352948188782
0.2108374387025833 0.729985773563385 0.9924901127815247 0.9490196108818054 0.9607843160629272 0.9803921580314636
0.005172413773834705 0.6316121816635132 0.8387351632118225 0.6000000238418579 0.6117647290229797 0.5686274766921997
0.13743841648101807 0.7756197452545166 0.9897233247756958 0.4000000059604645 0.40392157435417175 0.3803921639919281
0.007389162667095661 0.7222485542297363 0.3849802315235138 0.658823549747467 0.6627451181411743 0.6431372761726379
0.1315270960330963 0.7257224321365356 0.9905138611793518 0.4117647111415863 0.40784314274787903 0.4000000059604645
0.007389162667095661 0.7707247734069824 0.5924901366233826 0.6274510025978088 0.6352941393852234 0.615686297416687
0.2305418699979782 0.7058266401290894 0.9928853511810303 0.95686274766922 0.9686274528503418 0.9882352948188782
0.005418719258159399 0.638086199760437 0.709486186504364 0.7019608020782471 0.7098039388656616 0.658823549747467
0.007881773635745049 0.6826148629188538 0.18656127154827118 0.6627451181411743 0.686274528503418 0.6313725709915161
0.14581280946731567 0.729827880859375 0.00830039568245411 0.6352941393852234 0.6274510025978088 0.5686274766921997
0.021182265132665634 0.7666193246841431 0.010276679880917072 0.3764705955982208 0.37254902720451355 0.3019607961177826
0.0064039407297968864 0.7265118956565857 0.955731213092804 0.45490196347236633 0.4431372582912445 0.3686274588108063
0.006896551698446274 0.7743565440177917 0.8454545736312866 0.6235294342041016 0.6274510025978088 0.6039215922355652
0.2266009896993637 0.6916153430938721 0.9940711259841919 0.9490196108818054 0.9686274528503418 0.9843137264251709
0.007881773635745049 0.7784620523452759 0.47667983174324036 0.6313725709915161 0.6470588445663452 0.6431372761726379
0.0064039407297968864 0.7231959700584412 0.9679841995239258 0.4117647111415863 0.4000000059604645 0.3333333432674408
0.007881773635745049 0.6762987375259399 0.17351779341697693 0.6705882549285889 0.686274528503418 0.6274510025978088
0.005911330226808786 0.670930027961731 0.6193675994873047 0.7098039388656616 0.7098039388656616 0.6784313917160034
0.18472906947135925 0.6582977771759033 0.00830039568245411 0.5647059082984924 0.5647059082984924 0.5176470875740051
0.007881773635745049 0.7385125756263733 0.2454545497894287 0.6784313917160034 0.6941176652908325 0.6352941393852234
0.006896551698446274 0.7779883146286011 0.7869565486907959 0.6941176652908325 0.6901960968971252 0.6705882549285889
0.12512315809726715 0.6714037656784058 0.9909090995788574 0.43529412150382996 0.41960784792900085 0.40784314274787903
0.10960590839385986 0.7666193246841431 0.008695651777088642 0.5764706134796143 0.5647059082984924 0.49803921580314636
0.06600984930992126 0.7389862537384033 0.9901185631752014 0.41960784792900085 0.4000000059604645 0.3764705955982208
0.008374384604394436 0.7440391778945923 0.16245059669017792 0.7019608020782471 0.7098039388656616 0.6549019813537598
0.15000000596046448 0.740723192691803 0.9901185631752014 0.4000000059604645 0.4000000059604645 0.40784314274787903
0.190640389919281 0.7809884548187256 0.007905138656497002 0.5764706134796143 0.572549045085907 0.4941176474094391
0.0071428571827709675 0.7813042998313904 0.6830039620399475 0.686274528503418 0.686274528503418 0.6549019813537598
0.18399015069007874 0.7356703281402588 0.9916995763778687 0.9137254953384399 0.929411768913269 0.9333333373069763
0.1544335037469864 0.7342491745948792 0.00830039568245411 0.6117647290229797 0.6039215922355652 0.5568627715110779
0.008374384604394436 0.653876543045044 0.104347825050354 0.6901960968971252 0.7058823704719543 0.6392157077789307
0.0071428571827709675 0.6401389837265015 0.21581028401851654 0.6549019813537598 0.6784313917160034 0.6235294342041016
0.0071428571827709675 0.7028264403343201 0.3806324005126953 0.6627451181411743 0.6705882549285889 0.658823549747467
0.0278325118124485 0.7421443462371826 0.010276679880917072 0.4431372582912445 0.43529412150382996 0.38823530077934265
0.00665024621412158 0.7552502751350403 0.8367589116096497 0.6431372761726379 0.6470588445663452 0.6235294342041016
0.050246305763721466 0.7344070672988892 0.009881422854959965 0.43529412150382996 0.4274509847164154 0.3686274588108063
0.24113300442695618 0.7795673608779907 0.00830039568245411 0.5686274766921997 0.5568627715110779 0.48235294222831726
0.006157635245472193 0.6857729554176331 0.7280632257461548 0.7058823704719543 0.7215686440467834 0.6549019813537598
0.008374384604394436 0.7377230525016785 0.1762845814228058 0.686274528503418 0.7019608020782471 0.6352941393852234
0.006157635245472193 0.6914574503898621 0.9150197505950928 0.5098039507865906 0.5176470875740051 0.4745098054409027
0.007881773635745049 0.7568293213844299 0.4426877498626709 0.6470588445663452 0.6509804129600525 0.658823549747467
0.007389162667095661 0.6527711749076843 0.2142292559146881 0.6549019813537598 0.6784313917160034 0.6235294342041016
0.09630541503429413 0.70235276222229 0.9905138611793518 0.43921568989753723 0.4274509847164154 0.3921568691730499
0.0795566514134407 0.6537185907363892 0.009881422854959965 0.501960813999176 0.4941176474094391 0.4431372582912445
0.198029562830925 0.7321964502334595 0.007905138656497002 0.5803921818733215 0.5607843399047852 0.48627451062202454
0.03300492465496063 0.7325122356414795 0.01067193690687418 0.5686274766921997 0.5568627715110779 0.4901960790157318
0.21477831900119781 0.6818253397941589 0.00830039568245411 0.5607843399047852 0.5647059082984924 0.4941176474094391
0.13990147411823273 0.6556134819984436 0.00830039568245411 0.5960784554481506 0.6039215922355652 0.5607843399047852
0.0071428571827709675 0.7478288412094116 0.5916996002197266 0.658823549747467 0.6627451181411743 0.6431372761726379
0.007389162667095661 0.7640928626060486 0.5359683632850647 0.6196078658103943 0.6392157077789307 0.6235294342041016
0.010098522529006004 0.6963524222373962 0.019367588683962822 0.3529411852359772 0.34117648005485535 0.2823529541492462
0.10935960710048676 0.75746089220047 0.9897233247756958 0.4117647111415863 0.4000000059604645 0.3803921639919281
0.006157635245472193 0.6936680674552917 0.6909090876579285 0.7137255072593689 0.7215686440467834 0.6666666865348816
0.006157635245472193 0.6961945295333862 0.9794466495513916 0.3607843220233917 0.3529411852359772 0.3019607961177826
0.2019704431295395 0.660034716129303 0.00830039568245411 0.5333333611488342 0.529411792755127 0.4588235318660736
0.005418719258159399 0.6573503613471985 0.752173900604248 0.7137255072593689 0.7019608020782471 0.6745098233222961
0.0071428571827709675 0.7565134763717651 0.6185770630836487 0.658823549747467 0.6666666865348816 0.6470588445663452
0.04926108196377754 0.7882519960403442 0.9893280863761902 0.32549020648002625 0.3176470696926117 0.2705882489681244
0.005665024742484093 0.6769303679466248 0.708695650100708 0.7176470756530762 0.729411780834198 0.6549019813537598
0.1943349689245224 0.7400915622711182 0.007905138656497002 0.4588235318660736 0.45490196347236633 0.3764705955982208
0.02980295568704605 0.6859308481216431 0.9905138611793518 0.3764705955982208 0.3686274588108063 0.32156863808631897
0.008128078654408455 0.7549344897270203 0.2541502118110657 0.686274528503418 0.7019608020782471 0.6470588445663452
0.18546797335147858 0.6684036254882812 0.00830039568245411 0.5529412031173706 0.5372549295425415 0.4941176474094391
0.24310344457626343 0.7088267803192139 0.007905138656497002 0.5647059082984924 0.5843137502670288 0.49803921580314636
0.0071428571827709675 0.7882519960403442 0.7841897010803223 0.6823529601097107 0.686274528503418 0.6627451181411743
0.0064039407297968864 0.6927206516265869 0.5984189510345459 0.7058823704719543 0.7098039388656616 0.6549019813537598
0.005665024742484093 0.6808779239654541 0.9225296378135681 0.49803921580314636 0.49803921580314636 0.4588235318660736
0.12881773710250854 0.6729828119277954 0.00830039568245411 0.5411764979362488 0.5333333611488342 0.48627451062202454
0.009852216579020023 0.6952471137046814 0.045059289783239365 0.26274511218070984 0.23137255012989044 0.1882352977991104
0.1349753737449646 0.7200378775596619 0.00830039568245411 0.48627451062202454 0.4745098054409027 0.43921568989753723
0.007635468151420355 0.708037257194519 0.24743083119392395 0.6509804129600525 0.686274528503418 0.6196078658103943
0.16995073854923248 0.7367756366729736 0.991304337978363 0.8784313797950745 0.8980392217636108 0.9098039269447327
0.0071428571827709675 0.7323543429374695 0.5335968136787415 0.6509804129600525 0.6627451181411743 0.6196078658103943
0.04285714402794838 0.6870361566543579 0.9905138611793518 0.45098039507865906 0.4431372582912445 0.3921568691730499
0.0064039407297968864 0.6631928086280823 0.4944663941860199 0.6784313917160034 0.6901960968971252 0.6470588445663452
0.00665024621412158 0.7265118956565857 0.6632410883903503 0.7019608020782471 0.7137255072593689 0.6470588445663452
0.1152709349989891 0.649139404296875 0.00909090880304575 0.729411780834198 0.7176470756530762 0.6823529601097107
0.08891625702381134 0.7591978311538696 0.9897233247756958 0.40784314274787903 0.3960784375667572 0.3607843220233917
0.0064039407297968864 0.6447181701660156 0.41422924399375916 0.686274528503418 0.6901960968971252 0.6666666865348816
0.008374384604394436 0.7827253937721252 0.3901185691356659 0.6274510025978088 0.6274510025978088 0.5882353186607361
0.007635468151420355 0.7456181645393372 0.46640315651893616 0.6509804129600525 0.658823549747467 0.6392157077789307
0.14458128809928894 0.7058266401290894 0.00830039568245411 0.6941176652908325 0.686274528503418 0.6392157077789307
0.00665024621412158 0.7282488346099854 0.7193675637245178 0.7137255072593689 0.7176470756530762 0.6549019813537598
0.21600985527038574 0.7053529024124146 0.007905138656497002 0.5411764979362488 0.5490196347236633 0.46666666865348816
0.008620689623057842 0.6628770232200623 0.09802371263504028 0.6901960968971252 0.7058823704719543 0.6392157077789307
0.005911330226808786 0.6824569702148438 0.6490118503570557 0.7176470756530762 0.7176470756530762 0.686274528503418
0.10172414034605026 0.7773566842079163 0.9893280863761902 0.3921568691730499 0.3803921639919281 0.3529411852359772
0.005665024742484093 0.6511921882629395 0.686165988445282 0.7058823704719543 0.7098039388656616 0.6784313917160034
0.1032019704580307 0.7208274006843567 0.008695651777088642 0.5098039507865906 0.501960813999176 0.4431372582912445
0.00665024621412158 0.6642981171607971 0.40434783697128296 0.6901960968971252 0.6901960968971252 0.6509804129600525
0.0064039407297968864 0.6867203712463379 0.6454545259475708 0.7176470756530762 0.7176470756530762 0.6784313917160034
0.12093596160411835 0.6691930890083313 0.9909090995788574 0.3921568691730499 0.3803921639919281 0.3607843220233917
0.0071428571827709675 0.7771987915039062 0.7083004117012024 0.7019608020782471 0.6901960968971252 0.6627451181411743
0.21527093648910522 0.7157745361328125 0.9924901127815247 0.9450980424880981 0.9607843160629272 0.9725490212440491
0.05197044461965561 0.7587241530418396 0.009486165829002857 0.4313725531101227 0.42352941632270813 0.37254902720451355
0.05640394240617752 0.6398231387138367 0.010276679880917072 0.6666666865348816 0.6666666865348816 0.6196078658103943
0.008128078654408455 0.7527238130569458 0.1932806372642517 0.6980392336845398 0.7137255072593689 0.658823549747467
0.006896551698446274 0.7418285012245178 0.6671936511993408 0.6941176652908325 0.6980392336845398 0.6431372761726379
0.18374384939670563 0.7873045802116394 0.9932806491851807 0.9019607901573181 0.9137254953384399 0.9333333373069763
0.008866994641721249 0.7099320888519287 0.13320158421993256 0.6823529601097107 0.6980392336845398 0.6392157077789307
0.2098522186279297 0.6857729554176331 0.00830039568245411 0.4941176474094391 0.5215686559677124 0.45098039507865906
0.2103448212146759 0.6834043860435486 0.00830039568245411 0.5607843399047852 0.572549045085907 0.5058823823928833
0.007389162667095661 0.7026685476303101 0.32648220658302307 0.6431372761726379 0.6549019813537598 0.6196078658103943
0.007635468151420355 0.7151429057121277 0.25849801301956177 0.6431372761726379 0.6784313917160034 0.6117647290229797
0.22931034862995148 0.7303016185760498 0.007905138656497002 0.5607843399047852 0.5686274766921997 0.5137255191802979
0.005665024742484093 0.6616137623786926 0.9442687630653381 0.45490196347236633 0.46666666865348816 0.3921568691730499
0.16034482419490814 0.6494552493095398 0.00830039568245411 0.5058823823928833 0.5058823823928833 0.46666666865348816
0.0064039407297968864 0.6887730956077576 0.6241106986999512 0.7137255072593689 0.7137255072593689 0.6745098233222961
0.005418719258159399 0.6478762030601501 0.8656126260757446 0.5843137502670288 0.5843137502670288 0.5529412031173706
0.008128078654408455 0.7759355902671814 0.38774704933166504 0.6196078658103943 0.6235294342041016 0.5686274766921997
0.008620689623057842 0.7176693677902222 0.15691699087619781 0.686274528503418 0.7019608020782471 0.6431372761726379
0.00665024621412158 0.7211432456970215 0.6387351751327515 0.6980392336845398 0.6980392336845398 0.658823549747467
0.005418719258159399 0.6346123218536377 0.6280632615089417 0.6980392336845398 0.7019608020782471 0.6705882549285889
0.005911330226808786 0.6826148629188538 0.6916996240615845 0.7176470756530762 0.729411780834198 0.6627451181411743
0.00665024621412158 0.7674087882041931 0.9644268751144409 0.4000000059604645 0.3843137323856354 0.34117648005485535
0.007389162667095661 0.6949313282966614 0.2758893370628357 0.6274510025978088 0.658823549747467 0.615686297416687
0.1669950783252716 0.7836728096008301 0.00830039568245411 0.5607843399047852 0.5529412031173706 0.47058823704719543
0.005911330226808786 0.6894047260284424 0.8415019512176514 0.615686297416687 0.6235294342041016 0.5803921818733215
0.005665024742484093 0.6807200312614441 0.7956521511077881 0.6666666865348816 0.6784313917160034 0.6039215922355652
0.00665024621412158 0.7513027191162109 0.969565212726593 0.38823530077934265 0.3764705955982208 0.3176470696926117
0.12192118167877197 0.6355597376823425 0.991304337978363 0.3607843220233917 0.3450980484485626 0.30980393290519714
0.005665024742484093 0.6679298877716064 0.970355749130249 0.38823530077934265 0.3843137323856354 0.3137255012989044
0.08128079026937485 0.6704563498497009 0.9905138611793518 0.3686274588108063 0.3686274588108063 0.32156863808631897
0.005665024742484093 0.6731407046318054 0.9656126499176025 0.4117647111415863 0.4000000059604645 0.32549020648002625
0.020443350076675415 0.7699352502822876 0.009881422854959965 0.5647059082984924 0.5686274766921997 0.5137255191802979
0.007389162667095661 0.7555660605430603 0.529644250869751 0.6392157077789307 0.6431372761726379 0.6235294342041016
0.005418719258159399 0.6657192707061768 0.7727272510528564 0.6901960968971252 0.7019608020782471 0.6352941393852234
0.06502462923526764 0.7786199450492859 0.9893280863761902 0.3960784375667572 0.3803921639919281 0.33725491166114807
0.10788177698850632 0.6439286470413208 0.9909090995788574 0.3686274588108063 0.35686275362968445 0.33725491166114807
0.005665024742484093 0.6778777837753296 0.8830039501190186 0.5490196347236633 0.5647059082984924 0.5058823823928833
0.1869458109140396 0.7729353904724121 0.007905138656497002 0.48627451062202454 0.4901960790157318 0.43529412150382996
0.005172413773834705 0.6328754425048828 0.7375494241714478 0.7019608020782471 0.6941176652908325 0.6431372761726379
0.07512315362691879 0.7663034796714783 0.9897233247756958 0.4117647111415863 0.40392157435417175 0.3529411852359772
0.008374384604394436 0.7721459269523621 0.18023715913295746 0.7176470756530762 0.7098039388656616 0.6627451181411743
0.13226601481437683 0.6887730956077576 0.00830039568245411 0.5411764979362488 0.5372549295425415 0.5215686559677124
0.0071428571827709675 0.7629875540733337 0.5972331762313843 0.6431372761726379 0.6470588445663452 0.6274510025978088
0.0064039407297968864 0.7170377373695374 0.8873517513275146 0.572549045085907 0.5803921818733215 0.5372549295425415
0.006896551698446274 0.7159324288368225 0.5241106748580933 0.6549019813537598 0.6784313917160034 0.6235294342041016
0.04852216690778732 0.735038697719574 0.009881422854959965 0.42352941632270813 0.4117647111415863 0.3529411852359772
0.0064039407297968864 0.6957208514213562 0.6707509756088257 0.7098039388656616 0.7176470756530762 0.6627451181411743
0.005172413773834705 0.6335070133209229 0.7592885494232178 0.6784313917160034 0.686274528503418 0.6352941393852234
0.04532019793987274 0.7370914220809937 0.009881422854959965 0.5176470875740051 0.5137255191802979 0.4431372582912445
0.2376847267150879 0.6633507013320923 0.9964426755905151 0.9647058844566345 0.9764705896377563 0.9960784316062927
0.0071428571827709675 0.7113532423973083 0.41343873739242554 0.6627451181411743 0.6666666865348816 0.6470588445663452
0.006896551698446274 0.7336175441741943 0.5707510113716125 0.6666666865348816 0.6745098233222961 0.6313725709915161
0.22857142984867096 0.7201957702636719 0.007905138656497002 0.6392157077789307 0.6470588445663452 0.5921568870544434
0.06576354801654816 0.6669824719429016 0.9905138611793518 0.3607843220233917 0.3607843220233917 0.32156863808631897
0.19679802656173706 0.7647244334220886 0.9932806491851807 0.9490196108818054 0.9607843160629272 0.9803921580314636
0.0071428571827709675 0.7104058265686035 0.44980236887931824 0.6666666865348816 0.6901960968971252 0.6431372761726379
0.05197044461965561 0.6848255395889282 0.9905138611793518 0.4313725531101227 0.42352941632270813 0.364705890417099
0.006896551698446274 0.7754618525505066 0.8197628259658813 0.658823549747467 0.658823549747467 0.6509804129600525
0.23669950664043427 0.7806726694107056 0.9932806491851807 0.95686274766922 0.9607843160629272 0.9764705896377563
0.005665024742484093 0.6556134819984436 0.9363636374473572 0.4745098054409027 0.47843137383461 0.42352941632270813
0.007389162667095661 0.7847781181335449 0.6553359627723694 0.6784313917160034 0.6666666865348816 0.6313725709915161
0.16773399710655212 0.6865624785423279 0.00830039568245411 0.5764706134796143 0.5843137502670288 0.5333333611488342
0.008866994641721249 0.7596715688705444 0.13201580941677094 0.6980392336845398 0.7058823704719543 0.6509804129600525
0.005665024742484093 0.6680877804756165 0.6849802136421204 0.7215686440467834 0.7215686440467834 0.6745098233222961
0.143349751830101 0.7266698479652405 0.00830039568245411 0.5137255191802979 0.49803921580314636 0.45490196347236633
0.00665024621412158 0.6447181701660156 0.30948618054389954 0.6549019813537598 0.6784313917160034 0.6392157077789307
0.00665024621412158 0.7451444864273071 0.7047430872917175 0.7137255072593689 0.7058823704719543 0.658823549747467
0.010837438516318798 0.6344544291496277 0.9853755235671997 0.27843138575553894 0.2666666805744171 0.23137255012989044
0.006157635245472193 0.6666666865348816 0.5031620264053345 0.6627451181411743 0.7019608020782471 0.658823549747467
0.0071428571827709675 0.7727774977684021 0.6142292618751526 0.6352941393852234 0.6431372761726379 0.6235294342041016
0.1068965494632721 0.7127743363380432 0.9905138611793518 0.43921568989753723 0.4274509847164154 0.4000000059604645
0.00665024621412158 0.6575083136558533 0.365612655878067 0.6823529601097107 0.6941176652908325 0.658823549747467
0.03817734122276306 0.7663034796714783 0.9897233247756958 0.364705890417099 0.3686274588108063 0.30588236451148987
0.23990148305892944 0.6954050064086914 0.007905138656497002 0.6078431606292725 0.6000000238418579 0.501960813999176
0.21527093648910522 0.6371387839317322 0.007905138656497002 0.4901960790157318 0.4745098054409027 0.4274509847164154
0.00665024621412158 0.7108795046806335 0.6462450623512268 0.7098039388656616 0.7098039388656616 0.6627451181411743
0.15689654648303986 0.6772461533546448 0.9909090995788574 0.38823530077934265 0.38823530077934265 0.41960784792900085
0.2302955687046051 0.7599873542785645 0.9940711259841919 0.9686274528503418 0.9725490212440491 0.9882352948188782
0.15369458496570587 0.681983232498169 0.00830039568245411 0.5215686559677124 0.5176470875740051 0.49803921580314636
0.011330049484968185 0.7249329090118408 0.013438735157251358 0.4470588266849518 0.43921568989753723 0.3803921639919281
0.007881773635745049 0.7723038196563721 0.43557313084602356 0.6392157077789307 0.6470588445663452 0.6431372761726379
0.006896551698446274 0.6391915082931519 0.2343873530626297 0.6549019813537598 0.6784313917160034 0.6235294342041016
0.005911330226808786 0.6676141023635864 0.6596838235855103 0.7176470756530762 0.7215686440467834 0.6901960968971252
0.2342364490032196 0.7031422853469849 0.9932806491851807 0.95686274766922 0.9686274528503418 0.9882352948188782
0.00911330059170723 0.7367756366729736 0.0988142266869545 0.6666666865348816 0.6823529601097107 0.615686297416687
0.007635468151420355 0.6906679272651672 0.22292490303516388 0.6470588445663452 0.6745098233222961 0.6117647290229797
0.006157635245472193 0.6328754425048828 0.425691694021225 0.6901960968971252 0.6980392336845398 0.6549019813537598
0.00665024621412158 0.6534028053283691 0.3280632495880127 0.6745098233222961 0.686274528503418 0.6431372761726379
0.1783251166343689 0.6792989373207092 0.00830039568245411 0.6392157077789307 0.6392157077789307 0.5921568870544434
0.0071428571827709675 0.7863571643829346 0.7565217614173889 0.7019608020782471 0.7019608020782471 0.6549019813537598
0.0071428571827709675 0.6887730956077576 0.3482213318347931 0.6627451181411743 0.6705882549285889 0.6196078658103943
0.09630541503429413 0.7538291215896606 0.9897233247756958 0.34117648005485535 0.3294117748737335 0.30980393290519714
0.13669951260089874 0.7876204252243042 0.008695651777088642 0.5529412031173706 0.5647059082984924 0.48235294222831726
0.007635468151420355 0.6552976369857788 0.20197628438472748 0.6627451181411743 0.6784313917160034 0.6235294342041016
0.04211822524666786 0.6352439522743225 0.010276679880917072 0.5490196347236633 0.5333333611488342 0.48627451062202454
0.06502462923526764 0.6496131420135498 0.9909090995788574 0.364705890417099 0.3529411852359772 0.3176470696926117
0.034729063510894775 0.7836728096008301 0.009881422854959965 0.45490196347236633 0.4470588266849518 0.4000000059604645
0.1864532083272934 0.6426653861999512 0.00830039568245411 0.6509804129600525 0.6392157077789307 0.6039215922355652
0.006896551698446274 0.788567841053009 0.852173924446106 0.6039215922355652 0.6078431606292725 0.5764706134796143
0.14753694832324982 0.7759355902671814 0.9905138611793518 0.3803921639919281 0.3803921639919281 0.3333333432674408
0.0064039407297968864 0.6933522820472717 0.6086956262588501 0.7058823704719543 0.7098039388656616 0.6549019813537598
0.005418719258159399 0.6385599374771118 0.7209486365318298 0.7058823704719543 0.7058823704719543 0.658823549747467
0.006896551698446274 0.6522974967956543 0.26166006922721863 0.6470588445663452 0.6705882549285889 0.6235294342041016
0.00911330059170723 0.7805147767066956 0.09288537502288818 0.6117647290229797 0.6117647290229797 0.5647059082984924
0.005418719258159399 0.6466130018234253 0.8727272748947144 0.5686274766921997 0.5764706134796143 0.5333333611488342
0.006896551698446274 0.7749881744384766 0.895652174949646 0.5607843399047852 0.5490196347236633 0.5137255191802979
0.008866994641721249 0.7105637192726135 0.13675889372825623 0.686274528503418 0.7019608020782471 0.6431372761726379
