0.6130542159080505 0.8030949234962463 0.992094874382019 0.7215686440467834 0.7411764860153198 0.7529411911964417
0.5773398876190186 0.8318332433700562 0.9909090995788574 0.3333333432674408 0.33725491166114807 0.3176470696926117
0.6852216720581055 0.8296226263046265 0.007509881630539894 0.38823530077934265 0.3843137323856354 0.3137255012989044
0.6076354384422302 0.8199905157089233 0.9916995763778687 0.2823529541492462 0.26274511218070984 0.250980406999588
0.7027093768119812 0.8697299957275391 0.2343873530626297 0.05098039284348488 0.05098039284348488 0.05098039284348488
0.6081280708312988 0.8365703225135803 0.007905138656497002 0.29411765933036804 0.3019607961177826 0.25882354378700256
0.6731526851654053 0.8823622465133667 0.28498023748397827 0.26274511218070984 0.2823529541492462 0.29411765933036804
0.695320188999176 0.832306981086731 0.1766798347234726 0.43529412150382996 0.4313725531101227 0.32156863808631897
0.6716748476028442 0.875098705291748 0.23043477535247803 0.1764705926179886 0.1921568661928177 0.19607843458652496
0.6224138140678406 0.8222011923789978 0.008695651777088642 0.14901961386203766 0.14509804546833038 0.13725490868091583
0.7192118167877197 0.8526764512062073 0.0071146246045827866 0.3803921639919281 0.3843137323856354 0.3607843220233917
0.6928571462631226 0.9122059345245361 0.18102766573429108 0.12941177189350128 0.13333334028720856 0.11372549086809158
0.5339901447296143 0.891836404800415 0.009486165829002857 0.5058823823928833 0.5137255191802979 0.4274509847164154
0.49778324365615845 0.9428390860557556 0.9889327883720398 0.3843137323856354 0.3803921639919281 0.3607843220233917
0.6307882070541382 0.9254697561264038 0.00830039568245411 0.3764705955982208 0.364705890417099 0.29019609093666077
0.5507389307022095 0.8176220059394836 0.9909090995788574 0.29019609093666077 0.29411765933036804 0.27450981736183167
0.7105911374092102 0.8233065009117126 0.006719367578625679 0.4274509847164154 0.45098039507865906 0.40392157435417175
0.7002463340759277 0.891678512096405 0.9889327883720398 0.4470588266849518 0.4431372582912445 0.42352941632270813
0.7349753975868225 0.9319437742233276 0.249802365899086 0.18039216101169586 0.1882352977991104 0.16862745583057404
0.7108374238014221 0.8624664545059204 0.29960474371910095 0.5960784554481506 0.6313725709915161 0.6901960968971252
0.6940886974334717 0.9425233006477356 0.008695651777088642 0.3960784375667572 0.3686274588108063 0.29411765933036804
0.6051723957061768 0.799621045589447 0.00830039568245411 0.24705882370471954 0.239215686917305 0.1921568661928177
0.6620689630508423 0.8820464015007019 0.2134387344121933 0.16078431904315948 0.16470588743686676 0.14509804546833038
0.5748768448829651 0.7978841066360474 0.991304337978363 0.30980393290519714 0.30980393290519714 0.3019607961177826
0.6662561297416687 0.8908889889717102 0.9893280863761902 0.40784314274787903 0.4117647111415863 0.38823530077934265
0.5504925847053528 0.8517290353775024 0.9901185631752014 0.3490196168422699 0.3450980484485626 0.32549020648002625
0.7369458079338074 0.8618348240852356 0.16837944090366364 0.14509804546833038 0.16862745583057404 0.16862745583057404
0.6625615954399109 0.9278383255004883 0.007905138656497002 0.27843138575553894 0.2666666805744171 0.1921568661928177
0.6977832317352295 0.902415931224823 0.9885375499725342 0.4588235318660736 0.4470588266849518 0.41960784792900085
0.6453201770782471 0.8956260681152344 0.2747035622596741 0.23137255012989044 0.250980406999588 0.26274511218070984
0.5009852051734924 0.8182535767555237 0.0071146246045827866 0.13725490868091583 0.13333334028720856 0.125490203499794
0.7128078937530518 0.8654665946960449 0.2664031684398651 0.03529411926865578 0.03529411926865578 0.03529411926865578
0.5603448152542114 0.8607295155525208 0.008695651777088642 0.5372549295425415 0.5411764979362488 0.47843137383461
0.6815270781517029 0.9107847809791565 0.007509881630539894 0.16078431904315948 0.1568627506494522 0.13725490868091583
0.695320188999176 0.8672035336494446 0.1924901157617569 0.2705882489681244 0.3137255012989044 0.32156863808631897
0.5231527090072632 0.8125690817832947 0.9901185631752014 0.29411765933036804 0.29019609093666077 0.2705882489681244
0.6637930870056152 0.8447812795639038 0.0071146246045827866 0.3333333432674408 0.3529411852359772 0.32549020648002625
0.6945812702178955 0.8943628668785095 0.0071146246045827866 0.08627451211214066 0.09019608050584793 0.07058823853731155
0.6869457960128784 0.8345175981521606 0.18616600334644318 0.501960813999176 0.5098039507865906 0.4588235318660736
0.6413792967796326 0.8087794184684753 0.00909090880304575 0.37254902720451355 0.3843137323856354 0.3176470696926117
0.5019704699516296 0.9008368849754333 0.9893280863761902 0.38823530077934265 0.3960784375667572 0.3529411852359772
0.5428571701049805 0.8765197992324829 0.9893280863761902 0.3450980484485626 0.3450980484485626 0.3137255012989044
0.6716748476028442 0.9442602396011353 0.008695651777088642 0.4470588266849518 0.4313725531101227 0.32549020648002625
0.6965517401695251 0.9054160714149475 0.1826086938381195 0.13725490868091583 0.13333334028720856 0.11764705926179886
0.576600968837738 0.8242539167404175 0.991304337978363 0.25882354378700256 0.25882354378700256 0.2666666805744171
0.7256157398223877 0.9384177923202515 0.2237154096364975 0.16470588743686676 0.18431372940540314 0.16862745583057404
0.6305418610572815 0.907784640789032 0.9889327883720398 0.3803921639919281 0.3764705955982208 0.35686275362968445
0.5633004903793335 0.935733437538147 0.00830039568245411 0.3450980484485626 0.3607843220233917 0.3019607961177826
0.6288177371025085 0.8465182185173035 0.007509881630539894 0.3137255012989044 0.3137255012989044 0.2666666805744171
0.6315270662307739 0.8545712828636169 0.007509881630539894 0.35686275362968445 0.3176470696926117 0.2705882489681244
0.5027093887329102 0.810990035533905 0.3031620681285858 0.3764705955982208 0.3921568691730499 0.43529412150382996
0.6564039587974548 0.930206835269928 0.007905138656497002 0.3019607961177826 0.2823529541492462 0.20392157137393951
0.7004926204681396 0.8577293753623962 0.18498024344444275 0.29019609093666077 0.32549020648002625 0.3137255012989044
0.7041872143745422 0.8626243472099304 0.19407114386558533 0.24705882370471954 0.2862745225429535 0.29411765933036804
0.5881773233413696 0.8539396524429321 0.1822134405374527 0.34117648005485535 0.3843137323856354 0.3921568691730499
0.5812807679176331 0.8059371709823608 0.29288536310195923 0.07450980693101883 0.07450980693101883 0.06666667014360428
0.4955665171146393 0.9261013865470886 0.9889327883720398 0.40784314274787903 0.4156862795352936 0.37254902720451355
0.5389162302017212 0.8758882284164429 0.9893280863761902 0.364705890417099 0.364705890417099 0.32549020648002625
0.7066502571105957 0.8752565979957581 0.30909091234207153 0.23529411852359772 0.2549019753932953 0.2666666805744171
0.670197069644928 0.7915679812431335 0.29328063130378723 0.46666666865348816 0.501960813999176 0.4901960790157318
0.6421182155609131 0.8474656343460083 0.9909090995788574 0.34117648005485535 0.34117648005485535 0.3333333432674408
0.7036945819854736 0.8608874082565308 0.28300395607948303 0.27450981736183167 0.3176470696926117 0.32549020648002625
0.7226601243019104 0.8087794184684753 0.9916995763778687 0.8745098114013672 0.8941176533699036 0.9098039269447327
0.7049261331558228 0.799463152885437 0.992094874382019 0.9450980424880981 0.9450980424880981 0.9529411792755127
0.6738916039466858 0.7896731495857239 0.29328063130378723 0.4588235318660736 0.4941176474094391 0.4745098054409027
0.5507389307022095 0.886309802532196 0.00909090880304575 0.47058823704719543 0.4901960790157318 0.4117647111415863
0.7315270900726318 0.9156797528266907 0.9885375499725342 0.43921568989753723 0.4313725531101227 0.37254902720451355
0.6825123429298401 0.8784146308898926 0.22529643774032593 0.12941177189350128 0.12941177189350128 0.12941177189350128
0.6637930870056152 0.885994017124176 0.2446640282869339 0.20000000298023224 0.20392157137393951 0.18431372940540314
0.7100985050201416 0.9014685153961182 0.18102766573429108 0.15294118225574493 0.14901961386203766 0.1411764770746231
0.4965517222881317 0.810832142829895 0.00830039568245411 0.239215686917305 0.24705882370471954 0.24313725531101227
0.5229064226150513 0.8929417133331299 0.009486165829002857 0.47843137383461 0.48627451062202454 0.40392157435417175
0.5399014949798584 0.8555186986923218 0.9897233247756958 0.3176470696926117 0.32156863808631897 0.2980392277240753
0.7293103337287903 0.9401547312736511 0.00909090880304575 0.3686274588108063 0.364705890417099 0.2862745225429535
0.5302955508232117 0.8343597054481506 0.007905138656497002 0.3137255012989044 0.32156863808631897 0.3019607961177826
0.5076354742050171 0.9103110432624817 0.9893280863761902 0.3803921639919281 0.3764705955982208 0.3607843220233917
0.6443349719047546 0.7903047800064087 0.29367589950561523 0.47058823704719543 0.5058823823928833 0.501960813999176
0.5741379261016846 0.8784146308898926 0.008695651777088642 0.32156863808631897 0.3176470696926117 0.24705882370471954
0.5926108360290527 0.8043581247329712 0.00830039568245411 0.26274511218070984 0.250980406999588 0.21568627655506134
0.6960591077804565 0.8702036738395691 0.29960474371910095 0.2862745225429535 0.30980393290519714 0.30980393290519714
0.6073891520500183 0.8168324828147888 0.992094874382019 0.29019609093666077 0.27843138575553894 0.25882354378700256
0.6948275566101074 0.8758882284164429 0.25849801301956177 0.0941176488995552 0.0941176488995552 0.0941176488995552
0.4926108419895172 0.874940812587738 0.9893280863761902 0.3686274588108063 0.3764705955982208 0.3333333432674408
0.5866994857788086 0.8616769313812256 0.9901185631752014 0.30980393290519714 0.30588236451148987 0.2980392277240753
0.5770936012268066 0.8757302761077881 0.9897233247756958 0.364705890417099 0.3686274588108063 0.3450980484485626
0.6699507236480713 0.8834675550460815 0.23794466257095337 0.1725490242242813 0.1725490242242813 0.16470588743686676
0.6076354384422302 0.8522027730941772 0.007905138656497002 0.2078431397676468 0.2235294133424759 0.16862745583057404
0.6908866763114929 0.8711510896682739 0.18853755295276642 0.250980406999588 0.2862745225429535 0.30588236451148987
0.6293103694915771 0.7947260141372681 0.992094874382019 1.0 1.0 1.0
0.5165024399757385 0.8046739101409912 0.14426878094673157 0.1882352977991104 0.18431372940540314 0.1764705926179886
0.5874384045600891 0.7895152568817139 0.007905138656497002 0.24705882370471954 0.239215686917305 0.1921568661928177
0.501477837562561 0.8552029132843018 0.006719367578625679 0.5529412031173706 0.572549045085907 0.4941176474094391
0.7379310131072998 0.8537817597389221 0.0071146246045827866 0.3607843220233917 0.3803921639919281 0.29019609093666077
0.6591132879257202 0.8575714230537415 0.007509881630539894 0.3607843220233917 0.3764705955982208 0.3803921639919281
0.6189655065536499 0.9224696159362793 0.00830039568245411 0.33725491166114807 0.32549020648002625 0.25882354378700256
0.6714285612106323 0.8934154510498047 0.30909091234207153 0.250980406999588 0.2823529541492462 0.29411765933036804
0.623399019241333 0.8634138703346252 0.1762845814228058 0.30980393290519714 0.3294117748737335 0.34117648005485535
0.7029556632041931 0.9458392262458801 0.00909090880304575 0.3450980484485626 0.33725491166114807 0.27843138575553894
0.7238916158676147 0.9429969787597656 0.24782608449459076 0.07450980693101883 0.07450980693101883 0.08235294371843338
0.628078818321228 0.8032528162002563 0.992094874382019 1.0 1.0 1.0
0.6790640354156494 0.8184114694595337 0.17509882152080536 0.125490203499794 0.12156862765550613 0.10588235408067703
0.61231529712677 0.7933049201965332 0.29367589950561523 0.43921568989753723 0.47843137383461 0.4470588266849518
0.6965517401695251 0.805463433265686 0.2920948565006256 0.09019608050584793 0.08627451211214066 0.06666667014360428
0.6418719291687012 0.9287857413291931 0.9885375499725342 0.4156862795352936 0.42352941632270813 0.3803921639919281
0.6926108598709106 0.8822043538093567 0.3083004057407379 0.1568627506494522 0.18039216101169586 0.1725490242242813
0.6399014592170715 0.8904153108596802 0.2335968315601349 0.18431372940540314 0.18431372940540314 0.18431372940540314
0.6137930750846863 0.8064108490943909 0.008695651777088642 0.22745098173618317 0.239215686917305 0.16470588743686676
0.573399007320404 0.8954681754112244 0.008695651777088642 0.4431372582912445 0.45098039507865906 0.3686274588108063
0.69852215051651 0.8552029132843018 0.23201580345630646 0.1725490242242813 0.1764705926179886 0.18431372940540314
0.5022167563438416 0.8640455007553101 0.007509881630539894 0.6666666865348816 0.6784313917160034 0.6117647290229797
0.6549261212348938 0.8100426197052002 0.15889328718185425 0.1725490242242813 0.1882352977991104 0.18431372940540314
0.6554186940193176 0.8024632930755615 0.992094874382019 1.0 1.0 1.0
0.701724112033844 0.8343597054481506 0.9909090995788574 0.43921568989753723 0.43529412150382996 0.4156862795352936
0.6652709245681763 0.8395705223083496 0.17549407482147217 0.29019609093666077 0.3294117748737335 0.3333333432674408
0.6573891639709473 0.8960998058319092 0.3019762933254242 0.23529411852359772 0.27450981736183167 0.2705882489681244
0.7204433679580688 0.9292594194412231 0.9881423115730286 0.4901960790157318 0.48235294222831726 0.43529412150382996
0.6625615954399109 0.8359387516975403 0.17588932812213898 0.29019609093666077 0.3294117748737335 0.32549020648002625
0.5502462983131409 0.9166271686553955 0.00909090880304575 0.4941176474094391 0.4901960790157318 0.4117647111415863
0.5389162302017212 0.8233065009117126 0.9905138611793518 0.30588236451148987 0.29411765933036804 0.2666666805744171
0.5302955508232117 0.891836404800415 0.009486165829002857 0.49803921580314636 0.5137255191802979 0.42352941632270813
0.7034482955932617 0.8335701823234558 0.0071146246045827866 0.21176470816135406 0.2078431397676468 0.22745098173618317
0.5192118287086487 0.9259434938430786 0.9889327883720398 0.3921568691730499 0.3921568691730499 0.3607843220233917
0.6650246381759644 0.9126796126365662 0.007905138656497002 0.2862745225429535 0.29411765933036804 0.20000000298023224
0.5103448033332825 0.9221537709236145 0.00909090880304575 0.5176470875740051 0.5254902243614197 0.4431372582912445
0.6958128213882446 0.8621506690979004 0.18616600334644318 0.2980392277240753 0.3294117748737335 0.33725491166114807
0.684236466884613 0.8057792782783508 0.992094874382019 1.0 1.0 1.0
0.673399031162262 0.8840991854667664 0.2964426875114441 0.24705882370471954 0.2666666805744171 0.27843138575553894
0.5876847505569458 0.8624664545059204 0.00830039568245411 0.30980393290519714 0.32156863808631897 0.2549019753932953
0.6559113264083862 0.843675971031189 0.0071146246045827866 0.43529412150382996 0.40392157435417175 0.3921568691730499
0.6864532232284546 0.7899889349937439 0.007509881630539894 0.24705882370471954 0.239215686917305 0.1882352977991104
0.5738916397094727 0.8574135303497314 0.00830039568245411 0.24313725531101227 0.22745098173618317 0.18431372940540314
0.6157635450363159 0.8185694217681885 0.992094874382019 0.2980392277240753 0.29411765933036804 0.27843138575553894
0.5236453413963318 0.849202573299408 0.9897233247756958 0.3450980484485626 0.34117648005485535 0.3333333432674408
0.6894088387489319 0.9276804327964783 0.00830039568245411 0.3019607961177826 0.2980392277240753 0.22745098173618317
0.679556667804718 0.8312016129493713 0.007509881630539894 0.40784314274787903 0.40392157435417175 0.32156863808631897
0.6561576128005981 0.9193115234375 0.007905138656497002 0.32549020648002625 0.3333333432674408 0.24705882370471954
0.7177339792251587 0.8558345437049866 0.25652173161506653 0.21568627655506134 0.24705882370471954 0.2549019753932953
0.6674876809120178 0.8771514296531677 0.22727273404598236 0.16862745583057404 0.18431372940540314 0.18039216101169586
0.7044335007667542 0.8139902353286743 0.0071146246045827866 0.32156863808631897 0.3607843220233917 0.2549019753932953
0.6004925966262817 0.8354650139808655 0.18300394713878632 0.4000000059604645 0.4431372582912445 0.45098039507865906
0.570443332195282 0.9415758848190308 0.00830039568245411 0.43529412150382996 0.4431372582912445 0.38823530077934265
0.629802942276001 0.9098373651504517 0.00830039568245411 0.47843137383461 0.4745098054409027 0.3960784375667572
0.5337438583374023 0.7993052005767822 0.009881422854959965 0.1882352977991104 0.18431372940540314 0.16470588743686676
0.7221674919128418 0.8094110488891602 0.9916995763778687 0.8705882430076599 0.8901960849761963 0.9058823585510254
0.5160098671913147 0.8946786522865295 0.009486165829002857 0.6431372761726379 0.6470588445663452 0.5764706134796143
0.5963054299354553 0.8930996656417847 0.9893280863761902 0.3176470696926117 0.32156863808631897 0.29019609093666077
0.616995096206665 0.8357808589935303 0.007905138656497002 0.1725490242242813 0.16862745583057404 0.1882352977991104
0.7137930989265442 0.8518869280815125 0.22173912823200226 0.10588235408067703 0.12156862765550613 0.13333334028720856
0.554679811000824 0.8662561178207397 0.008695651777088642 0.3686274588108063 0.3764705955982208 0.29019609093666077
0.5283251404762268 0.8397284150123596 0.9901185631752014 0.2705882489681244 0.2666666805744171 0.24705882370471954
0.6640394330024719 0.8607295155525208 0.9905138611793518 0.3803921639919281 0.3764705955982208 0.3607843220233917
0.6869457960128784 0.8534659743309021 0.18063241243362427 0.30588236451148987 0.3450980484485626 0.34117648005485535
0.5701970458030701 0.8840991854667664 0.008695651777088642 0.30980393290519714 0.30980393290519714 0.2078431397676468
0.6381773352622986 0.794252336025238 0.008695651777088642 0.1764705926179886 0.1764705926179886 0.12941177189350128
0.5261083841323853 0.8018316626548767 0.01067193690687418 0.2862745225429535 0.2823529541492462 0.2666666805744171
0.6820197105407715 0.9153639674186707 0.007509881630539894 0.3176470696926117 0.3019607961177826 0.25882354378700256
0.4997536838054657 0.8468340635299683 0.9897233247756958 0.3490196168422699 0.3490196168422699 0.3176470696926117
0.692364513874054 0.822043240070343 0.991304337978363 0.43921568989753723 0.4156862795352936 0.4156862795352936
0.5273398756980896 0.8930996656417847 0.009486165829002857 0.4274509847164154 0.43529412150382996 0.3529411852359772
0.6849753856658936 0.8687825798988342 0.18577075004577637 0.3176470696926117 0.34117648005485535 0.34117648005485535
0.6364532113075256 0.9469445943832397 0.00830039568245411 0.364705890417099 0.37254902720451355 0.2862745225429535
0.6997537016868591 0.8297805190086365 0.007509881630539894 0.4000000059604645 0.41960784792900085 0.43529412150382996
0.4928571283817291 0.8553608059883118 0.9897233247756958 0.3490196168422699 0.35686275362968445 0.3137255012989044
0.6480295658111572 0.8002526164054871 0.992094874382019 1.0 1.0 1.0
0.6241379380226135 0.9128375053405762 0.00830039568245411 0.3137255012989044 0.32156863808631897 0.23529411852359772
0.648522138595581 0.8979946374893188 0.9889327883720398 0.4156862795352936 0.42352941632270813 0.3803921639919281
0.7332512140274048 0.8987841606140137 0.1770751029253006 0.21176470816135406 0.21568627655506134 0.19607843458652496
0.7024630308151245 0.8615190386772156 0.9901185631752014 0.4156862795352936 0.41960784792900085 0.3960784375667572
0.5209359526634216 0.8788883686065674 0.9893280863761902 0.3764705955982208 0.3764705955982208 0.3450980484485626
0.5406404137611389 0.8945207595825195 0.9889327883720398 0.38823530077934265 0.3921568691730499 0.37254902720451355
0.6837438344955444 0.8591504693031311 0.18023715913295746 0.32549020648002625 0.3607843220233917 0.35686275362968445
0.6004925966262817 0.8645191788673401 0.007905138656497002 0.2549019753932953 0.250980406999588 0.1725490242242813
0.6662561297416687 0.8147796988487244 0.008695651777088642 0.3333333432674408 0.34117648005485535 0.2980392277240753
0.7174876928329468 0.8509395122528076 0.2822134494781494 0.8078431487083435 0.7921568751335144 0.686274528503418
0.6566502451896667 0.9156797528266907 0.007905138656497002 0.21176470816135406 0.1921568661928177 0.1764705926179886
0.5637931227684021 0.8690983653068542 0.008695651777088642 0.5333333611488342 0.5411764979362488 0.48627451062202454
0.6059113144874573 0.8713090419769287 0.1671936810016632 0.18039216101169586 0.1882352977991104 0.18431372940540314
0.5876847505569458 0.8064108490943909 0.991304337978363 0.2705882489681244 0.2666666805744171 0.25882354378700256
0.6908866763114929 0.9231011867523193 0.007905138656497002 0.2078431397676468 0.20392157137393951 0.18431372940540314
0.6610837578773499 0.7920416593551636 0.29328063130378723 0.4588235318660736 0.501960813999176 0.48627451062202454
0.6290640234947205 0.8600978851318359 0.17509882152080536 0.30588236451148987 0.3450980484485626 0.3490196168422699
0.6455665230751038 0.8081477880477905 0.00909090880304575 0.25882354378700256 0.2666666805744171 0.21176470816135406
0.6591132879257202 0.8387809991836548 0.17509882152080536 0.29019609093666077 0.3294117748737335 0.33725491166114807
0.6785714030265808 0.8182535767555237 0.17272727191448212 0.12941177189350128 0.125490203499794 0.10980392247438431
0.7280788421630859 0.9021000862121582 0.0071146246045827866 0.2235294133424759 0.2078431397676468 0.16078431904315948
0.5586206912994385 0.9235749244689941 0.9889327883720398 0.38823530077934265 0.3921568691730499 0.37254902720451355
0.7216748595237732 0.8536238670349121 0.2766798436641693 0.29019609093666077 0.30588236451148987 0.30980393290519714
0.512561559677124 0.8075161576271057 0.29446640610694885 0.11764705926179886 0.12156862765550613 0.10196078568696976
0.5628078579902649 0.8574135303497314 0.00830039568245411 0.47843137383461 0.48235294222831726 0.41960784792900085
0.49384236335754395 0.8313595652580261 0.9897233247756958 0.33725491166114807 0.34117648005485535 0.30980393290519714
0.681280791759491 0.8983104228973389 0.007509881630539894 0.21176470816135406 0.20392157137393951 0.14509804546833038
0.6007389426231384 0.8552029132843018 0.18023715913295746 0.3137255012989044 0.34117648005485535 0.364705890417099
0.5637931227684021 0.7937785983085632 0.9909090995788574 0.32549020648002625 0.32156863808631897 0.30588236451148987
0.5406404137611389 0.9456813335418701 0.00830039568245411 0.5490196347236633 0.5607843399047852 0.48627451062202454
0.5852216482162476 0.9272066950798035 0.00830039568245411 0.47058823704719543 0.4627451002597809 0.40392157435417175
0.734236478805542 0.9434707164764404 0.2920948565006256 0.23529411852359772 0.2549019753932953 0.23137255012989044
0.5532019734382629 0.9448918104171753 0.9885375499725342 0.4000000059604645 0.40392157435417175 0.37254902720451355
0.5480295419692993 0.8689404726028442 0.008695651777088642 0.3960784375667572 0.4000000059604645 0.3294117748737335
0.5571428537368774 0.7931470274925232 0.007905138656497002 0.26274511218070984 0.2549019753932953 0.2078431397676468
0.4931034445762634 0.8057792782783508 0.22608695924282074 0.1882352977991104 0.1921568661928177 0.1725490242242813
0.5374384522438049 0.9387336373329163 0.9885375499725342 0.40392157435417175 0.40784314274787903 0.3843137323856354
0.559359610080719 0.8297805190086365 0.9909090995788574 0.3137255012989044 0.32156863808631897 0.30980393290519714
0.49704432487487793 0.8079898953437805 0.19565217196941376 0.0941176488995552 0.08627451211214066 0.09019608050584793
0.7103448510169983 0.8480972647666931 0.9905138611793518 0.4156862795352936 0.4000000059604645 0.38823530077934265
0.5667487978935242 0.8700457811355591 0.008695651777088642 0.40784314274787903 0.4117647111415863 0.34117648005485535
0.5970443487167358 0.8664140105247498 0.1818181872367859 0.2666666805744171 0.2823529541492462 0.29411765933036804
0.5724138021469116 0.8837833404541016 0.9893280863761902 0.3803921639919281 0.3843137323856354 0.3607843220233917
0.5423645377159119 0.907942533493042 0.9889327883720398 0.3764705955982208 0.37254902720451355 0.3529411852359772
0.6305418610572815 0.8139902353286743 0.00909090880304575 0.25882354378700256 0.27450981736183167 0.21568627655506134
0.5029556751251221 0.8067266941070557 0.2138339877128601 0.1882352977991104 0.18431372940540314 0.1764705926179886
0.56083744764328 0.908258318901062 0.00909090880304575 0.4000000059604645 0.4274509847164154 0.364705890417099
0.6268472671508789 0.9129953980445862 0.00830039568245411 0.32156863808631897 0.3176470696926117 0.23529411852359772
0.49482759833335876 0.8076741099357605 0.24822133779525757 0.16862745583057404 0.1725490242242813 0.14901961386203766
0.6334975361824036 0.8307279348373413 0.007905138656497002 0.3764705955982208 0.38823530077934265 0.3450980484485626
0.5174877047538757 0.7920416593551636 0.9901185631752014 0.30980393290519714 0.3137255012989044 0.29411765933036804
0.5233989953994751 0.9371545910835266 0.008695651777088642 0.6627451181411743 0.6549019813537598 0.5960784554481506
0.6699507236480713 0.8870993256568909 0.17391304671764374 0.27450981736183167 0.29411765933036804 0.30588236451148987
0.5780788064002991 0.9275224804878235 0.00830039568245411 0.6039215922355652 0.6039215922355652 0.5568627715110779
0.6768472790718079 0.832149088382721 0.1826086938381195 0.2666666805744171 0.30588236451148987 0.3019607961177826
0.5327585935592651 0.9256276488304138 0.00909090880304575 0.4156862795352936 0.43529412150382996 0.3490196168422699
0.7041872143745422 0.8334122896194458 0.16837944090366364 0.4901960790157318 0.48627451062202454 0.40392157435417175
0.7362068891525269 0.8081477880477905 0.991304337978363 0.8784313797950745 0.8980392217636108 0.9137254953384399
0.6423645615577698 0.8252013325691223 0.9916995763778687 0.3450980484485626 0.34117648005485535 0.3333333432674408
0.6977832317352295 0.8855202794075012 0.9893280863761902 0.4274509847164154 0.42352941632270813 0.40392157435417175
0.511083722114563 0.9407863616943359 0.9889327883720398 0.40784314274787903 0.40392157435417175 0.3843137323856354
0.6238916516304016 0.9305226802825928 0.9885375499725342 0.43921568989753723 0.4431372582912445 0.41960784792900085
0.6480295658111572 0.9052581787109375 0.9889327883720398 0.4117647111415863 0.4117647111415863 0.3803921639919281
0.6692118048667908 0.8831517696380615 0.2347826063632965 0.16862745583057404 0.16862745583057404 0.16078431904315948
0.5667487978935242 0.8717827200889587 0.008695651777088642 0.27450981736183167 0.2705882489681244 0.1921568661928177
0.6206896305084229 0.8556765913963318 0.9909090995788574 0.3490196168422699 0.3490196168422699 0.34117648005485535
0.5795566439628601 0.9423654079437256 0.00830039568245411 0.4274509847164154 0.43921568989753723 0.37254902720451355
0.7071428298950195 0.8457286953926086 0.17865613102912903 0.32156863808631897 0.32549020648002625 0.2705882489681244
0.5051724314689636 0.8575714230537415 0.0071146246045827866 0.43921568989753723 0.43529412150382996 0.3529411852359772
0.5970443487167358 0.9145744442939758 0.008695651777088642 0.45490196347236633 0.4588235318660736 0.3960784375667572
0.6435960531234741 0.9384177923202515 0.007905138656497002 0.3137255012989044 0.3019607961177826 0.23529411852359772
0.6610837578773499 0.8932575583457947 0.29960474371910095 0.26274511218070984 0.27843138575553894 0.2823529541492462
0.6317734122276306 0.9417337775230408 0.9881423115730286 0.4588235318660736 0.4588235318660736 0.4117647111415863
0.5022167563438416 0.9407863616943359 0.9889327883720398 0.40784314274787903 0.40392157435417175 0.3843137323856354
0.5256157517433167 0.8209379315376282 0.007509881630539894 0.29019609093666077 0.29019609093666077 0.29019609093666077
0.5266009569168091 0.8960998058319092 0.9893280863761902 0.3843137323856354 0.38823530077934265 0.364705890417099
0.6475369334220886 0.9069951176643372 0.007905138656497002 0.29411765933036804 0.2862745225429535 0.22745098173618317
0.5908867120742798 0.8452550172805786 0.007905138656497002 0.22745098173618317 0.21960784494876862 0.16078431904315948
0.685960590839386 0.8946786522865295 0.17984189093112946 0.12156862765550613 0.12156862765550613 0.12156862765550613
0.5507389307022095 0.9164692759513855 0.00909090880304575 0.4470588266849518 0.45490196347236633 0.40392157435417175
0.5756157636642456 0.8792041540145874 0.008695651777088642 0.40392157435417175 0.4000000059604645 0.3176470696926117
0.5088669657707214 0.8057792782783508 0.23083004355430603 0.16470588743686676 0.16862745583057404 0.14901961386203766
0.6950739026069641 0.8962576985359192 0.0071146246045827866 0.10980392247438431 0.11372549086809158 0.09019608050584793
0.49802955985069275 0.8559924364089966 0.0071146246045827866 0.3960784375667572 0.40784314274787903 0.32549020648002625
0.5083743929862976 0.7988315224647522 0.008695651777088642 0.33725491166114807 0.32549020648002625 0.2980392277240753
0.6684728860855103 0.8912047743797302 0.2956521809101105 0.1764705926179886 0.1764705926179886 0.16862745583057404
0.5162561535835266 0.7958313822746277 0.29486167430877686 0.615686297416687 0.6509804129600525 0.6470588445663452
0.6600984930992126 0.8744670748710632 0.9897233247756958 0.364705890417099 0.3764705955982208 0.34117648005485535
0.6980295777320862 0.8951523900032043 0.18458497524261475 0.19607843458652496 0.20000000298023224 0.1764705926179886
0.6815270781517029 0.8664140105247498 0.18418972194194794 0.3333333432674408 0.364705890417099 0.37254902720451355
0.5931034684181213 0.9436286091804504 0.9885375499725342 0.40392157435417175 0.4000000059604645 0.3803921639919281
0.6310344934463501 0.9448918104171753 0.007905138656497002 0.3294117748737335 0.32156863808631897 0.239215686917305
0.5137931108474731 0.8067266941070557 0.2561264932155609 0.14901961386203766 0.14901961386203766 0.1411764770746231
0.6029556393623352 0.9224696159362793 0.00830039568245411 0.3764705955982208 0.3803921639919281 0.30980393290519714
0.6034482717514038 0.8248855471611023 0.15296442806720734 0.26274511218070984 0.27450981736183167 0.24705882370471954
0.6820197105407715 0.8507816195487976 0.17905138432979584 0.3019607961177826 0.32549020648002625 0.32549020648002625
0.5857142806053162 0.9032054543495178 0.008695651777088642 0.38823530077934265 0.38823530077934265 0.34117648005485535
0.5091133117675781 0.9095215797424316 0.009486165829002857 0.4901960790157318 0.501960813999176 0.41960784792900085
0.5963054299354553 0.8719406127929688 0.00830039568245411 0.26274511218070984 0.25882354378700256 0.239215686917305
0.6211822628974915 0.854729175567627 0.17588932812213898 0.3176470696926117 0.3490196168422699 0.35686275362968445
0.557881772518158 0.9000473618507385 0.00909090880304575 0.3764705955982208 0.3803921639919281 0.30980393290519714
0.6315270662307739 0.8529922366142273 0.007509881630539894 0.3294117748737335 0.3019607961177826 0.26274511218070984
0.6273398995399475 0.9237328171730042 0.00830039568245411 0.3294117748737335 0.3137255012989044 0.2666666805744171
0.6421182155609131 0.8465182185173035 0.17509882152080536 0.29411765933036804 0.32549020648002625 0.3333333432674408
0.7229064106941223 0.9401547312736511 0.9881423115730286 0.45098039507865906 0.4470588266849518 0.3764705955982208
0.5768473148345947 0.8338859677314758 0.9909090995788574 0.3333333432674408 0.33725491166114807 0.3176470696926117
0.6300492882728577 0.9283120036125183 0.9885375499725342 0.4470588266849518 0.45490196347236633 0.40392157435417175
0.606157660484314 0.8912047743797302 0.00830039568245411 0.4000000059604645 0.38823530077934265 0.3137255012989044
0.6229063868522644 0.924680233001709 0.00830039568245411 0.3137255012989044 0.3019607961177826 0.23529411852359772
0.601477861404419 0.7977262139320374 0.29328063130378723 0.4627451002597809 0.5058823823928833 0.4745098054409027
0.5827586054801941 0.8132007122039795 0.00830039568245411 0.3490196168422699 0.33725491166114807 0.2705882489681244
0.5305418968200684 0.8627822399139404 0.9893280863761902 0.364705890417099 0.3686274588108063 0.3450980484485626
0.6389162540435791 0.874940812587738 0.007905138656497002 0.29411765933036804 0.27843138575553894 0.23137255012989044
0.5174877047538757 0.8626243472099304 0.9893280863761902 0.3529411852359772 0.3607843220233917 0.3176470696926117
0.573645293712616 0.8173061609268188 0.991304337978363 0.26274511218070984 0.26274511218070984 0.26274511218070984
0.6662561297416687 0.9273645877838135 0.007905138656497002 0.33725491166114807 0.3333333432674408 0.26274511218070984
0.5613300204277039 0.8839412331581116 0.008695651777088642 0.4000000059604645 0.40784314274787903 0.32156863808631897
0.6465517282485962 0.8856781721115112 0.9893280863761902 0.3921568691730499 0.3960784375667572 0.37254902720451355
0.50935959815979 0.8233065009117126 0.9901185631752014 0.32549020648002625 0.3137255012989044 0.29411765933036804
0.6519704461097717 0.9166271686553955 0.007905138656497002 0.3333333432674408 0.3294117748737335 0.250980406999588
0.5517241358757019 0.8885204195976257 0.9889327883720398 0.3764705955982208 0.3803921639919281 0.35686275362968445
0.6246305704116821 0.8697299957275391 0.007905138656497002 0.2862745225429535 0.27843138575553894 0.21960784494876862
0.7226601243019104 0.9063634872436523 0.9885375499725342 0.48627451062202454 0.4745098054409027 0.4470588266849518
0.6463054418563843 0.8736775517463684 0.9901185631752014 0.364705890417099 0.3686274588108063 0.33725491166114807
0.6224138140678406 0.913784921169281 0.9885375499725342 0.4156862795352936 0.41960784792900085 0.3960784375667572
0.571921169757843 0.7920416593551636 0.007509881630539894 0.3019607961177826 0.3019607961177826 0.2549019753932953
0.7046797871589661 0.897205114364624 0.9889327883720398 0.43529412150382996 0.43529412150382996 0.40392157435417175
0.7113300561904907 0.8638875484466553 0.17786560952663422 0.1764705926179886 0.18039216101169586 0.16078431904315948
0.7270935773849487 0.7895152568817139 0.006719367578625679 0.21568627655506134 0.21960784494876862 0.1882352977991104
0.7128078937530518 0.8643612861633301 0.21462450921535492 0.12941177189350128 0.13725490868091583 0.13333334028720856
0.5492610931396484 0.8512553572654724 0.008695651777088642 0.41960784792900085 0.4274509847164154 0.3450980484485626
0.5975369215011597 0.83783358335495 0.991304337978363 0.34117648005485535 0.33725491166114807 0.32156863808631897
0.6091132760047913 0.8736775517463684 0.9901185631752014 0.3490196168422699 0.3450980484485626 0.3294117748737335
0.6987684965133667 0.8735196590423584 0.25335967540740967 0.0784313753247261 0.0784313753247261 0.0784313753247261
0.4992610812187195 0.8057792782783508 0.2245059311389923 0.1764705926179886 0.1764705926179886 0.16862745583057404
0.6167487502098083 0.8645191788673401 0.007905138656497002 0.27843138575553894 0.2666666805744171 0.24705882370471954
0.6354680061340332 0.8604137301445007 0.007509881630539894 0.250980406999588 0.24705882370471954 0.22745098173618317
0.7248768210411072 0.8624664545059204 0.16561265289783478 0.18431372940540314 0.20392157137393951 0.1882352977991104
0.6815270781517029 0.8837833404541016 0.2719367444515228 0.16470588743686676 0.16470588743686676 0.1568627506494522
0.5716748833656311 0.8244118094444275 0.9909090995788574 0.21960784494876862 0.21960784494876862 0.21960784494876862
0.5221675038337708 0.8596242070198059 0.00830039568245411 0.5098039507865906 0.5215686559677124 0.43921568989753723
0.5403940677642822 0.860255777835846 0.9897233247756958 0.34117648005485535 0.3450980484485626 0.32156863808631897
0.6990147829055786 0.8943628668785095 0.18458497524261475 0.24313725531101227 0.24705882370471954 0.21568627655506134
0.5549260973930359 0.9267329573631287 0.9889327883720398 0.3803921639919281 0.3803921639919281 0.34117648005485535
0.501724123954773 0.8060950636863708 0.2193675935268402 0.16078431904315948 0.16470588743686676 0.14509804546833038
0.5389162302017212 0.843833863735199 0.008695651777088642 0.43921568989753723 0.42352941632270813 0.32549020648002625
0.6507388949394226 0.821253776550293 0.9916995763778687 0.30588236451148987 0.30588236451148987 0.2980392277240753
0.5453202128410339 0.8746249675750732 0.00909090880304575 0.5843137502670288 0.6000000238418579 0.5098039507865906
0.5862069129943848 0.7931470274925232 0.007905138656497002 0.250980406999588 0.239215686917305 0.21176470816135406
0.7076354622840881 0.8002526164054871 0.992094874382019 0.929411768913269 0.929411768913269 0.9372549057006836
0.6209359765052795 0.7906205654144287 0.00830039568245411 0.22745098173618317 0.23529411852359772 0.18431372940540314
0.5770936012268066 0.8139902353286743 0.991304337978363 0.2705882489681244 0.2705882489681244 0.2705882489681244
0.5913792848587036 0.9224696159362793 0.9885375499725342 0.42352941632270813 0.41960784792900085 0.4117647111415863
0.6448276042938232 0.8954681754112244 0.27272728085517883 0.16862745583057404 0.24705882370471954 0.239215686917305
0.6389162540435791 0.8239381313323975 0.9916995763778687 0.35686275362968445 0.34117648005485535 0.33725491166114807
0.6371921300888062 0.8458866477012634 0.1762845814228058 0.3019607961177826 0.3333333432674408 0.34117648005485535
0.554679811000824 0.8662561178207397 0.008695651777088642 0.3686274588108063 0.3764705955982208 0.29019609093666077
0.6275861859321594 0.9335228204727173 0.00830039568245411 0.33725491166114807 0.3450980484485626 0.26274511218070984
0.6396551728248596 0.8570977449417114 0.9905138611793518 0.3803921639919281 0.3764705955982208 0.35686275362968445
0.695320188999176 0.8307279348373413 0.991304337978363 0.41960784792900085 0.42352941632270813 0.3921568691730499
0.7268472909927368 0.8956260681152344 0.17984189093112946 0.16078431904315948 0.16470588743686676 0.14509804546833038
0.5115763545036316 0.8765197992324829 0.008695651777088642 0.5686274766921997 0.5803921818733215 0.49803921580314636
0.7004926204681396 0.924048662185669 0.17865613102912903 0.22745098173618317 0.239215686917305 0.20392157137393951
0.49778324365615845 0.8079898953437805 0.16916996240615845 0.1764705926179886 0.18431372940540314 0.18039216101169586
0.6896551847457886 0.7966208457946777 0.007509881630539894 0.2666666805744171 0.250980406999588 0.2078431397676468
0.5086206793785095 0.8964155912399292 0.9893280863761902 0.3921568691730499 0.3921568691730499 0.3607843220233917
0.6960591077804565 0.8668877482414246 0.2869565188884735 0.2980392277240753 0.3294117748737335 0.34117648005485535
0.5536946058273315 0.9093636274337769 0.00909090880304575 0.49803921580314636 0.529411792755127 0.4470588266849518
0.6448276042938232 0.8248855471611023 0.9916995763778687 0.32549020648002625 0.3333333432674408 0.3137255012989044
0.6115763783454895 0.8657823801040649 0.9905138611793518 0.3529411852359772 0.3490196168422699 0.34117648005485535
0.6554186940193176 0.8239381313323975 0.9916995763778687 0.3333333432674408 0.3333333432674408 0.32549020648002625
0.7039408683776855 0.8673614263534546 0.20632411539554596 0.32549020648002625 0.35686275362968445 0.364705890417099
0.6879310607910156 0.8725722432136536 0.18893280625343323 0.239215686917305 0.2823529541492462 0.29019609093666077
0.5364531874656677 0.8634138703346252 0.00909090880304575 0.5215686559677124 0.5098039507865906 0.4431372582912445
0.5470443367958069 0.875098705291748 0.9893280863761902 0.35686275362968445 0.3607843220233917 0.34117648005485535
0.6881773471832275 0.8548871278762817 0.9905138611793518 0.32156863808631897 0.30588236451148987 0.29411765933036804
0.5800492763519287 0.9267329573631287 0.00830039568245411 0.48235294222831726 0.48627451062202454 0.4313725531101227
0.501477837562561 0.9431549310684204 0.008695651777088642 0.529411792755127 0.5333333611488342 0.47058823704719543
0.5337438583374023 0.7993052005767822 0.009881422854959965 0.1882352977991104 0.18431372940540314 0.16470588743686676
0.5009852051734924 0.8182535767555237 0.0071146246045827866 0.13725490868091583 0.13333334028720856 0.125490203499794
0.6103448271751404 0.9254697561264038 0.00830039568245411 0.5647059082984924 0.5764706134796143 0.4941176474094391
0.6463054418563843 0.8586767911911011 0.9905138611793518 0.35686275362968445 0.35686275362968445 0.32549020648002625
0.49334976077079773 0.9237328171730042 0.009486165829002857 0.49803921580314636 0.5137255191802979 0.45490196347236633
0.5009852051734924 0.9343123435974121 0.00909090880304575 0.4745098054409027 0.48627451062202454 0.41960784792900085
0.6512315273284912 0.826780378818512 0.1818181872367859 0.2705882489681244 0.30980393290519714 0.3137255012989044
0.6982758641242981 0.9126796126365662 0.9885375499725342 0.4470588266849518 0.43921568989753723 0.3921568691730499
0.6830049157142639 0.8228327631950378 0.9916995763778687 0.4588235318660736 0.4588235318660736 0.45098039507865906
0.5615763664245605 0.8471498489379883 0.00830039568245411 0.43529412150382996 0.4274509847164154 0.3686274588108063
0.6598522067070007 0.8124111890792847 0.17865613102912903 0.20392157137393951 0.22745098173618317 0.22745098173618317
0.606157660484314 0.941102147102356 0.9885375499725342 0.4274509847164154 0.43529412150382996 0.3921568691730499
0.6174876689910889 0.8504658341407776 0.007509881630539894 0.364705890417099 0.34117648005485535 0.27843138575553894
0.5820196866989136 0.7915679812431335 0.007905138656497002 0.29019609093666077 0.27843138575553894 0.24313725531101227
0.5623152852058411 0.7901468276977539 0.9909090995788574 0.2980392277240753 0.3019607961177826 0.2823529541492462
0.6788177490234375 0.8897836804389954 0.9893280863761902 0.4000000059604645 0.40392157435417175 0.3843137323856354
0.706403911113739 0.8687825798988342 0.17865613102912903 0.0784313753247261 0.0784313753247261 0.0784313753247261
0.6918719410896301 0.8926259279251099 0.007509881630539894 0.23529411852359772 0.21960784494876862 0.18431372940540314
0.7041872143745422 0.913627028465271 0.007905138656497002 0.24313725531101227 0.21176470816135406 0.12941177189350128
0.6837438344955444 0.8169903755187988 0.9916995763778687 0.42352941632270813 0.42352941632270813 0.4156862795352936
0.5258620977401733 0.8556765913963318 0.9893280863761902 0.3607843220233917 0.35686275362968445 0.33725491166114807
0.5630542039871216 0.8552029132843018 0.9901185631752014 0.33725491166114807 0.3490196168422699 0.32156863808631897
0.7004926204681396 0.8739933967590332 0.269565224647522 0.07058823853731155 0.07058823853731155 0.07058823853731155
0.6568965315818787 0.8376756906509399 0.991304337978363 0.3607843220233917 0.35686275362968445 0.33725491166114807
0.6793103218078613 0.8190430998802185 0.15731225907802582 0.1411764770746231 0.14509804546833038 0.125490203499794
0.6221674680709839 0.8956260681152344 0.9893280863761902 0.4156862795352936 0.3960784375667572 0.3843137323856354
0.7086206674575806 0.8245697021484375 0.991304337978363 0.42352941632270813 0.41960784792900085 0.4117647111415863
0.7325122952461243 0.9204168915748596 0.00830039568245411 0.3450980484485626 0.3176470696926117 0.24313725531101227
0.5928571224212646 0.8007263541221619 0.29328063130378723 0.47058823704719543 0.5176470875740051 0.5098039507865906
0.5364531874656677 0.8994157314300537 0.9889327883720398 0.4000000059604645 0.40392157435417175 0.3843137323856354
0.7160098552703857 0.9425233006477356 0.1660079061985016 0.2078431397676468 0.12941177189350128 0.0
0.6064039468765259 0.7903047800064087 0.00830039568245411 0.23137255012989044 0.23137255012989044 0.1921568661928177
0.5512315034866333 0.8752565979957581 0.9893280863761902 0.35686275362968445 0.3607843220233917 0.34117648005485535
0.6605911254882812 0.896731436252594 0.3071146309375763 0.250980406999588 0.2705882489681244 0.2823529541492462
0.610837459564209 0.8443076014518738 0.991304337978363 0.32549020648002625 0.32156863808631897 0.30588236451148987
0.729556679725647 0.8308858275413513 0.9909090995788574 0.4313725531101227 0.4000000059604645 0.38823530077934265
0.5465517044067383 0.8960998058319092 0.00909090880304575 0.4156862795352936 0.43529412150382996 0.35686275362968445
0.6394088864326477 0.8870993256568909 0.9893280863761902 0.3843137323856354 0.38823530077934265 0.364705890417099
0.6354680061340332 0.929733157157898 0.007905138656497002 0.46666666865348816 0.4627451002597809 0.3843137323856354
0.6645320057868958 0.7909363508224487 0.00909090880304575 0.0313725508749485 0.03921568766236305 0.03529411926865578
0.6800492405891418 0.8330965042114258 0.007509881630539894 0.3686274588108063 0.364705890417099 0.2862745225429535
0.6261083483695984 0.7906205654144287 0.992094874382019 1.0 1.0 1.0
0.6369457840919495 0.8520448207855225 0.9909090995788574 0.3529411852359772 0.3490196168422699 0.3333333432674408
0.7169950604438782 0.897047221660614 0.0071146246045827866 0.23137255012989044 0.2078431397676468 0.16078431904315948
0.6007389426231384 0.9193115234375 0.9885375499725342 0.4156862795352936 0.41960784792900085 0.38823530077934265
0.6086207032203674 0.8564661145210266 0.9909090995788574 0.32156863808631897 0.32156863808631897 0.3137255012989044
0.6600984930992126 0.9373124837875366 0.9885375499725342 0.43529412150382996 0.4431372582912445 0.4000000059604645
0.6674876809120178 0.8507816195487976 0.17312252521514893 0.29411765933036804 0.3333333432674408 0.33725491166114807
0.5226600766181946 0.9014685153961182 0.9893280863761902 0.3960784375667572 0.4000000059604645 0.3764705955982208
0.7130541801452637 0.8912047743797302 0.0071146246045827866 0.26274511218070984 0.2549019753932953 0.2078431397676468
0.7061576247215271 0.8504658341407776 0.2284584939479828 0.12941177189350128 0.14509804546833038 0.1568627506494522
0.6226601004600525 0.8266224265098572 0.00830039568245411 0.15294118225574493 0.15294118225574493 0.15294118225574493
0.5908867120742798 0.8934154510498047 0.008695651777088642 0.4117647111415863 0.40784314274787903 0.32549020648002625
0.7105911374092102 0.8623085618019104 0.20395256578922272 0.25882354378700256 0.3019607961177826 0.30980393290519714
0.6039409041404724 0.8120953440666199 0.9916995763778687 0.2862745225429535 0.2705882489681244 0.2666666805744171
0.5913792848587036 0.9439443945884705 0.9885375499725342 0.3137255012989044 0.3176470696926117 0.29411765933036804
0.5334975123405457 0.843518078327179 0.00830039568245411 0.4745098054409027 0.4588235318660736 0.3607843220233917
0.6182265877723694 0.8542554974555969 0.1766798347234726 0.30588236451148987 0.33725491166114807 0.3450980484485626
0.6534482836723328 0.8826780319213867 0.17944663763046265 0.3333333432674408 0.364705890417099 0.37254902720451355
0.6443349719047546 0.8531501889228821 0.9909090995788574 0.3333333432674408 0.3333333432674408 0.32549020648002625
0.573645293712616 0.913153350353241 0.9889327883720398 0.3764705955982208 0.364705890417099 0.33725491166114807
0.5830049514770508 0.8777830600738525 0.00830039568245411 0.34117648005485535 0.3333333432674408 0.24313725531101227
0.678078830242157 0.8796778917312622 0.22569170594215393 0.14509804546833038 0.14509804546833038 0.13725490868091583
0.610837459564209 0.8465182185173035 0.991304337978363 0.34117648005485535 0.3450980484485626 0.32549020648002625
0.6682265996932983 0.880783200263977 0.26166006922721863 0.250980406999588 0.26274511218070984 0.2823529541492462
0.7266010046005249 0.8953102827072144 0.9889327883720398 0.47843137383461 0.47058823704719543 0.42352941632270813
0.6788177490234375 0.8479393720626831 0.17865613102912903 0.29411765933036804 0.32549020648002625 0.3333333432674408
0.6381773352622986 0.8537817597389221 0.007509881630539894 0.2549019753932953 0.24705882370471954 0.1882352977991104
0.7120689749717712 0.8533080816268921 0.23557312786579132 0.1725490242242813 0.1921568661928177 0.20392157137393951
0.6428571343421936 0.8432022929191589 0.1762845814228058 0.29019609093666077 0.32549020648002625 0.3137255012989044
0.7204433679580688 0.8874151110649109 0.18379446864128113 0.24705882370471954 0.2705882489681244 0.2705882489681244
