0.12561576068401337 0.891994297504425 0.17470355331897736 0.13333334028720856 0.14901961386203766 0.15294118225574493
0.14753694832324982 0.913784921169281 0.2920948565006256 0.25882354378700256 0.29411765933036804 0.29019609093666077
0.24482758343219757 0.9510500431060791 0.00909090880304575 0.5568627715110779 0.5529412031173706 0.48235294222831726
0.2416256219148636 0.967156171798706 0.00909090880304575 0.4470588266849518 0.43921568989753723 0.3803921639919281
0.16921181976795197 0.9647876024246216 0.3027667999267578 0.16078431904315948 0.16078431904315948 0.15294118225574493
0.13423645496368408 0.9971577525138855 0.14387351274490356 0.43921568989753723 0.43921568989753723 0.4000000059604645
0.17586207389831543 0.9987367987632751 0.7150197625160217 0.6235294342041016 0.6313725709915161 0.545098066329956
0.3608374297618866 0.8998894691467285 0.008695651777088642 0.45490196347236633 0.4470588266849518 0.38823530077934265
0.27512314915657043 0.9969998598098755 0.07351778447628021 0.6980392336845398 0.7098039388656616 0.6352941393852234
0.33448275923728943 0.9902099967002869 0.00830039568245411 0.6470588445663452 0.6392157077789307 0.5882353186607361
0.17586207389831543 0.9175745844841003 0.9897233247756958 0.40784314274787903 0.3960784375667572 0.3294117748737335
0.230049267411232 0.9979472756385803 0.947826087474823 0.4431372582912445 0.41960784792900085 0.364705890417099
0.3524630665779114 0.9099952578544617 0.9897233247756958 0.4117647111415863 0.40784314274787903 0.38823530077934265
0.24014778435230255 0.9985788464546204 0.9225296378135681 0.4627451002597809 0.4431372582912445 0.364705890417099
0.17635467648506165 0.9987367987632751 0.6988142132759094 0.6431372761726379 0.6470588445663452 0.5843137502670288
0.3179802894592285 0.9963682293891907 0.8446640372276306 0.5058823823928833 0.5098039507865906 0.48627451062202454
0.22389163076877594 0.8842570781707764 0.009486165829002857 0.6705882549285889 0.6627451181411743 0.6039215922355652
0.3374384343624115 0.9365229606628418 0.00830039568245411 0.5254902243614197 0.49803921580314636 0.4588235318660736
0.13374383747577667 0.9987367987632751 0.7636363506317139 0.5921568870544434 0.5843137502670288 0.4941176474094391
0.1231527104973793 0.91946941614151 0.290909081697464 0.29019609093666077 0.3137255012989044 0.2980392277240753
0.17783251404762268 0.9987367987632751 0.9407114386558533 0.4627451002597809 0.43921568989753723 0.3529411852359772
0.30344828963279724 0.9974735379219055 0.24584980309009552 0.7019608020782471 0.7176470756530762 0.6627451181411743
0.2729063928127289 0.9556292295455933 0.9893280863761902 0.4470588266849518 0.43529412150382996 0.4000000059604645
0.2901477813720703 0.9963682293891907 0.7889328002929688 0.5803921818733215 0.615686297416687 0.6039215922355652
0.27536946535110474 0.9616295695304871 0.9889327883720398 0.43529412150382996 0.4274509847164154 0.3764705955982208
0.2460591197013855 0.9971577525138855 0.23794466257095337 0.5647059082984924 0.5686274766921997 0.5137255191802979
0.33497536182403564 0.9968419671058655 0.09209486097097397 0.7372549176216125 0.7411764860153198 0.6784313917160034
0.30369457602500916 0.9453655481338501 0.008695651777088642 0.6431372761726379 0.6431372761726379 0.6039215922355652
0.21354679763317108 0.9962103366851807 0.00830039568245411 0.32549020648002625 0.3176470696926117 0.25882354378700256
0.19655172526836395 0.9969998598098755 0.25770750641822815 0.4627451002597809 0.4745098054409027 0.4000000059604645
0.25615763664245605 0.9960524439811707 0.9806324243545532 0.3921568691730499 0.364705890417099 0.29411765933036804
0.16847290098667145 0.8896257877349854 0.9901185631752014 0.4156862795352936 0.41960784792900085 0.364705890417099
0.27266010642051697 0.9968419671058655 0.552173912525177 0.6392157077789307 0.6705882549285889 0.6823529601097107
0.28719210624694824 0.9508921504020691 0.00909090880304575 0.6078431606292725 0.5960784554481506 0.5372549295425415
0.2822660207748413 0.9965261220932007 0.6296442747116089 0.7254902124404907 0.7529411911964417 0.7921568751335144
0.21206896007061005 0.9985788464546204 0.6687747240066528 0.6509804129600525 0.6549019813537598 0.6000000238418579
0.22807881236076355 0.9848412871360779 0.34584981203079224 0.21568627655506134 0.21176470816135406 0.19607843458652496
0.1748768538236618 0.9057318568229675 0.3549407124519348 0.16470588743686676 0.1725490242242813 0.16078431904315948
0.32339900732040405 0.9960524439811707 0.7916995882987976 0.5803921818733215 0.6039215922355652 0.6039215922355652
0.17980295419692993 0.9954208135604858 0.21699604392051697 0.08627451211214066 0.10980392247438431 0.10980392247438431
0.17167487740516663 0.924522340297699 0.07509881258010864 0.2235294133424759 0.2235294133424759 0.21568627655506134
0.3642857074737549 0.9954208135604858 0.5699604749679565 0.658823549747467 0.6901960968971252 0.7019608020782471
0.1701970398426056 0.9474182724952698 0.008695651777088642 0.239215686917305 0.22745098173618317 0.20000000298023224
0.14507389068603516 0.9437865018844604 0.0071146246045827866 0.09803921729326248 0.09019608050584793 0.0941176488995552
0.2571428716182709 0.9717353582382202 0.9893280863761902 0.4274509847164154 0.41960784792900085 0.3686274588108063
0.16453202068805695 0.9605242609977722 0.07430829852819443 0.2078431397676468 0.21568627655506134 0.20392157137393951
0.26330047845840454 0.9963682293891907 0.9652174115180969 0.3843137323856354 0.37254902720451355 0.3137255012989044
0.34458127617836 0.9962103366851807 0.834782600402832 0.5411764979362488 0.5607843399047852 0.572549045085907
0.13817733526229858 0.9005210995674133 0.04980237036943436 0.1568627506494522 0.16470588743686676 0.16078431904315948
0.3613300621509552 0.9775777459144592 0.9039525985717773 0.3490196168422699 0.3450980484485626 0.32549020648002625
0.16403940320014954 0.9936838746070862 0.13833992183208466 0.48627451062202454 0.4745098054409027 0.43921568989753723
0.1549261063337326 0.9761566519737244 0.9889327883720398 0.3764705955982208 0.364705890417099 0.29019609093666077
0.14778324961662292 0.9349439740180969 0.005533596966415644 0.10980392247438431 0.11764705926179886 0.11372549086809158
0.31206896901130676 0.9960524439811707 0.7490118741989136 0.5960784554481506 0.6313725709915161 0.6274510025978088
0.16822659969329834 0.91915363073349 0.9897233247756958 0.4313725531101227 0.4156862795352936 0.3686274588108063
0.30369457602500916 0.9955787062644958 0.5501976013183594 0.6784313917160034 0.7137255072593689 0.7411764860153198
0.34261083602905273 0.9407863616943359 0.9893280863761902 0.4588235318660736 0.45490196347236633 0.43529412150382996
0.16157636046409607 0.9938417673110962 0.1407114565372467 0.47843137383461 0.46666666865348816 0.4313725531101227
0.15295566618442535 0.9987367987632751 0.8699604868888855 0.5333333611488342 0.5176470875740051 0.4117647111415863
0.21280787885189056 0.9510500431060791 0.00909090880304575 0.4274509847164154 0.41960784792900085 0.3607843220233917
0.2618226706981659 0.9969998598098755 0.0675889328122139 0.6980392336845398 0.7098039388656616 0.6352941393852234
0.3293103575706482 0.9974735379219055 0.2296442687511444 0.7215686440467834 0.7333333492279053 0.6901960968971252
0.36403942108154297 0.9955787062644958 0.6521739363670349 0.6235294342041016 0.6431372761726379 0.658823549747467
0.24014778435230255 0.9772619605064392 0.3636363744735718 0.3764705955982208 0.3764705955982208 0.3686274588108063
0.22389163076877594 0.8850466012954712 0.9901185631752014 0.3960784375667572 0.38823530077934265 0.34117648005485535
0.20935960114002228 0.9969998598098755 0.28458496928215027 0.41960784792900085 0.3921568691730499 0.32156863808631897
0.2731527090072632 0.9177325367927551 0.00909090880304575 0.6980392336845398 0.6823529601097107 0.6392157077789307
0.17635467648506165 0.9698405265808105 0.00830039568245411 0.2549019753932953 0.24705882370471954 0.20000000298023224
0.17216749489307404 0.994315505027771 0.26205533742904663 0.09019608050584793 0.07450980693101883 0.07058823853731155
0.34704434871673584 0.9952629208564758 0.00830039568245411 0.3686274588108063 0.364705890417099 0.2862745225429535
0.3285714387893677 0.9706300497055054 0.007905138656497002 0.529411792755127 0.5215686559677124 0.47058823704719543
0.31083744764328003 0.8984683156013489 0.00909090880304575 0.5960784554481506 0.5843137502670288 0.5254902243614197
0.16724137961864471 0.902258038520813 0.09090909361839294 0.27843138575553894 0.27843138575553894 0.239215686917305
0.2507389187812805 0.9969998598098755 0.13162055611610413 0.6470588445663452 0.658823549747467 0.5764706134796143
0.16748768091201782 0.9977893829345703 0.4841897189617157 0.686274528503418 0.6941176652908325 0.6392157077789307
0.3009852170944214 0.9398389458656311 0.008695651777088642 0.5333333611488342 0.5176470875740051 0.47058823704719543
0.14753694832324982 0.9065213799476624 0.07628458738327026 0.09803921729326248 0.10588235408067703 0.10196078568696976
0.3453201949596405 0.8878888487815857 0.9901185631752014 0.4470588266849518 0.43529412150382996 0.40784314274787903
0.314039409160614 0.9114164113998413 0.00909090880304575 0.5921568870544434 0.5843137502670288 0.5333333611488342
0.29630541801452637 0.9971577525138855 0.11778656393289566 0.7254902124404907 0.7372549176216125 0.6705882549285889
0.20960591733455658 0.9966840147972107 0.05256916955113411 0.239215686917305 0.21568627655506134 0.16862745583057404
0.3541871905326843 0.9957365989685059 0.6802371740341187 0.6039215922355652 0.6352941393852234 0.6431372761726379
0.3527093529701233 0.9968419671058655 0.10671936720609665 0.7450980544090271 0.7490196228027344 0.686274528503418
0.36330050230026245 0.9962103366851807 0.8067193627357483 0.5490196347236633 0.5686274766921997 0.5921568870544434
0.33152708411216736 0.9474182724952698 0.9893280863761902 0.45490196347236633 0.43921568989753723 0.43529412150382996
0.3519704341888428 0.9958944916725159 0.7498023509979248 0.5843137502670288 0.6039215922355652 0.6196078658103943
0.2184729129076004 0.8733617663383484 0.9905138611793518 0.40784314274787903 0.3921568691730499 0.3490196168422699
0.24802955985069275 0.9968419671058655 0.072727270424366 0.6666666865348816 0.6784313917160034 0.5960784554481506
0.16133004426956177 0.9178904294967651 0.9897233247756958 0.41960784792900085 0.40392157435417175 0.35686275362968445
0.2458128035068512 0.9853150248527527 0.9877470135688782 0.4156862795352936 0.40392157435417175 0.3450980484485626
0.22783251106739044 0.9292594194412231 0.9897233247756958 0.4274509847164154 0.41960784792900085 0.3686274588108063
0.1746305376291275 0.9049423933029175 0.1608695685863495 0.10588235408067703 0.10196078568696976 0.08627451211214066
0.3098522126674652 0.9960524439811707 0.800000011920929 0.5764706134796143 0.6000000238418579 0.5921568870544434
0.2376847267150879 0.9984209537506104 0.9308300614356995 0.45490196347236633 0.43529412150382996 0.3607843220233917
0.3300492465496063 0.896889328956604 0.008695651777088642 0.5607843399047852 0.5529412031173706 0.501960813999176
0.1743842363357544 0.9445760250091553 0.02924901247024536 0.0784313753247261 0.0784313753247261 0.07058823853731155
0.29162561893463135 0.9955787062644958 0.5762845873832703 0.6784313917160034 0.7137255072593689 0.7411764860153198
0.18472906947135925 0.9046265482902527 0.02450592815876007 0.21176470816135406 0.21568627655506134 0.18431372940540314
0.3576354682445526 0.9963682293891907 0.05059288442134857 0.30980393290519714 0.2823529541492462 0.250980406999588
0.27980294823646545 0.9968419671058655 0.6660078763961792 0.6549019813537598 0.6705882549285889 0.7058823704719543
0.277339905500412 0.9969998598098755 0.6616600751876831 0.6470588445663452 0.6745098233222961 0.6980392336845398
0.1899014711380005 0.9257855415344238 0.00909090880304575 0.43921568989753723 0.43529412150382996 0.364705890417099
0.18078817427158356 0.9208905696868896 0.04782608523964882 0.10980392247438431 0.10588235408067703 0.09803921729326248
0.3600985109806061 0.9954208135604858 0.596442699432373 0.658823549747467 0.6745098233222961 0.7176470756530762
0.2982758581638336 0.8739933967590332 0.00909090880304575 0.6078431606292725 0.6000000238418579 0.5490196347236633
0.2137930989265442 0.9919469356536865 0.9873517751693726 0.3686274588108063 0.35686275362968445 0.2823529541492462
0.14532019197940826 0.9988946914672852 0.8577075004577637 0.5490196347236633 0.529411792755127 0.4431372582912445
0.30000001192092896 0.9958944916725159 0.7071146368980408 0.6274510025978088 0.6470588445663452 0.6705882549285889
0.28768473863601685 0.9973156452178955 0.2446640282869339 0.7098039388656616 0.7176470756530762 0.6666666865348816
0.13596059381961823 0.8700457811355591 0.011067193932831287 0.501960813999176 0.5098039507865906 0.4156862795352936
0.1751231551170349 0.9981051683425903 0.5581027865409851 0.6666666865348816 0.6784313917160034 0.6039215922355652
0.16354680061340332 0.9098373651504517 0.07707510143518448 0.0784313753247261 0.09803921729326248 0.08235294371843338
0.2137930989265442 0.9216800928115845 0.34071147441864014 0.18039216101169586 0.18039216101169586 0.1725490242242813
0.23916256427764893 0.9180483222007751 0.3604743182659149 0.48235294222831726 0.48235294222831726 0.5137255191802979
0.3408867120742798 0.9265750646591187 0.008695651777088642 0.5960784554481506 0.572549045085907 0.5254902243614197
0.2862069010734558 0.9966840147972107 0.008695651777088642 0.364705890417099 0.34117648005485535 0.27843138575553894
0.31453201174736023 0.8684667348861694 0.00909090880304575 0.5568627715110779 0.5568627715110779 0.5176470875740051
0.17980295419692993 0.9981051683425903 0.9857707619667053 0.3921568691730499 0.37254902720451355 0.2980392277240753
0.2896551787853241 0.9591031074523926 0.9893280863761902 0.4156862795352936 0.40392157435417175 0.3686274588108063
0.13596059381961823 0.9987367987632751 0.9031620621681213 0.4941176474094391 0.4745098054409027 0.38823530077934265
0.18571428954601288 0.9647876024246216 0.3324110805988312 0.18431372940540314 0.18431372940540314 0.1764705926179886
0.3179802894592285 0.9968419671058655 0.041897233575582504 0.250980406999588 0.21176470816135406 0.1764705926179886
0.16083744168281555 0.9584714770317078 0.25296443700790405 0.10196078568696976 0.10196078568696976 0.0941176488995552
0.24482758343219757 0.9974735379219055 0.40276679396629333 0.7137255072593689 0.7137255072593689 0.6745098233222961
0.16600985825061798 0.9567345380783081 0.9893280863761902 0.4431372582912445 0.4313725531101227 0.364705890417099
0.2665024697780609 0.9969998598098755 0.059683796018362045 0.7058823704719543 0.7137255072593689 0.6313725709915161
0.2618226706981659 0.9641560316085815 0.00909090880304575 0.5176470875740051 0.5058823823928833 0.4470588266849518
0.30763545632362366 0.9966840147972107 0.9395256638526917 0.41960784792900085 0.41960784792900085 0.3803921639919281
0.1389162540435791 0.9147323369979858 0.36205533146858215 0.3607843220233917 0.3686274588108063 0.3490196168422699
0.3458127975463867 0.9003631472587585 0.9901185631752014 0.43921568989753723 0.4274509847164154 0.40784314274787903
0.22881773114204407 0.9985788464546204 0.6577075123786926 0.6549019813537598 0.658823549747467 0.5960784554481506
0.17980295419692993 0.9758408069610596 0.373913049697876 0.7568627595901489 0.772549033164978 0.7686274647712708
0.2495073825120926 0.8716248273849487 0.9905138611793518 0.4000000059604645 0.4000000059604645 0.3607843220233917
0.3305418789386749 0.9955787062644958 0.634782612323761 0.6509804129600525 0.6784313917160034 0.7019608020782471
0.29532018303871155 0.9289436340332031 0.9897233247756958 0.47058823704719543 0.45490196347236633 0.4431372582912445
0.2977832555770874 0.9958944916725159 0.694861650466919 0.6274510025978088 0.658823549747467 0.6705882549285889
0.2859605848789215 0.9962103366851807 0.36600789427757263 0.6039215922355652 0.6313725709915161 0.6705882549285889
0.1307881772518158 0.9988946914672852 0.782608687877655 0.5843137502670288 0.5764706134796143 0.48627451062202454
0.21354679763317108 0.9987367987632751 0.8383399248123169 0.5803921818733215 0.5568627715110779 0.45490196347236633
0.22512315213680267 0.9969998598098755 0.25138339400291443 0.5529412031173706 0.5529412031173706 0.5058823823928833
0.2573891580104828 0.9804199934005737 0.9075098633766174 0.4588235318660736 0.43921568989753723 0.3529411852359772
0.15714286267757416 0.9336807131767273 0.006719367578625679 0.22745098173618317 0.21568627655506134 0.18039216101169586
0.16108374297618866 0.9981051683425903 0.5351778864860535 0.6627451181411743 0.6666666865348816 0.6039215922355652
0.2182265967130661 0.935575544834137 0.34189721941947937 0.18039216101169586 0.18039216101169586 0.1725490242242813
0.14064039289951324 0.929891049861908 0.010276679880917072 0.12156862765550613 0.11764705926179886 0.10196078568696976
0.3571428656578064 0.9267329573631287 0.007905138656497002 0.5764706134796143 0.5803921818733215 0.5254902243614197
0.21995073556900024 0.9846833944320679 0.3644268810749054 0.4000000059604645 0.40392157435417175 0.3843137323856354
0.13669951260089874 0.9703142046928406 0.9893280863761902 0.4313725531101227 0.41960784792900085 0.3450980484485626
0.14187191426753998 0.9766303300857544 0.9889327883720398 0.42352941632270813 0.4117647111415863 0.3529411852359772
0.14950738847255707 0.9406284689903259 0.005533596966415644 0.09803921729326248 0.09803921729326248 0.09019608050584793
0.3603448271751404 0.9965261220932007 0.08023715764284134 0.7607843279838562 0.7490196228027344 0.6901960968971252
0.2342364490032196 0.9985788464546204 0.9288537502288818 0.45490196347236633 0.43529412150382996 0.3607843220233917
0.321921169757843 0.9954208135604858 0.4889328181743622 0.6941176652908325 0.729411780834198 0.7568627595901489
0.20714285969734192 0.9984209537506104 0.5968379378318787 0.6705882549285889 0.6745098233222961 0.6196078658103943
0.30369457602500916 0.9957365989685059 0.6193675994873047 0.7254902124404907 0.7529411911964417 0.7764706015586853
0.23275862634181976 0.9469445943832397 0.3486166000366211 0.18431372940540314 0.18431372940540314 0.18431372940540314
0.23177340626716614 0.9974735379219055 0.4272727370262146 0.7176470756530762 0.7254902124404907 0.6705882549285889
0.1985221654176712 0.9979472756385803 0.48656126856803894 0.7019608020782471 0.7176470756530762 0.658823549747467
0.13251231610774994 0.9987367987632751 0.8928853869438171 0.5098039507865906 0.48627451062202454 0.4000000059604645
0.24778325855731964 0.9982630610466003 0.5675889253616333 0.6549019813537598 0.6627451181411743 0.6117647290229797
0.2504926025867462 0.9971577525138855 0.3268774747848511 0.48235294222831726 0.47058823704719543 0.4431372582912445
0.14802955090999603 0.994947075843811 0.3545454442501068 0.6509804129600525 0.6666666865348816 0.6117647290229797
0.2344827651977539 0.8847307562828064 0.009486165829002857 0.5803921818733215 0.5882353186607361 0.5333333611488342
0.2463054209947586 0.9973156452178955 0.38814228773117065 0.7098039388656616 0.7098039388656616 0.6705882549285889
0.15344826877117157 0.9706300497055054 0.07391304522752762 0.2078431397676468 0.21568627655506134 0.20392157137393951
0.33842363953590393 0.9583135843276978 0.007509881630539894 0.5215686559677124 0.5098039507865906 0.45098039507865906
0.1630541831254959 0.9819990396499634 0.022529644891619682 0.06666667014360428 0.08235294371843338 0.08627451211214066
0.1783251166343689 0.978209376335144 0.058102767914533615 0.125490203499794 0.125490203499794 0.11764705926179886
0.20344828069210052 0.9878414869308472 0.9889327883720398 0.40392157435417175 0.3921568691730499 0.32549020648002625
0.13399015367031097 0.9913153052330017 0.07233201712369919 0.18431372940540314 0.1882352977991104 0.1568627506494522
0.3497537076473236 0.9957365989685059 0.708695650100708 0.6117647290229797 0.6431372761726379 0.6509804129600525
0.138669952750206 0.9068372249603271 0.3600790500640869 0.21176470816135406 0.22745098173618317 0.2235294133424759
0.12635467946529388 0.9227854013442993 0.3604743182659149 0.19607843458652496 0.20392157137393951 0.1921568661928177
0.3334975242614746 0.9960524439811707 0.7845849990844727 0.5686274766921997 0.6039215922355652 0.6000000238418579
0.23251231014728546 0.9966840147972107 0.03438735008239746 0.20392157137393951 0.1882352977991104 0.15294118225574493
0.21576355397701263 0.9966840147972107 0.1142292469739914 0.615686297416687 0.6235294342041016 0.5686274766921997
0.22561576962471008 0.9651034474372864 0.9889327883720398 0.4431372582912445 0.4313725531101227 0.37254902720451355
0.2926108241081238 0.9715774655342102 0.9387351870536804 0.29411765933036804 0.2980392277240753 0.24313725531101227
0.16724137961864471 0.902573823928833 0.025691699236631393 0.2705882489681244 0.2823529541492462 0.24705882370471954
0.12438423931598663 0.9977893829345703 0.5055335760116577 0.6745098233222961 0.6823529601097107 0.6313725709915161
0.277339905500412 0.9591031074523926 0.00909090880304575 0.615686297416687 0.5960784554481506 0.5176470875740051
0.3096058964729309 0.9955787062644958 0.5707510113716125 0.6705882549285889 0.7058823704719543 0.7333333492279053
0.1987684667110443 0.9988946914672852 0.8418972492218018 0.5647059082984924 0.545098066329956 0.4588235318660736
0.35172414779663086 0.9966840147972107 0.07707510143518448 0.7450980544090271 0.7490196228027344 0.6784313917160034
0.23103448748588562 0.91867995262146 0.009486165829002857 0.4941176474094391 0.48235294222831726 0.42352941632270813
0.13177339732646942 0.9987367987632751 0.8608695864677429 0.5333333611488342 0.5137255191802979 0.4274509847164154
0.3566502332687378 0.9963682293891907 0.05849802494049072 0.7372549176216125 0.7411764860153198 0.6705882549285889
0.18965516984462738 0.9969998598098755 0.27944663166999817 0.2823529541492462 0.2666666805744171 0.23137255012989044
0.20862068235874176 0.9054160714149475 0.9897233247756958 0.3960784375667572 0.38823530077934265 0.34117648005485535
0.2418719232082367 0.9969998598098755 0.1351778656244278 0.6196078658103943 0.6235294342041016 0.5686274766921997
0.24334976077079773 0.9905258417129517 0.008695651777088642 0.3333333432674408 0.3294117748737335 0.24705882370471954
0.2972906529903412 0.9958944916725159 0.655731201171875 0.6352941393852234 0.6705882549285889 0.6980392336845398
0.17931035161018372 0.9111005663871765 0.09683794528245926 0.14509804546833038 0.16470588743686676 0.14901961386203766
0.33472907543182373 0.9958944916725159 0.7351778745651245 0.6000000238418579 0.615686297416687 0.6274510025978088
0.15147782862186432 0.9095215797424316 0.015810277312994003 0.08627451211214066 0.08627451211214066 0.08627451211214066
0.12364532053470612 0.9977893829345703 0.48260870575904846 0.6823529601097107 0.6980392336845398 0.6313725709915161
0.1307881772518158 0.9985788464546204 0.9079051613807678 0.4941176474094391 0.47058823704719543 0.3764705955982208
0.32413792610168457 0.972682774066925 0.9126482009887695 0.4627451002597809 0.46666666865348816 0.4470588266849518
0.2812807857990265 0.9369966983795166 0.00909090880304575 0.5137255191802979 0.5058823823928833 0.4588235318660736
0.2024630606174469 0.9966840147972107 0.038735177367925644 0.24313725531101227 0.21960784494876862 0.1725490242242813
0.19113300740718842 0.9051002860069275 0.3541502058506012 0.1725490242242813 0.16862745583057404 0.16078431904315948
0.2706896662712097 0.9117321968078613 0.00909090880304575 0.7137255072593689 0.7058823704719543 0.6549019813537598
0.13645319640636444 0.8844149708747864 0.9897233247756958 0.42352941632270813 0.4156862795352936 0.35686275362968445
0.14753694832324982 0.9478920102119446 0.006719367578625679 0.10980392247438431 0.0941176488995552 0.09019608050584793
0.1389162540435791 0.9971577525138855 0.3964426815509796 0.686274528503418 0.6941176652908325 0.6000000238418579
0.1268472969532013 0.9974735379219055 0.4308300316333771 0.5960784554481506 0.6078431606292725 0.5333333611488342
0.1741379350423813 0.9016264081001282 0.061660077422857285 0.47843137383461 0.4745098054409027 0.40392157435417175
0.16133004426956177 0.9982630610466003 0.591304361820221 0.6666666865348816 0.658823549747467 0.5764706134796143
0.29975369572639465 0.9957365989685059 0.6470355987548828 0.6549019813537598 0.6823529601097107 0.7215686440467834
0.25123152136802673 0.966998279094696 0.35573121905326843 0.1882352977991104 0.1882352977991104 0.1882352977991104
0.22857142984867096 0.9985788464546204 0.7193675637245178 0.6470588445663452 0.6392157077789307 0.5803921818733215
0.27487683296203613 0.9974735379219055 0.7197628617286682 0.6431372761726379 0.6627451181411743 0.686274528503418
0.2665024697780609 0.9150481820106506 0.00909090880304575 0.47843137383461 0.47058823704719543 0.4117647111415863
0.2807881832122803 0.9935259819030762 0.40790513157844543 0.125490203499794 0.1411764770746231 0.15294118225574493
0.18546797335147858 0.9122059345245361 0.9897233247756958 0.42352941632270813 0.4156862795352936 0.364705890417099
0.1546798050403595 0.9987367987632751 0.874703586101532 0.5372549295425415 0.5176470875740051 0.40392157435417175
0.24852216243743896 0.9969998598098755 0.12608695030212402 0.6313725709915161 0.6431372761726379 0.5686274766921997
0.3369458019733429 0.9973156452178955 0.30355730652809143 0.7098039388656616 0.7137255072593689 0.6823529601097107
0.336699515581131 0.9161534905433655 0.9897233247756958 0.47058823704719543 0.46666666865348816 0.45098039507865906
0.2620689570903778 0.9971577525138855 0.1715414971113205 0.6705882549285889 0.6784313917160034 0.5960784554481506
0.1783251166343689 0.9141007661819458 0.011857707053422928 0.2666666805744171 0.250980406999588 0.20392157137393951
0.1667487621307373 0.9166271686553955 0.365217387676239 0.3176470696926117 0.34117648005485535 0.3333333432674408
0.3325123190879822 0.9957365989685059 0.6889328360557556 0.6274510025978088 0.6549019813537598 0.6784313917160034
0.15320196747779846 0.9044686555862427 0.08181817829608917 0.13725490868091583 0.13333334028720856 0.11372549086809158
0.20270936191082 0.9974735379219055 0.9849802255630493 0.3843137323856354 0.364705890417099 0.29019609093666077
0.35443350672721863 0.9957365989685059 0.6940711736679077 0.6039215922355652 0.6352941393852234 0.6431372761726379
0.18177339434623718 0.9711037278175354 0.37193676829338074 0.5372549295425415 0.5529412031173706 0.5490196347236633
0.2689655125141144 0.8823622465133667 0.9901185631752014 0.37254902720451355 0.3686274588108063 0.3490196168422699
0.277339905500412 0.9969998598098755 0.030039526522159576 0.25882354378700256 0.22745098173618317 0.1764705926179886
0.2628078758716583 0.9824727773666382 0.008695651777088642 0.5529412031173706 0.545098066329956 0.4941176474094391
0.29655173420906067 0.9969998598098755 0.021739130839705467 0.25882354378700256 0.21960784494876862 0.18431372940540314
0.1788177341222763 0.961471676826477 0.3683794438838959 0.22745098173618317 0.23137255012989044 0.239215686917305
0.19359606504440308 0.9524711966514587 0.3683794438838959 0.4745098054409027 0.5058823823928833 0.5176470875740051
0.16133004426956177 0.9939996600151062 0.13754940032958984 0.4901960790157318 0.48235294222831726 0.43529412150382996
0.3374384343624115 0.9954208135604858 0.5193675756454468 0.6745098233222961 0.7176470756530762 0.7411764860153198
0.22364531457424164 0.9985788464546204 0.6553359627723694 0.6549019813537598 0.658823549747467 0.6039215922355652
0.36206895112991333 0.9954208135604858 0.5505928993225098 0.6627451181411743 0.6980392336845398 0.7176470756530762
0.3406403958797455 0.9501026272773743 0.007509881630539894 0.5333333611488342 0.5215686559677124 0.48627451062202454
0.1701970398426056 0.9532607197761536 0.2960474193096161 0.125490203499794 0.125490203499794 0.11764705926179886
0.18374384939670563 0.9868940711021423 0.00830039568245411 0.501960813999176 0.4901960790157318 0.42352941632270813
0.26724138855934143 0.9679456949234009 0.9893280863761902 0.41960784792900085 0.40784314274787903 0.3490196168422699
0.2697044312953949 0.9486815333366394 0.00909090880304575 0.5607843399047852 0.5529412031173706 0.4941176474094391
0.19236452877521515 0.9456813335418701 0.9893280863761902 0.46666666865348816 0.4627451002597809 0.3921568691730499
0.1551724076271057 0.9005210995674133 0.9897233247756958 0.4274509847164154 0.4156862795352936 0.35686275362968445
0.198029562830925 0.9988946914672852 0.7735177874565125 0.615686297416687 0.6117647290229797 0.529411792755127
0.2182265967130661 0.8953102827072144 0.9901185631752014 0.41960784792900085 0.4117647111415863 0.364705890417099
0.24285714328289032 0.9810516238212585 0.3596837818622589 0.3490196168422699 0.3450980484485626 0.32549020648002625
0.1465517282485962 0.9849992394447327 0.9889327883720398 0.4274509847164154 0.42352941632270813 0.3529411852359772
0.1701970398426056 0.9603663086891174 0.30000001192092896 0.16470588743686676 0.16470588743686676 0.1568627506494522
0.3051724135875702 0.8896257877349854 0.9901185631752014 0.40392157435417175 0.4000000059604645 0.3803921639919281
0.18522167205810547 0.8992578387260437 0.01067193690687418 0.35686275362968445 0.3450980484485626 0.2862745225429535
0.32389163970947266 0.9952629208564758 0.43043479323387146 0.2235294133424759 0.239215686917305 0.250980406999588
0.14876846969127655 0.9988946914672852 0.791304349899292 0.5921568870544434 0.5843137502670288 0.48627451062202454
0.2662561535835266 0.8946786522865295 0.9901185631752014 0.43529412150382996 0.42352941632270813 0.40392157435417175
0.22339901328086853 0.8954681754112244 0.009486165829002857 0.6039215922355652 0.615686297416687 0.5333333611488342
0.20467980206012726 0.8814148306846619 0.9901185631752014 0.3960784375667572 0.38823530077934265 0.33725491166114807
0.25221675634384155 0.9985788464546204 0.7225296497344971 0.6313725709915161 0.615686297416687 0.5686274766921997
0.22093595564365387 0.9169430136680603 0.3426877558231354 0.18039216101169586 0.18039216101169586 0.1725490242242813
0.205911323428154 0.9977893829345703 0.4675889313220978 0.7058823704719543 0.7215686440467834 0.6627451181411743
0.1625615805387497 0.9349439740180969 0.3758893311023712 0.3176470696926117 0.3333333432674408 0.3294117748737335
0.36625614762306213 0.9368388056755066 0.0071146246045827866 0.6039215922355652 0.6078431606292725 0.5529412031173706
0.32266008853912354 0.9420495629310608 0.008695651777088642 0.5568627715110779 0.5333333611488342 0.47058823704719543
0.1302955597639084 0.9033633470535278 0.012252964079380035 0.40392157435417175 0.4117647111415863 0.3686274588108063
0.16108374297618866 0.994789183139801 0.29920947551727295 0.09019608050584793 0.09019608050584793 0.09803921729326248
0.31970444321632385 0.9957365989685059 0.6498023867607117 0.6392157077789307 0.6666666865348816 0.7058823704719543
0.24532020092010498 0.9546818137168884 0.3537549376487732 0.1882352977991104 0.1882352977991104 0.1882352977991104
0.26847290992736816 0.9985788464546204 0.8391304612159729 0.5176470875740051 0.5098039507865906 0.4117647111415863
0.31502464413642883 0.9180483222007751 0.9897233247756958 0.45490196347236633 0.43921568989753723 0.4274509847164154
0.26798030734062195 0.9974735379219055 0.9324110746383667 0.43529412150382996 0.43529412150382996 0.38823530077934265
0.1667487621307373 0.9984209537506104 0.6300395131111145 0.6509804129600525 0.6549019813537598 0.5843137502670288
0.27955666184425354 0.9979472756385803 0.8814229369163513 0.5215686559677124 0.4941176474094391 0.41960784792900085
0.15024630725383759 0.9701563119888306 0.024110671132802963 0.07450980693101883 0.07450980693101883 0.08235294371843338
0.21551723778247833 0.9696826338768005 0.008695651777088642 0.5921568870544434 0.5843137502670288 0.501960813999176
0.24014778435230255 0.9968419671058655 0.08418972045183182 0.6509804129600525 0.6549019813537598 0.5921568870544434
0.1352216750383377 0.9987367987632751 0.8972331881523132 0.5058823823928833 0.48627451062202454 0.4000000059604645
0.24285714328289032 0.9259434938430786 0.3596837818622589 0.364705890417099 0.35686275362968445 0.3607843220233917
0.19778324663639069 0.9984209537506104 0.9648221135139465 0.42352941632270813 0.40392157435417175 0.32549020648002625
0.2731527090072632 0.9681035876274109 0.00909090880304575 0.658823549747467 0.6470588445663452 0.572549045085907
0.1704433560371399 0.9985788464546204 0.9501976370811462 0.45098039507865906 0.42352941632270813 0.3490196168422699
0.3490147888660431 0.9965261220932007 0.9430829882621765 0.4156862795352936 0.41960784792900085 0.3960784375667572
0.1741379350423813 0.9316279888153076 0.3699604868888855 0.12156862765550613 0.12941177189350128 0.125490203499794
0.1667487621307373 0.9153639674186707 0.012252964079380035 0.3137255012989044 0.30588236451148987 0.2549019753932953
0.33866995573043823 0.9974735379219055 0.22569170594215393 0.7529411911964417 0.7607843279838562 0.7176470756530762
0.2140394151210785 0.9969998598098755 0.24743083119392395 0.5490196347236633 0.5490196347236633 0.5098039507865906
0.22857142984867096 0.8896257877349854 0.9901185631752014 0.4000000059604645 0.3921568691730499 0.3450980484485626
0.3529556691646576 0.9958944916725159 0.7794466614723206 0.5764706134796143 0.5960784554481506 0.6196078658103943
0.16453202068805695 0.9859466552734375 0.072727270424366 0.1921568661928177 0.20000000298023224 0.1882352977991104
0.31083744764328003 0.9981051683425903 0.908695638179779 0.4941176474094391 0.4941176474094391 0.4470588266849518
0.1864532083272934 0.9878414869308472 0.9889327883720398 0.3764705955982208 0.37254902720451355 0.3019607961177826
0.24827586114406586 0.9973156452178955 0.36758893728256226 0.45098039507865906 0.4470588266849518 0.4274509847164154
0.17241379618644714 0.9036791324615479 0.2758893370628357 0.16078431904315948 0.16862745583057404 0.16470588743686676
0.15812808275222778 0.91946941614151 0.010276679880917072 0.14509804546833038 0.13333334028720856 0.11372549086809158
0.341379314661026 0.9951050281524658 0.9723320007324219 0.37254902720451355 0.3607843220233917 0.32549020648002625
0.14876846969127655 0.9988946914672852 0.7754940986633301 0.5960784554481506 0.5960784554481506 0.501960813999176
0.19310344755649567 0.9988946914672852 0.7379446625709534 0.6392157077789307 0.6274510025978088 0.5529412031173706
0.15246304869651794 0.9148902297019958 0.011857707053422928 0.14509804546833038 0.12941177189350128 0.125490203499794
0.338177353143692 0.8896257877349854 0.008695651777088642 0.5882353186607361 0.5803921818733215 0.529411792755127
0.3305418789386749 0.9974735379219055 0.22687746584415436 0.7215686440467834 0.7333333492279053 0.6901960968971252
0.2701970338821411 0.9981051683425903 0.7849802374839783 0.4470588266849518 0.45490196347236633 0.40392157435417175
0.2650246322154999 0.983735978603363 0.9865612387657166 0.4117647111415863 0.3960784375667572 0.3529411852359772
0.33152708411216736 0.9973156452178955 0.3379446566104889 0.6666666865348816 0.6784313917160034 0.6039215922355652
0.15985222160816193 0.9758408069610596 0.24822133779525757 0.3803921639919281 0.3843137323856354 0.32156863808631897
0.12832511961460114 0.9984209537506104 0.19407114386558533 0.32156863808631897 0.30980393290519714 0.27450981736183167
0.35517242550849915 0.8840991854667664 0.9901185631752014 0.45098039507865906 0.43921568989753723 0.41960784792900085
0.33990147709846497 0.9973156452178955 0.17391304671764374 0.7215686440467834 0.7254902124404907 0.6705882549285889
0.24039408564567566 0.9104689955711365 0.9897233247756958 0.4156862795352936 0.40392157435417175 0.3686274588108063
0.13004925847053528 0.9682614803314209 0.9893280863761902 0.45098039507865906 0.4274509847164154 0.37254902720451355
0.1625615805387497 0.9455234408378601 0.0071146246045827866 0.2235294133424759 0.2235294133424759 0.1921568661928177
0.22906403243541718 0.9985788464546204 0.6723319888114929 0.6549019813537598 0.658823549747467 0.6039215922355652
0.32019704580307007 0.9112584590911865 0.008695651777088642 0.615686297416687 0.6039215922355652 0.5686274766921997
0.21157635748386383 0.9524711966514587 0.9893280863761902 0.4627451002597809 0.45098039507865906 0.3843137323856354
0.2544334828853607 0.9985788464546204 0.8624505996704102 0.545098066329956 0.529411792755127 0.4313725531101227
0.33078816533088684 0.9960524439811707 0.9521738886833191 0.4117647111415863 0.40784314274787903 0.38823530077934265
0.17389161884784698 0.9968419671058655 0.3118577003479004 0.07058823853731155 0.07450980693101883 0.08235294371843338
0.20270936191082 0.9909995198249817 0.33636364340782166 0.1882352977991104 0.18431372940540314 0.16470588743686676
0.35985222458839417 0.9158377051353455 0.007905138656497002 0.5843137502670288 0.572549045085907 0.5137255191802979
0.23546798527240753 0.91899573802948 0.9897233247756958 0.43921568989753723 0.4313725531101227 0.3843137323856354
0.3027093708515167 0.9962103366851807 0.7972332239151001 0.5764706134796143 0.6000000238418579 0.5921568870544434
0.31896552443504333 0.9960524439811707 0.7889328002929688 0.5803921818733215 0.6039215922355652 0.6039215922355652
0.2384236454963684 0.9254697561264038 0.009486165829002857 0.5176470875740051 0.501960813999176 0.45490196347236633
0.20837438106536865 0.9968419671058655 0.15019762516021729 0.5333333611488342 0.5215686559677124 0.48627451062202454
0.1423645317554474 0.9092057347297668 0.3644268810749054 0.1725490242242813 0.18039216101169586 0.16078431904315948
0.13694581389427185 0.9374703764915466 0.01462450623512268 0.08235294371843338 0.08235294371843338 0.08235294371843338
0.1394088715314865 0.9984209537506104 0.6679841876029968 0.6470588445663452 0.6392157077789307 0.5568627715110779
0.17783251404762268 0.9095215797424316 0.19960474967956543 0.16862745583057404 0.18039216101169586 0.14509804546833038
0.21674877405166626 0.9968419671058655 0.18616600334644318 0.5098039507865906 0.5098039507865906 0.47058823704719543
0.3463054299354553 0.9957365989685059 0.6897233128547668 0.6078431606292725 0.6431372761726379 0.6392157077789307
0.3334975242614746 0.9973156452178955 0.31897231936454773 0.7215686440467834 0.7254902124404907 0.6941176652908325
0.27266010642051697 0.9968419671058655 0.552173912525177 0.6392157077789307 0.6705882549285889 0.6823529601097107
0.28004926443099976 0.9973156452178955 0.3075098693370819 0.7176470756530762 0.7254902124404907 0.6705882549285889
0.19113300740718842 0.9965261220932007 0.032015811651945114 0.18431372940540314 0.1725490242242813 0.13725490868091583
0.17733989655971527 0.9224696159362793 0.011857707053422928 0.30980393290519714 0.3019607961177826 0.250980406999588
0.16206896305084229 0.9701563119888306 0.9889327883720398 0.42352941632270813 0.4117647111415863 0.3450980484485626
0.12832511961460114 0.8853623867034912 0.1660079061985016 0.07058823853731155 0.07058823853731155 0.0784313753247261
0.1903940886259079 0.9549976587295532 0.36798417568206787 0.3607843220233917 0.3803921639919281 0.3921568691730499
0.32758620381355286 0.9166271686553955 0.9897233247756958 0.4588235318660736 0.4431372582912445 0.43921568989753723
0.15369458496570587 0.9971577525138855 0.9885375499725342 0.38823530077934265 0.3607843220233917 0.2862745225429535
0.3408867120742798 0.9633665084838867 0.9889327883720398 0.4431372582912445 0.4274509847164154 0.4156862795352936
0.24753694236278534 0.9973156452178955 0.38339921832084656 0.7019608020782471 0.7137255072593689 0.6705882549285889
0.16009852290153503 0.9977893829345703 0.5015810132026672 0.6784313917160034 0.6901960968971252 0.6235294342041016
0.30714285373687744 0.8856781721115112 0.9901185631752014 0.3921568691730499 0.38823530077934265 0.3686274588108063
0.25246304273605347 0.9295752644538879 0.35652172565460205 0.18431372940540314 0.18431372940540314 0.18431372940540314
0.3485221564769745 0.9957365989685059 0.6667984127998352 0.6196078658103943 0.6509804129600525 0.6627451181411743
0.24704433977603912 0.8889941573143005 0.9901185631752014 0.41960784792900085 0.40784314274787903 0.37254902720451355
0.18103447556495667 0.9235749244689941 0.04782608523964882 0.0941176488995552 0.09019608050584793 0.07450980693101883
0.2061576396226883 0.9905258417129517 0.3371541500091553 0.20392157137393951 0.1882352977991104 0.1764705926179886
0.22536945343017578 0.9965261220932007 0.01304347813129425 0.3843137323856354 0.364705890417099 0.2862745225429535
0.2844827473163605 0.9971577525138855 0.8343873620033264 0.5568627715110779 0.5803921818733215 0.572549045085907
0.15172414481639862 0.9917890429496765 0.3181818127632141 0.2862745225429535 0.29019609093666077 0.2705882489681244
0.2933497428894043 0.9958944916725159 0.6498023867607117 0.6392157077789307 0.6784313917160034 0.7137255072593689
0.22413793206214905 0.9985788464546204 0.6754940748214722 0.6509804129600525 0.658823549747467 0.6039215922355652
0.3012315332889557 0.9976314306259155 0.8727272748947144 0.5137255191802979 0.5058823823928833 0.42352941632270813
0.16995073854923248 0.9038370251655579 0.22806324064731598 0.07450980693101883 0.08235294371843338 0.07058823853731155
0.2628078758716583 0.9147323369979858 0.00909090880304575 0.5764706134796143 0.5607843399047852 0.5137255191802979
0.17980295419692993 0.9988946914672852 0.852173924446106 0.5607843399047852 0.545098066329956 0.4470588266849518
0.24507388472557068 0.9231011867523193 0.9897233247756958 0.4431372582912445 0.4313725531101227 0.3960784375667572
0.1741379350423813 0.9497868418693542 0.27984189987182617 0.09803921729326248 0.09803921729326248 0.09803921729326248
0.30369457602500916 0.9974735379219055 0.20988142490386963 0.7215686440467834 0.7333333492279053 0.6901960968971252
0.28793102502822876 0.9957365989685059 0.560869574546814 0.6784313917160034 0.7215686440467834 0.7450980544090271
0.1394088715314865 0.9524711966514587 0.9893280863761902 0.45098039507865906 0.43921568989753723 0.37254902720451355
0.3293103575706482 0.9974735379219055 0.23122529685497284 0.7215686440467834 0.7333333492279053 0.6901960968971252
0.14384236931800842 0.9047844409942627 0.2924901247024536 0.3333333432674408 0.3686274588108063 0.3490196168422699
0.1625615805387497 0.8932575583457947 0.9897233247756958 0.4117647111415863 0.40392157435417175 0.3529411852359772
0.13226601481437683 0.988788902759552 0.07233201712369919 0.18431372940540314 0.1882352977991104 0.16862745583057404
0.31477832794189453 0.983420193195343 0.9889327883720398 0.40392157435417175 0.3921568691730499 0.35686275362968445
0.27118226885795593 0.9969998598098755 0.0830039530992508 0.6941176652908325 0.7019608020782471 0.6196078658103943
0.14458128809928894 0.9213643074035645 0.00909090880304575 0.13725490868091583 0.1411764770746231 0.12156862765550613
0.15738916397094727 0.9319437742233276 0.9897233247756958 0.43529412150382996 0.41960784792900085 0.37254902720451355
0.2970443367958069 0.9204168915748596 0.00909090880304575 0.545098066329956 0.5333333611488342 0.49803921580314636
0.3369458019733429 0.9968419671058655 0.9343873262405396 0.43921568989753723 0.4431372582912445 0.4117647111415863
0.1785714328289032 0.8714669346809387 0.9897233247756958 0.3764705955982208 0.37254902720451355 0.29411765933036804
0.3692118227481842 0.9592610001564026 0.007509881630539894 0.49803921580314636 0.48627451062202454 0.4274509847164154
0.32389163970947266 0.9699984192848206 0.9296442866325378 0.48627451062202454 0.48235294222831726 0.4627451002597809
0.1709359586238861 0.9374703764915466 0.025691699236631393 0.08627451211214066 0.08627451211214066 0.08627451211214066
0.16379310190677643 0.9098373651504517 0.3383399248123169 0.16862745583057404 0.1725490242242813 0.1882352977991104
0.23325122892856598 0.9966840147972107 0.012252964079380035 0.45098039507865906 0.43921568989753723 0.364705890417099
0.1948275864124298 0.9987367987632751 0.7276679873466492 0.6274510025978088 0.6313725709915161 0.5607843399047852
0.21527093648910522 0.9966840147972107 0.13873517513275146 0.6000000238418579 0.6078431606292725 0.5568627715110779
0.18793103098869324 0.9554713368415833 0.008695651777088642 0.5647059082984924 0.5529412031173706 0.47843137383461
0.1704433560371399 0.9805779457092285 0.02490118518471718 0.08627451211214066 0.09019608050584793 0.09803921729326248
0.1943349689245224 0.9973156452178955 0.40355730056762695 0.7607843279838562 0.7686274647712708 0.7176470756530762
0.35960590839385986 0.9987367987632751 0.895652174949646 0.4470588266849518 0.43529412150382996 0.4000000059604645
0.3490147888660431 0.9478920102119446 0.007509881630539894 0.545098066329956 0.5372549295425415 0.48627451062202454
0.2182265967130661 0.9455234408378601 0.00909090880304575 0.5843137502670288 0.572549045085907 0.49803921580314636
0.21724137663841248 0.8836254477500916 0.9901185631752014 0.41960784792900085 0.4117647111415863 0.364705890417099
0.22044335305690765 0.8896257877349854 0.009486165829002857 0.5960784554481506 0.5764706134796143 0.501960813999176
0.17536945641040802 0.9987367987632751 0.9031620621681213 0.5058823823928833 0.4901960790157318 0.3921568691730499
0.2423645257949829 0.9938417673110962 0.35573121905326843 0.3294117748737335 0.32549020648002625 0.30980393290519714
0.19137930870056152 0.9968419671058655 0.15494070947170258 0.47843137383461 0.48235294222831726 0.45098039507865906
0.19359606504440308 0.9118900895118713 0.9897233247756958 0.42352941632270813 0.4156862795352936 0.364705890417099
0.35517242550849915 0.9957365989685059 0.6837944388389587 0.6078431606292725 0.6431372761726379 0.6392157077789307
0.28743842244148254 0.9358913898468018 0.9893280863761902 0.4470588266849518 0.4313725531101227 0.41960784792900085
0.282019704580307 0.9974735379219055 0.8632411360740662 0.529411792755127 0.5098039507865906 0.42352941632270813
0.2024630606174469 0.9450497627258301 0.36758893728256226 0.3529411852359772 0.364705890417099 0.3843137323856354
0.346059113740921 0.9963682293891907 0.015019763261079788 0.46666666865348816 0.43529412150382996 0.3843137323856354
0.19310344755649567 0.9215222001075745 0.9897233247756958 0.4431372582912445 0.43529412150382996 0.3843137323856354
0.35123151540756226 0.9976314306259155 0.9189723134040833 0.4627451002597809 0.49803921580314636 0.48627451062202454
0.28694581985473633 0.9965261220932007 0.7256916761398315 0.6274510025978088 0.6470588445663452 0.6627451181411743
0.3133004903793335 0.9715774655342102 0.9371541738510132 0.3686274588108063 0.3686274588108063 0.3294117748737335
0.170689657330513 0.9584714770317078 0.02648221328854561 0.08627451211214066 0.08627451211214066 0.08627451211214066
0.24532020092010498 0.9592610001564026 0.9893280863761902 0.45098039507865906 0.45490196347236633 0.4000000059604645
0.2507389187812805 0.9374703764915466 0.3553359806537628 0.18431372940540314 0.18431372940540314 0.18431372940540314
0.13177339732646942 0.913311243057251 0.07430829852819443 0.23137255012989044 0.250980406999588 0.23529411852359772
0.1507389098405838 0.9938417673110962 0.30869564414024353 0.1882352977991104 0.19607843458652496 0.1921568661928177
0.2103448212146759 0.9431549310684204 0.9893280863761902 0.4313725531101227 0.41960784792900085 0.3529411852359772
0.3522167503833771 0.9971577525138855 0.16521738469600677 0.7254902124404907 0.7176470756530762 0.6705882549285889
0.3610837459564209 0.9690510034561157 0.9217391014099121 0.5647059082984924 0.5647059082984924 0.5647059082984924
0.2588669955730438 0.9644718170166016 0.9889327883720398 0.42352941632270813 0.40784314274787903 0.3607843220233917
0.2623152732849121 0.9985788464546204 0.7628458738327026 0.6117647290229797 0.6000000238418579 0.5411764979362488
0.36674878001213074 0.9616295695304871 0.007509881630539894 0.5215686559677124 0.5215686559677124 0.4745098054409027
0.158620685338974 0.9035212397575378 0.2806324064731598 0.18039216101169586 0.20000000298023224 0.18431372940540314
